# .PCD v0.7 - Point Cloud Data file format
VERSION 0.7
FIELDS x y z rgb
SIZE 4 4 4 4
TYPE F F F F
COUNT 1 1 1 1
WIDTH 889
HEIGHT 1
VIEWPOINT 0 0 0 1 0 0 0
POINTS 889
DATA ascii
0.2641416152 0.047729529 0.5699212989 8.365642531e-39
0.2671415752 0.047923807 0.5670946689 7.719230556e-39
0.2691416052 0.048053335 0.5647327489 6.613639698e-39
0.2701415952 0.048118096 0.5628413089 5.514500419e-39
0.2721416252 0.04824762 0.5604660689 8.27245338e-39
0.2741416052 0.048377145 0.5580832189 1.113981973e-38
0.2741416052 0.048377145 0.5566603689 1.327286083e-38
0.2741416052 0.048377145 0.5552374889 1.54837763e-38
0.2751415952 0.048441906 0.5533270389 1.567466818e-38
0.2751415952 0.048441906 0.5519022789 1.595090895e-38
0.2801415852 0.048765715 0.5480203789 1.576797224e-38
0.1971415852 0.044666667 0.8351137189 1.224750692e-38
0.1971415852 0.044666667 0.8338375239 1.224750272e-38
0.1981415652 0.044733334 0.8324337149 1.233969134e-38
0.1981415652 0.044733334 0.8311556279 1.224498179e-38
0.1981415652 0.044733334 0.8298775249 1.215135403e-38
0.1991416152 0.044800006 0.8284660869 1.196660964e-38
0.2011415852 0.044933334 0.8269156209 1.187405528e-38
0.2011415852 0.044933334 0.8256318119 1.159711386e-38
0.2021415752 0.044999998 0.8242089519 1.141236807e-38
0.2021415752 0.044999998 0.8229232429 1.085848804e-38
0.2031416252 0.04506667 0.8214946609 1.039643229e-38
0.2031416252 0.04506667 0.8202070439 1.067013811e-38
0.2031416252 0.04506667 0.8189194199 1.103605077e-38
0.2051415952 0.045200001 0.8173346689 1.094529848e-38
0.2051415952 0.045200001 0.8160432389 1.085489791e-38
0.2061415852 0.045266669 0.8145994289 1.03953617e-38
0.2071415752 0.045333333 0.8131518089 1.002766659e-38
0.2071415752 0.045333333 0.8118565789 1.039501558e-38
0.2071415752 0.045333333 0.8105613389 1.085454619e-38
0.2071415752 0.045333333 0.8092661089 1.10396465e-38
0.2071415752 0.045333333 0.8079708689 1.113292674e-38
0.2071415752 0.045333333 0.8066756289 1.131481528e-38
0.2071415752 0.045333333 0.8053803889 1.149669541e-38
0.2071415752 0.045333333 0.8040851489 1.168180414e-38
0.2071415752 0.045333333 0.8027899089 1.196125108e-38
0.2071415752 0.045333333 0.8014946689 1.205272364e-38
0.2071415752 0.045333333 0.8001994289 1.214456053e-38
0.2091416052 0.045466669 0.7985537089 1.214456334e-38
0.2091416052 0.045466669 0.7972546689 1.214491786e-38
0.2091416052 0.045466669 0.7959556189 1.205307957e-38
0.2101415952 0.045533333 0.7944756189 1.205343129e-38
0.2101415952 0.045533333 0.7931746689 1.186939596e-38
0.2101415952 0.045533333 0.7918737189 1.177757168e-38
0.2101415952 0.045533333 0.7905727589 1.131804667e-38
0.2101415952 0.045533333 0.7892717989 1.085886078e-38
0.2101415952 0.045533333 0.7879708589 1.10428821e-38
0.2101415952 0.045533333 0.7866699089 1.122727616e-38
0.2091416052 0.045466669 0.7855632289 1.131911727e-38
0.2101415952 0.045533333 0.7840679889 1.141132551e-38
0.2101415952 0.045533333 0.7827670389 1.159465178e-38
0.2101415952 0.045533333 0.7814660989 1.177580464e-38
0.2091416052 0.045466669 0.7803670289 1.196018609e-38
0.2091416052 0.045466669 0.7790679889 1.223677158e-38
0.2091416052 0.045466669 0.7777689389 1.2512641e-38
0.2091416052 0.045466669 0.7764698989 1.288033752e-38
0.2091416052 0.045466669 0.7751708489 1.297252754e-38
0.2091416052 0.045466669 0.7738718089 1.315656007e-38
0.2091416052 0.045466669 0.7725727589 1.315656287e-38
0.2091416052 0.045466669 0.7712737189 1.31569216e-38
0.2091416052 0.045466669 0.7699746589 1.297360934e-38
0.2091416052 0.045466669 0.7686756089 1.288249411e-38
0.2091416052 0.045466669 0.7673765589 1.279138029e-38
0.2091416052 0.045466669 0.7660775189 1.279317395e-38
0.2091416052 0.045466669 0.7647784689 1.270097972e-38
0.2091416052 0.045466669 0.7634794289 1.260914562e-38
0.2091416052 0.045466669 0.7621803689 1.260878969e-38
0.2091416052 0.045466669 0.7608813389 1.26087925e-38
0.2091416052 0.045466669 0.7595822789 1.26087953e-38
0.2091416052 0.045466669 0.7582832389 1.26087911e-38
0.2091416052 0.045466669 0.7569841689 1.260914703e-38
0.2091416052 0.045466669 0.7556851389 1.270134406e-38
0.2091416052 0.045466669 0.7543860789 1.279246629e-38
0.2091416052 0.045466669 0.7530870389 1.279174322e-38
0.2071415752 0.045333333 0.7522756189 1.306796297e-38
0.2071415752 0.045333333 0.7509803789 1.343602663e-38
0.2071415752 0.045333333 0.7496851389 1.352750759e-38
0.2071415752 0.045333333 0.7483898989 1.37104415e-38
0.2071415752 0.045333333 0.7470946789 1.398592977e-38
0.2071415752 0.045333333 0.7457994389 1.435365431e-38
0.2071415752 0.045333333 0.7445041989 1.417036588e-38
0.2071415752 0.045333333 0.7432089589 1.398702139e-38
0.2071415752 0.045333333 0.7419137189 1.398663042e-38
0.2071415752 0.045333333 0.7406184789 1.40781212e-38
0.2071415752 0.045333333 0.7393232389 1.407813661e-38
0.2071415752 0.045333333 0.7380280089 1.417033645e-38
0.2071415752 0.045333333 0.7367327689 1.426325375e-38
0.2071415752 0.045333333 0.7354375389 1.435437598e-38
0.2071415752 0.045333333 0.7341422989 1.426290342e-38
0.2071415752 0.045333333 0.7328470689 1.417141685e-38
0.2071415752 0.045333333 0.7315518289 1.407921281e-38
0.2091416052 0.045466669 0.7297041889 1.407921982e-38
0.2091416052 0.045466669 0.7284051289 1.407958696e-38
0.2091416052 0.045466669 0.7271060989 1.417213572e-38
0.2091416052 0.045466669 0.7258070389 1.398846052e-38
0.2091416052 0.045466669 0.7245079989 1.380477691e-38
0.2091416052 0.045466669 0.7232089489 1.362073458e-38
0.2091416052 0.045466669 0.7219098989 1.343563706e-38
0.2091416052 0.045466669 0.7206108389 1.361931646e-38
0.2091416052 0.045466669 0.7193117989 1.371150789e-38
0.2091416052 0.045466669 0.7180127489 1.380298185e-38
0.2091416052 0.045466669 0.7167137089 1.380262452e-38
0.2091416052 0.045466669 0.7154146589 1.371079183e-38
0.2091416052 0.045466669 0.7141156189 1.371113094e-38
0.2091416052 0.045466669 0.7128165689 1.35281592e-38
0.2091416052 0.045466669 0.7115175289 1.334522529e-38
0.2091416052 0.045466669 0.7102184589 1.352855857e-38
0.2091416052 0.045466669 0.7089194189 1.371225058e-38
0.2091416052 0.045466669 0.7076203689 1.371298906e-38
0.2091416052 0.045466669 0.7063213289 1.362257448e-38
0.2091416052 0.045466669 0.7050222789 1.334562045e-38
0.2091416052 0.045466669 0.7037232389 1.29786372e-38
0.2091416052 0.045466669 0.7024241789 1.334598059e-38
0.2091416052 0.045466669 0.7011251489 1.380407907e-38
0.2091416052 0.045466669 0.6998260889 1.38044364e-38
0.2091416052 0.045466669 0.6985270489 1.380443079e-38
0.2091416052 0.045466669 0.6972279889 1.362039687e-38
0.2091416052 0.045466669 0.6959289489 1.352855857e-38
0.2091416052 0.045466669 0.6946298889 1.34370804e-38
0.2111415852 0.045600001 0.6926718189 1.334633091e-38
0.2091416052 0.045466669 0.6920317989 1.353001311e-38
0.2111415852 0.045600001 0.6900660989 1.380587273e-38
0.2131416152 0.045733336 0.6880927489 1.389734389e-38
0.2131416152 0.045733336 0.6867860889 1.398879963e-38
0.2131416152 0.045733336 0.6854794189 1.398842128e-38
0.2131416152 0.045733336 0.6841727489 1.398842969e-38
0.2141416052 0.045800004 0.6825232389 1.380404964e-38
0.2141416052 0.045800004 0.6812146589 1.371150929e-38
0.2141416052 0.045800004 0.6799060989 1.380371613e-38
0.2161415752 0.045933332 0.6779003689 1.389591316e-38
0.2141416052 0.045800004 0.6772889489 1.398775286e-38
0.2141416052 0.045800004 0.6759803689 1.407994009e-38
0.2141416052 0.045800004 0.6746717989 1.398773885e-38
0.2141416052 0.045800004 0.6733632189 1.389590616e-38
0.2141416052 0.045800004 0.6720546589 1.407993868e-38
0.2141416052 0.045800004 0.6707460989 1.417285458e-38
0.2141416052 0.045800004 0.6694374989 1.407994709e-38
0.2141416052 0.045800004 0.6681289389 1.389556004e-38
0.2141416052 0.045800004 0.6668203589 1.435474032e-38
0.2141416052 0.045800004 0.6655117989 1.481427233e-38
0.2141416052 0.045800004 0.6642032389 1.453912037e-38
0.2141416052 0.045800004 0.6628946489 1.435472771e-38
0.2141416052 0.045800004 0.6615860889 1.43547235e-38
0.2161415752 0.045933332 0.6595270489 1.444691773e-38
0.2141416052 0.045800004 0.6589689689 1.435436617e-38
0.2171416252 0.046000004 0.6565232089 1.417033224e-38
0.2181416052 0.046066668 0.6548279989 1.407813521e-38
0.2181416052 0.046066668 0.6535118089 1.398629691e-38
0.2201415852 0.0462 0.6514260889 1.398593538e-38
0.2201415852 0.0462 0.6501060889 1.407776807e-38
0.2201415852 0.0462 0.6487860789 1.398593118e-38
0.2211415752 0.046266668 0.6470756089 1.38944404e-38
0.2211415752 0.046266668 0.6457537289 1.398590315e-38
0.2211415752 0.046266668 0.6444318189 1.407777508e-38
0.2211415752 0.046266668 0.6431098989 1.426184264e-38
0.2211415752 0.046266668 0.6417879889 1.453409671e-38
0.2221416152 0.046333339 0.6400660689 1.425928527e-38
0.2221416152 0.046333339 0.6387422789 1.398449625e-38
0.2251415752 0.046533335 0.6362070589 1.380082525e-38
0.2251415752 0.046533335 0.6348775489 1.36175186e-38
0.2251415752 0.046533335 0.6335479789 1.38011952e-38
0.2251415752 0.046533335 0.6322184689 1.4074887e-38
0.2271416152 0.046666671 0.6300660789 1.361533117e-38
0.2271416152 0.046666671 0.6287327589 1.324764166e-38
0.2281415952 0.046733335 0.6269841889 1.324801301e-38
0.2281415952 0.046733335 0.6256489289 1.333913524e-38
0.2301415752 0.046866667 0.6234756289 1.324694522e-38
0.2311416252 0.046933334 0.6217155889 1.315474539e-38
0.2311416252 0.046933334 0.6203746689 1.306254555e-38
0.2321416052 0.047000002 0.6186089389 1.297034292e-38
0.2321416052 0.047000002 0.6172660689 1.278594605e-38
0.2321416052 0.047000002 0.6159232089 1.260192614e-38
0.2341415852 0.047133334 0.6137194489 1.241790622e-38
0.2341415852 0.047133334 0.6123727689 1.223424083e-38
0.2341415852 0.047133334 0.6110260889 1.214241094e-38
0.2351415652 0.047200002 0.6092432289 1.204984116e-38
0.2371416052 0.047333337 0.6070184889 1.177431926e-38
0.2381415952 0.047400001 0.6052260889 1.159603346e-38
0.2401416252 0.047533337 0.6029879889 1.131299779e-38
0.2411416152 0.047600001 0.6011860789 1.112609541e-38
0.2431415852 0.047733337 0.5989346689 1.094278175e-38
0.2431415852 0.047733337 0.5975708489 1.075695836e-38
0.2441415752 0.047800001 0.5957575289 1.048109454e-38
0.2471415952 0.048 0.5930375289 1.020524193e-38
0.2501416152 0.048200004 0.5903060889 1.020633214e-38
0.2501416152 0.048200004 0.5889289189 1.02059622e-38
0.2521415852 0.048333332 0.5866375389 9.929728436e-39
0.2531415752 0.0484 0.5847975189 9.745694508e-39
0.2531415752 0.0484 0.5834146589 9.471260013e-39
0.2551416052 0.048533335 0.5811060789 9.289022549e-39
0.2561415952 0.048600003 0.5792546689 8.644739146e-39
0.2611415952 0.048933335 0.5755327789 8.000455743e-39
0.2631416252 0.04906667 0.5731974989 8.181615609e-39
0.2641416152 0.049133338 0.5713251089 8.270937175e-39
0.2641416152 0.049133338 0.5699212989 8.181252672e-39
0.2671415752 0.04933333 0.5670946689 8.082996427e-39
0.2691416052 0.04946667 0.5647327489 9.289810078e-39
0.2701415952 0.049533334 0.5628413089 1.049663074e-38
0.2701415952 0.049533334 0.5614260889 1.225625803e-38
0.2741416052 0.049800001 0.5580832189 1.410805994e-38
0.2751415952 0.049866665 0.5561765589 1.503038758e-38
0.2751415952 0.049866665 0.5547517989 1.604490105e-38
0.2771416252 0.050000004 0.5523517889 1.594877898e-38
0.2771416252 0.050000004 0.5509232089 1.585550715e-38
0.1981415652 0.046011429 0.8311556279 1.178689592e-38
0.1981415652 0.046011429 0.8298775249 1.215245124e-38
0.1991416152 0.046080001 0.8284660869 1.205918642e-38
0.2011415852 0.046217144 0.8269156209 1.205881788e-38
0.2021415752 0.046285715 0.8254946689 1.187513848e-38
0.2021415752 0.046285715 0.8242089519 1.168895496e-38
0.2031416252 0.04635429 0.8227822779 1.150313017e-38
0.2021415752 0.046285715 0.8216375259 1.141128907e-38
0.2051415952 0.046491429 0.8199175219 1.131944937e-38
0.2031416252 0.04635429 0.8189194199 1.122547129e-38
0.2051415952 0.046491429 0.8173346689 1.094818095e-38
0.2061415852 0.046560001 0.8158927589 1.076306802e-38
0.2071415752 0.046628568 0.8144470489 9.843269722e-39
0.2071415752 0.046628568 0.8131518089 8.924558831e-39
0.2071415752 0.046628568 0.8118565789 9.567411508e-39
0.2071415752 0.046628568 0.8105613389 1.021205084e-38
0.2071415752 0.046628568 0.8092661089 1.002837845e-38
0.2071415752 0.046628568 0.8079708689 9.936194027e-39
0.2071415752 0.046628568 0.8066756289 1.039502118e-38
0.2071415752 0.046628568 0.8053803889 1.085384414e-38
0.2071415752 0.046628568 0.8040851489 1.085349101e-38
0.2071415752 0.046628568 0.8027899089 1.085528047e-38
0.2071415752 0.046628568 0.8014946689 1.113293515e-38
0.2071415752 0.046628568 0.8001994289 1.150063446e-38
0.2071415752 0.046628568 0.7989041989 1.159282869e-38
0.2091416052 0.046765719 0.7972546689 1.168466279e-38
0.2091416052 0.046765719 0.7959556189 1.168466279e-38
0.2091416052 0.046765719 0.7946565789 1.177577241e-38
0.2101415952 0.046834286 0.7931746689 1.168356977e-38
0.2101415952 0.046834286 0.7918737189 1.159245735e-38
0.2101415952 0.046834286 0.7905727589 1.140986675e-38
0.2101415952 0.046834286 0.7892717989 1.122655169e-38
0.2101415952 0.046834286 0.7879708589 1.113542946e-38
0.2101415952 0.046834286 0.7866699089 1.113507493e-38
0.2101415952 0.046834286 0.7853689589 1.122691603e-38
0.2101415952 0.046834286 0.7840679889 1.13184012e-38
0.2101415952 0.046834286 0.7827670389 1.15020806e-38
0.2101415952 0.046834286 0.7814660989 1.1684674e-38
0.2091416052 0.046765719 0.7803670289 1.186690866e-38
0.2091416052 0.046765719 0.7790679889 1.205309498e-38
0.2091416052 0.046765719 0.7777689389 1.233147553e-38
0.2091416052 0.046765719 0.7764698989 1.260375343e-38
0.2091416052 0.046765719 0.7751708489 1.269594766e-38
0.2091416052 0.046765719 0.7738718089 1.287962005e-38
0.2091416052 0.046765719 0.7725727589 1.287962145e-38
0.2091416052 0.046765719 0.7712737189 1.297181008e-38
0.2091416052 0.046765719 0.7699746589 1.278885234e-38
0.2091416052 0.046765719 0.7686756089 1.269773712e-38
0.2091416052 0.046765719 0.7673765589 1.260662189e-38
0.2091416052 0.046765719 0.7660775189 1.260769808e-38
0.2091416052 0.046765719 0.7647784689 1.242510329e-38
0.2091416052 0.046765719 0.7634794289 1.233327059e-38
0.2091416052 0.046765719 0.7621803689 1.23332748e-38
0.2091416052 0.046765719 0.7608813389 1.242475296e-38
0.2091416052 0.046765719 0.7595822789 1.251623253e-38
0.2071415752 0.046628568 0.7587518089 1.260842396e-38
0.2071415752 0.046628568 0.7574565689 1.260914002e-38
0.2071415752 0.046628568 0.7561613289 1.260770509e-38
0.2071415752 0.046628568 0.7548660889 1.269846439e-38
0.2071415752 0.046628568 0.7535708589 1.279065862e-38
0.2061415852 0.046560001 0.7525194289 1.306688397e-38
0.2061415852 0.046560001 0.7512260989 1.334274919e-38
0.2061415852 0.046560001 0.7499327689 1.343530215e-38
0.2061415852 0.046560001 0.7486394189 1.361824447e-38
0.2061415852 0.046560001 0.7473460889 1.407705341e-38
0.2061415852 0.046560001 0.7460527689 1.462844194e-38
0.2071415752 0.046628568 0.7445041989 1.426183563e-38
0.2071415752 0.046628568 0.7432089589 1.398631233e-38
0.2071415752 0.046628568 0.7419137189 1.389446142e-38
0.2071415752 0.046628568 0.7406184789 1.380298465e-38
0.2071415752 0.046628568 0.7393232389 1.398522212e-38
0.2071415752 0.046628568 0.7380280089 1.42628838e-38
0.2071415752 0.046628568 0.7367327689 1.417141124e-38
0.2071415752 0.046628568 0.7354375389 1.408029882e-38
0.2071415752 0.046628568 0.7341422989 1.408102189e-38
0.2071415752 0.046628568 0.7328470689 1.408102189e-38
0.2071415752 0.046628568 0.7315518289 1.371403864e-38
0.2071415752 0.046628568 0.7302565889 1.343816921e-38
0.2071415752 0.046628568 0.7289613489 1.380550839e-38
0.2091416052 0.046765719 0.7271060989 1.417213291e-38
0.2091416052 0.046765719 0.7258070389 1.408029742e-38
0.2091416052 0.046765719 0.7245079989 1.398845351e-38
0.2091416052 0.046765719 0.7232089489 1.389660821e-38
0.2091416052 0.046765719 0.7219098989 1.380513425e-38
0.2091416052 0.046765719 0.7206108389 1.380549578e-38
0.2091416052 0.046765719 0.7193117989 1.380334619e-38
0.2091416052 0.046765719 0.7180127489 1.380334759e-38
0.2091416052 0.046765719 0.7167137089 1.389519009e-38
0.2091416052 0.046765719 0.7154146589 1.362005074e-38
0.2091416052 0.046765719 0.7141156189 1.34360028e-38
0.2091416052 0.046765719 0.7128165689 1.3068644e-38
0.2091416052 0.046765719 0.7115175289 1.279422772e-38
0.2091416052 0.046765719 0.7102184589 1.325342062e-38
0.2091416052 0.046765719 0.7089194189 1.371296804e-38
0.2091416052 0.046765719 0.7076203689 1.362150389e-38
0.2091416052 0.046765719 0.7063213289 1.362149829e-38
0.2091416052 0.046765719 0.7050222789 1.307048111e-38
0.2091416052 0.046765719 0.7037232389 1.261130222e-38
0.2091416052 0.046765719 0.7024241789 1.325450943e-38
0.2091416052 0.046765719 0.7011251489 1.389699637e-38
0.2091416052 0.046765719 0.6998260889 1.389663623e-38
0.2091416052 0.046765719 0.6985270489 1.389627049e-38
0.2091416052 0.046765719 0.6972279889 1.371367009e-38
0.2091416052 0.046765719 0.6959289489 1.362146465e-38
0.2071415752 0.046628568 0.6952851589 1.352926062e-38
0.2091416052 0.046765719 0.6933308489 1.352964457e-38
0.2091416052 0.046765719 0.6920317989 1.371369812e-38
0.2101415952 0.046834286 0.6903994389 1.38973551e-38
0.2111415852 0.046902858 0.6887632489 1.389770122e-38
0.2111415852 0.046902858 0.6874603889 1.398881084e-38
0.2111415852 0.046902858 0.6861575389 1.407956173e-38
0.2111415852 0.046902858 0.6848546689 1.426251526e-38
0.2111415852 0.046902858 0.6835518189 1.417032243e-38
0.2111415852 0.046902858 0.6822489489 1.407956874e-38
0.2111415852 0.046902858 0.6809460789 1.408029321e-38
0.2141416052 0.047108576 0.6785975089 1.408065335e-38
0.2131416152 0.047040001 0.6776394289 1.398917938e-38
0.2141416052 0.047108576 0.6759803689 1.398810179e-38
0.2141416052 0.047108576 0.6746717989 1.398738432e-38
0.2131416152 0.047040001 0.6737194089 1.407958556e-38
0.2131416152 0.047040001 0.6724127689 1.408031003e-38
0.2131416152 0.047040001 0.6711060889 1.408066596e-38
0.2141416052 0.047108576 0.6694374989 1.380587553e-38
0.2141416052 0.047108576 0.6681289389 1.352857258e-38
0.2131416152 0.047040001 0.6671860989 1.398631233e-38
0.2141416052 0.047108576 0.6655117989 1.453875603e-38
0.2141416052 0.047108576 0.6642032389 1.444727506e-38
0.2141416052 0.047108576 0.6628946489 1.444691633e-38
0.2141416052 0.047108576 0.6615860889 1.453875183e-38
0.2141416052 0.047108576 0.6602775289 1.463022999e-38
0.2141416052 0.047108576 0.6589689689 1.444620307e-38
0.2161415752 0.047245715 0.6569022689 1.426217475e-38
0.2171416252 0.04731429 0.6552089289 1.380407486e-38
0.2181416052 0.047382858 0.6535118089 1.343672868e-38
0.2181416052 0.047382858 0.6521955889 1.371223096e-38
0.2201415852 0.04752 0.6501060889 1.407850095e-38
0.2201415852 0.04752 0.6487860789 1.416962319e-38
0.2201415852 0.04752 0.6474661089 1.43536389e-38
0.2201415852 0.04752 0.6461460689 1.426035586e-38
0.2211415752 0.047588572 0.6444318189 1.416925465e-38
0.2211415752 0.047588572 0.6431098989 1.417034766e-38
0.2211415752 0.047588572 0.6417879889 1.416925324e-38
0.2211415752 0.047588572 0.6404660789 1.398448924e-38
0.2221416152 0.047657147 0.6387422789 1.380045951e-38
0.2241415952 0.047794286 0.6366108489 1.361822345e-38
0.2251415752 0.047862858 0.6348775489 1.343347906e-38
0.2251415752 0.047862858 0.6335479789 1.352495863e-38
0.2251415752 0.047862858 0.6322184689 1.370790235e-38
0.2271416152 0.048 0.6300660789 1.325050872e-38
0.2271416152 0.048 0.6287327589 1.288102836e-38
0.2281415952 0.048068576 0.6269841889 1.306471336e-38
0.2281415952 0.048068576 0.6256489289 1.324730675e-38
0.2301415752 0.048205715 0.6234756289 1.315403633e-38
0.2301415752 0.048205715 0.6221365789 1.306219523e-38
0.2311416252 0.04827429 0.6203746689 1.296963666e-38
0.2321416052 0.048342858 0.6186089389 1.296891499e-38
0.2321416052 0.048342858 0.6172660689 1.278488106e-38
0.2321416052 0.048342858 0.6159232089 1.260122549e-38
0.2341415852 0.04848 0.6137194489 1.232752807e-38
0.2341415852 0.04848 0.6123727689 1.214241234e-38
0.2341415852 0.04848 0.6110260889 1.195873154e-38
0.2341415852 0.04848 0.6096794489 1.186580864e-38
0.2371416052 0.048685715 0.6070184889 1.149773938e-38
0.2401416252 0.048891433 0.6043460789 1.122151683e-38
0.2411416152 0.048960004 0.6025460789 1.103713117e-38
0.2411416152 0.048960004 0.6011860789 1.085058892e-38
0.2441415752 0.049165715 0.5984889689 1.066691653e-38
0.2441415752 0.049165715 0.5971232489 1.05747223e-38
0.2471415952 0.049371433 0.5944089389 1.029921721e-38
0.2491416252 0.049508575 0.5921346389 1.002335619e-38
0.2501416152 0.049577147 0.5903060889 9.839330672e-39
0.2501416152 0.049577147 0.5889289189 9.747490972e-39
0.2521415852 0.049714286 0.5866375389 9.652781413e-39
0.2551416052 0.049920004 0.5838793989 9.560585783e-39
0.2551416052 0.049920004 0.5824927489 9.285076492e-39
0.2581415752 0.050125714 0.5797175289 9.100327901e-39
0.2611415952 0.050331432 0.5769308389 8.089418577e-39
0.2611415952 0.050331432 0.5755327789 7.075668822e-39
0.2631416252 0.050468575 0.5731974989 7.347616012e-39
0.2641416152 0.050537147 0.5713251089 7.626356697e-39
0.2661415852 0.050674286 0.5689765689 8.088766974e-39
0.2671415752 0.050742857 0.5670946689 8.567719578e-39
0.2691416052 0.050880004 0.5647327489 1.207760229e-38
0.2701415952 0.050948571 0.5628413089 1.557418528e-38
0.2721416252 0.051085718 0.5604660689 1.631570338e-38
0.2721416252 0.051085718 0.5590470289 1.705003982e-38
0.2751415952 0.051291432 0.5561765589 1.677418581e-38
0.2751415952 0.051291432 0.5547517989 1.65901687e-38
0.2771416252 0.051428575 0.5523517889 1.622283933e-38
0.2771416252 0.051428575 0.5509232089 1.585478128e-38
0.1981415652 0.047289524 0.8298775249 1.233721805e-38
0.1991416152 0.047360003 0.8284660869 1.224395884e-38
0.2011415852 0.047500957 0.8269156209 1.224322316e-38
0.2011415852 0.047500957 0.8256318119 1.205989268e-38
0.2021415752 0.047571428 0.8242089519 1.196876904e-38
0.2021415752 0.047571428 0.8229232429 1.187621188e-38
0.2021415752 0.047571428 0.8216375259 1.178365752e-38
0.2051415952 0.047782857 0.8199175219 1.178329738e-38
0.2031416252 0.047641911 0.8189194199 1.187478676e-38
0.2051415952 0.047782857 0.8173346689 1.169005358e-38
0.2071415752 0.047923807 0.8157422889 1.150529098e-38
0.2071415752 0.047923807 0.8144470489 1.095175146e-38
0.2071415752 0.047923807 0.8131518089 1.030639186e-38
0.2071415752 0.047923807 0.8118565789 1.039715116e-38
0.2071415752 0.047923807 0.8105613389 1.057974735e-38
0.2071415752 0.047923807 0.8092661089 1.021240817e-38
0.2071415752 0.047923807 0.8079708689 9.93690869e-39
0.2071415752 0.047923807 0.8066756289 9.935123435e-39
0.2071415752 0.047923807 0.8053803889 1.002552961e-38
0.2071415752 0.047923807 0.8040851489 1.020992507e-38
0.2071415752 0.047923807 0.8027899089 1.048578749e-38
0.2071415752 0.047923807 0.8014946689 1.058120751e-38
0.2071415752 0.047923807 0.8001994289 1.067375626e-38
0.2091416052 0.048064765 0.7985537089 1.085598812e-38
0.2091416052 0.048064765 0.7972546689 1.094675022e-38
0.2091416052 0.048064765 0.7959556189 1.113078275e-38
0.2091416052 0.048064765 0.7946565789 1.131480127e-38
0.2091416052 0.048064765 0.7933575289 1.131443272e-38
0.2101415952 0.04813524 0.7918737189 1.131407259e-38
0.2101415952 0.04813524 0.7905727589 1.113075893e-38
0.2101415952 0.04813524 0.7892717989 1.09478068e-38
0.2101415952 0.04813524 0.7879708589 1.09488844e-38
0.2101415952 0.04813524 0.7866699089 1.095032213e-38
0.2091416052 0.048064765 0.7855632289 1.09510438e-38
0.2091416052 0.048064765 0.7842641889 1.104539323e-38
0.2091416052 0.048064765 0.7829651389 1.12265573e-38
0.2091416052 0.048064765 0.7816660989 1.141023249e-38
0.2091416052 0.048064765 0.7803670289 1.159390769e-38
0.2091416052 0.048064765 0.7790679889 1.177794162e-38
0.2091416052 0.048064765 0.7777689389 1.196090075e-38
0.2091416052 0.048064765 0.7764698989 1.223569258e-38
0.2091416052 0.048064765 0.7751708489 1.232645608e-38
0.2091416052 0.048064765 0.7738718089 1.250905088e-38
0.2091416052 0.048064765 0.7725727589 1.250976834e-38
0.2091416052 0.048064765 0.7712737189 1.2510476e-38
0.2091416052 0.048064765 0.7699746589 1.242078449e-38
0.2091416052 0.048064765 0.7686756089 1.232823293e-38
0.2091416052 0.048064765 0.7673765589 1.223747643e-38
0.2091416052 0.048064765 0.7660775189 1.214671573e-38
0.2091416052 0.048064765 0.7647784689 1.205416277e-38
0.2091416052 0.048064765 0.7634794289 1.196197274e-38
0.2071415752 0.047923807 0.7626375289 1.196305455e-38
0.2071415752 0.047923807 0.7613422889 1.205596764e-38
0.2071415752 0.047923807 0.7600470489 1.214708707e-38
0.2071415752 0.047923807 0.7587518089 1.233039793e-38
0.2071415752 0.047923807 0.7574565689 1.23300392e-38
0.2071415752 0.047923807 0.7561613289 1.232967767e-38
0.2061415852 0.047853336 0.7551061089 1.242115163e-38
0.2061415852 0.047853336 0.7538127589 1.260446949e-38
0.2061415852 0.047853336 0.7525194289 1.269702806e-38
0.2061415852 0.047853336 0.7512260989 1.288177104e-38
0.2061415852 0.047853336 0.7499327689 1.306723149e-38
0.2061415852 0.047853336 0.7486394189 1.325269475e-38
0.2061415852 0.047853336 0.7473460889 1.361716547e-38
0.2051415952 0.047782857 0.7463060889 1.40734829e-38
0.2061415852 0.047853336 0.7447594389 1.388982312e-38
0.2061415852 0.047853336 0.7434660889 1.379798762e-38
0.2061415852 0.047853336 0.7421727589 1.380014142e-38
0.2061415852 0.047853336 0.7408794289 1.3803356e-38
0.2061415852 0.047853336 0.7395860989 1.41710427e-38
0.2061415852 0.047853336 0.7382927489 1.463093905e-38
0.2061415852 0.047853336 0.7369994189 1.42639572e-38
0.2061415852 0.047853336 0.7357060889 1.399025138e-38
0.2061415852 0.047853336 0.7344127789 1.399025979e-38
0.2061415852 0.047853336 0.7331194289 1.408210369e-38
0.2061415852 0.047853336 0.7318260989 1.408247223e-38
0.2071415752 0.047923807 0.7302565889 1.417501118e-38
0.2071415752 0.047923807 0.7289613489 1.417356224e-38
0.2091416052 0.048064765 0.7271060989 1.426396701e-38
0.2091416052 0.048064765 0.7258070389 1.408030022e-38
0.2091416052 0.048064765 0.7245079989 1.389662362e-38
0.2091416052 0.048064765 0.7232089489 1.371330576e-38
0.2071415752 0.047923807 0.7224851589 1.362469605e-38
0.2071415752 0.047923807 0.7211899189 1.371222395e-38
0.2091416052 0.048064765 0.7193117989 1.389554322e-38
0.2071415752 0.047923807 0.7185994389 1.407886249e-38
0.2071415752 0.047923807 0.7173041989 1.426398102e-38
0.2071415752 0.047923807 0.7160089589 1.389665165e-38
0.2071415752 0.047923807 0.7147137189 1.362256327e-38
0.2071415752 0.047923807 0.7134184789 1.334668264e-38
0.2071415752 0.047923807 0.7121232489 1.316266272e-38
0.2071415752 0.047923807 0.7108280089 1.343746155e-38
0.2071415752 0.047923807 0.7095327689 1.371332818e-38
0.2071415752 0.047923807 0.7082375289 1.371333098e-38
0.2071415752 0.047923807 0.7069422889 1.371333378e-38
0.2071415752 0.047923807 0.7056470489 1.352966699e-38
0.2071415752 0.047923807 0.7043518089 1.334563447e-38
0.2071415752 0.047923807 0.7030565689 1.362185702e-38
0.2071415752 0.047923807 0.7017613489 1.398991507e-38
0.2091416052 0.048064765 0.6998260889 1.389700197e-38
0.2091416052 0.048064765 0.6985270489 1.380479934e-38
0.2091416052 0.048064765 0.6972279889 1.37136729e-38
0.2091416052 0.048064765 0.6959289489 1.371508961e-38
0.2071415752 0.047923807 0.6952851589 1.371471266e-38
0.2091416052 0.048064765 0.6933308489 1.380658599e-38
0.2091416052 0.048064765 0.6920317989 1.389846072e-38
0.2101415952 0.04813524 0.6903994389 1.39902738e-38
0.2101415952 0.04813524 0.6890984589 1.408137081e-38
0.2101415952 0.04813524 0.6877975189 1.417285038e-38
0.2101415952 0.04813524 0.6864965689 1.426325515e-38
0.2101415952 0.04813524 0.6851956289 1.435436617e-38
0.2111415852 0.048205715 0.6835518189 1.42628824e-38
0.2111415852 0.048205715 0.6822489489 1.42639586e-38
0.2111415852 0.048205715 0.6809460789 1.426396e-38
0.2131416152 0.048346668 0.6789460789 1.426467747e-38
0.2131416152 0.048346668 0.6776394289 1.41721245e-38
0.2131416152 0.048346668 0.6763327389 1.417177138e-38
0.2131416152 0.048346668 0.6750260889 1.417141965e-38
0.2111415852 0.048205715 0.6744317989 1.417142946e-38
0.2111415852 0.048205715 0.6731289289 1.41717994e-38
0.2131416152 0.048346668 0.6711060889 1.417250846e-38
0.2131416152 0.048346668 0.6697994189 1.408030582e-38
0.2131416152 0.048346668 0.6684927389 1.389626909e-38
0.2131416152 0.048346668 0.6671860989 1.417176857e-38
0.2131416152 0.048346668 0.6658794089 1.453910636e-38
0.2131416152 0.048346668 0.6645727289 1.444690792e-38
0.2141416052 0.048417144 0.6628946489 1.435507523e-38
0.2141416052 0.048417144 0.6615860889 1.42628852e-38
0.2141416052 0.048417144 0.6602775289 1.426288801e-38
0.2141416052 0.048417144 0.6589689689 1.417069798e-38
0.2161415752 0.048558094 0.6569022689 1.417070499e-38
0.2171416252 0.048628576 0.6552089289 1.389556424e-38
0.2181416052 0.048699051 0.6535118089 1.362040948e-38
0.2181416052 0.048699051 0.6521955889 1.380407486e-38
0.2201415852 0.048840001 0.6501060889 1.407959116e-38
0.2201415852 0.048840001 0.6487860789 1.417036167e-38
0.2201415852 0.048840001 0.6474661089 1.426182582e-38
0.2201415852 0.048840001 0.6461460689 1.416818405e-38
0.2201415852 0.048840001 0.6448260989 1.398558646e-38
0.2211415752 0.048910476 0.6431098989 1.398594239e-38
0.2211415752 0.048910476 0.6417879889 1.398664724e-38
0.2211415752 0.048910476 0.6404660789 1.380045251e-38
0.2211415752 0.048910476 0.6391441989 1.361642278e-38
0.2221416152 0.048980955 0.6374184589 1.334091629e-38
0.2251415752 0.04919238 0.6348775489 1.306576854e-38
0.2251415752 0.04919238 0.6335479789 1.343275179e-38
0.2251415752 0.04919238 0.6322184689 1.380009518e-38
0.2271416152 0.049333334 0.6300660789 1.352459009e-38
0.2271416152 0.049333334 0.6287327589 1.315726352e-38
0.2271416152 0.049333334 0.6273994289 1.3155844e-38
0.2281415952 0.049403813 0.6256489289 1.315547967e-38
0.2301415752 0.049544759 0.6234756289 1.287925151e-38
0.2301415752 0.049544759 0.6221365789 1.251118645e-38
0.2311416252 0.049615242 0.6203746689 1.260229888e-38
0.2311416252 0.049615242 0.6190336789 1.269269945e-38
0.2321416052 0.049685717 0.6172660689 1.250902845e-38
0.2321416052 0.049685717 0.6159232089 1.241721398e-38
0.2321416052 0.049685717 0.6145803489 1.214352217e-38
0.2341415852 0.049826667 0.6123727689 1.186691286e-38
0.2341415852 0.049826667 0.6110260889 1.168321665e-38
0.2341415852 0.049826667 0.6096794489 1.149667159e-38
0.2351415652 0.049897145 0.6078946689 1.122187836e-38
0.2381415952 0.050108574 0.6052260889 1.085238258e-38
0.2401416252 0.050249528 0.6029879889 1.057759356e-38
0.2431415852 0.050460953 0.6002984789 1.029957594e-38
0.2431415852 0.050460953 0.5989346689 1.020738171e-38
0.2461416052 0.050672382 0.5962279889 1.020738171e-38
0.2461416052 0.050672382 0.5948584789 9.840398462e-39
0.2491416252 0.050883815 0.5921346389 9.565605234e-39
0.2491416252 0.050883815 0.5907594089 9.473406802e-39
0.2501416152 0.050954286 0.5889289189 9.473049471e-39
0.2501416152 0.050954286 0.5875517889 9.013157328e-39
0.2551416052 0.051306669 0.5838793989 8.645097878e-39
0.2551416052 0.051306669 0.5824927489 8.363134206e-39
0.2611415952 0.051729526 0.5783289489 7.990049701e-39
0.2671415752 0.052152384 0.5741422889 8.632896773e-39
0.2671415752 0.052152384 0.5727327589 9.27616003e-39
0.2661415852 0.052081905 0.5717918089 1.039187387e-38
0.2671415752 0.052152384 0.5699137289 1.159937836e-38
0.2691416052 0.052293338 0.5675594389 1.189068169e-38
0.2691416052 0.052293338 0.5661460889 1.227385974e-38
0.2691416052 0.052293338 0.5647327489 1.383726882e-38
0.2701415952 0.052363813 0.5628413089 1.549281047e-38
0.2721416252 0.052504767 0.5604660689 1.594767476e-38
0.2721416252 0.052504767 0.5590470289 1.649868353e-38
0.2011415852 0.048784763 0.8269156209 1.242903253e-38
0.2011415852 0.048784763 0.8256318119 1.233754456e-38
0.2021415752 0.048857141 0.8242089519 1.224426993e-38
0.2021415752 0.048857141 0.8229232429 1.215278896e-38
0.2021415752 0.048857141 0.8216375259 1.215279316e-38
0.2051415952 0.049074288 0.8199175219 1.233646836e-38
0.2031416252 0.048929527 0.8189194199 1.260910639e-38
0.2071415752 0.049219046 0.8170375289 1.242651159e-38
0.2091416052 0.049363814 0.8154413289 1.23325167e-38
0.2071415752 0.049219046 0.8144470489 1.206202545e-38
0.2071415752 0.049219046 0.8131518089 1.177575559e-38
0.2071415752 0.049219046 0.8118565789 1.13198067e-38
0.2071415752 0.049219046 0.8105613389 1.095210599e-38
0.2071415752 0.049219046 0.8092661089 1.040073568e-38
0.2071415752 0.049219046 0.8079708689 9.935108021e-39
0.2071415752 0.049219046 0.8066756289 9.567055578e-39
0.2071415752 0.049219046 0.8053803889 9.291197364e-39
0.2091416052 0.049363814 0.8037498989 9.658546355e-39
0.2071415752 0.049219046 0.8027899089 1.011664484e-38
0.2091416052 0.049363814 0.8011518089 1.002947146e-38
0.2091416052 0.049363814 0.7998527589 9.936914295e-39
0.2091416052 0.049363814 0.7985537089 1.011986362e-38
0.2091416052 0.049363814 0.7972546689 1.030317588e-38
0.2091416052 0.049363814 0.7959556189 1.057868377e-38
0.2091416052 0.049363814 0.7946565789 1.085382732e-38
0.2091416052 0.049363814 0.7933575289 1.094565721e-38
0.2091416052 0.049363814 0.7920584689 1.112968273e-38
0.2091416052 0.049363814 0.7907594289 1.0946725e-38
0.2101415952 0.049436189 0.7892717989 1.076234215e-38
0.2091416052 0.049363814 0.7881613389 1.076199042e-38
0.2091416052 0.049363814 0.7868622789 1.076451136e-38
0.2091416052 0.049363814 0.7855632289 1.07670337e-38
0.2091416052 0.049363814 0.7842641889 1.085886359e-38
0.2091416052 0.049363814 0.7829651389 1.104288911e-38
0.2091416052 0.049363814 0.7816660989 1.122620137e-38
0.2091416052 0.049363814 0.7803670289 1.131767953e-38
0.2091416052 0.049363814 0.7790679889 1.150099319e-38
0.2091416052 0.049363814 0.7777689389 1.168430826e-38
0.2091416052 0.049363814 0.7764698989 1.195838822e-38
0.2091416052 0.049363814 0.7751708489 1.204915593e-38
0.2091416052 0.049363814 0.7738718089 1.214135296e-38
0.2091416052 0.049363814 0.7725727589 1.21417159e-38
0.2091416052 0.049363814 0.7712737189 1.214277948e-38
0.2091416052 0.049363814 0.7699746589 1.205308237e-38
0.2091416052 0.049363814 0.7686756089 1.205308237e-38
0.2091416052 0.049363814 0.7673765589 1.186941138e-38
0.2091416052 0.049363814 0.7660775189 1.177721434e-38
0.2091416052 0.049363814 0.7647784689 1.168537605e-38
0.2071415752 0.049219046 0.7639327689 1.159462235e-38
0.2071415752 0.049219046 0.7626375289 1.159570415e-38
0.2071415752 0.049219046 0.7613422889 1.168718232e-38
0.2071415752 0.049219046 0.7600470489 1.187049598e-38
0.2071415752 0.049219046 0.7587518089 1.205380684e-38
0.2071415752 0.049219046 0.7574565689 1.205380544e-38
0.2061415852 0.049146667 0.7563994389 1.21441976e-38
0.2061415852 0.049146667 0.7551061089 1.223458976e-38
0.2061415852 0.049146667 0.7538127589 1.242006562e-38
0.2051415952 0.049074288 0.7527632389 1.242187189e-38
0.2051415952 0.049074288 0.7514717989 1.251227106e-38
0.2051415952 0.049074288 0.7501803789 1.269486585e-38
0.2051415952 0.049074288 0.7488889589 1.296928494e-38
0.2051415952 0.049074288 0.7475975289 1.324406415e-38
0.2051415952 0.049074288 0.7463060889 1.352030212e-38
0.2051415952 0.049074288 0.7450146689 1.361322782e-38
0.2051415952 0.049074288 0.7437232289 1.370542625e-38
0.2061415852 0.049146667 0.7421727589 1.370614792e-38
0.2071415752 0.049219046 0.7406184789 1.380048334e-38
0.2071415752 0.049219046 0.7393232389 1.444583173e-38
0.2051415952 0.049074288 0.7385575189 1.508940187e-38
0.2061415852 0.049146667 0.7369994189 1.444835126e-38
0.2061415852 0.049146667 0.7357060889 1.389733828e-38
0.2061415852 0.049146667 0.7344127789 1.398953391e-38
0.2061415852 0.049146667 0.7331194289 1.408173655e-38
0.2061415852 0.049146667 0.7318260989 1.445052047e-38
0.2061415852 0.049146667 0.7305327689 1.490933361e-38
0.2071415752 0.049219046 0.7289613489 1.463382012e-38
0.2071415752 0.049219046 0.7276661089 1.435652277e-38
0.2071415752 0.049219046 0.7263708689 1.408066035e-38
0.2071415752 0.049219046 0.7250756289 1.389698656e-38
0.2071415752 0.049219046 0.7237803889 1.362219333e-38
0.2071415752 0.049219046 0.7224851589 1.34370832e-38
0.2071415752 0.049219046 0.7211899189 1.371115056e-38
0.2071415752 0.049219046 0.7198946789 1.398737732e-38
0.2071415752 0.049219046 0.7185994389 1.43547221e-38
0.2071415752 0.049219046 0.7173041989 1.472278716e-38
0.2071415752 0.049219046 0.7160089589 1.426433275e-38
0.2071415752 0.049219046 0.7147137189 1.380586853e-38
0.2071415752 0.049219046 0.7134184789 1.371402883e-38
0.2071415752 0.049219046 0.7121232489 1.362148287e-38
0.2071415752 0.049219046 0.7108280089 1.362041368e-38
0.2071415752 0.049219046 0.7095327689 1.371332818e-38
0.2071415752 0.049219046 0.7082375289 1.380516648e-38
0.2071415752 0.049219046 0.7069422889 1.389700197e-38
0.2071415752 0.049219046 0.7056470489 1.39891948e-38
0.2071415752 0.049219046 0.7043518089 1.408067717e-38
0.2071415752 0.049219046 0.7030565689 1.408140024e-38
0.2071415752 0.049219046 0.7017613489 1.417322873e-38
0.2071415752 0.049219046 0.7004661089 1.398955213e-38
0.2091416052 0.049363814 0.6985270489 1.38055154e-38
0.2091416052 0.049363814 0.6972279889 1.380550839e-38
0.2091416052 0.049363814 0.6959289489 1.380657058e-38
0.2091416052 0.049363814 0.6946298889 1.389875079e-38
0.2091416052 0.049363814 0.6933308489 1.408244421e-38
0.2071415752 0.049219046 0.6926946789 1.408246803e-38
0.2091416052 0.049363814 0.6907327589 1.417393778e-38
0.2101415952 0.049436189 0.6890984589 1.426540614e-38
0.2101415952 0.049436189 0.6877975189 1.435617525e-38
0.2101415952 0.049436189 0.6864965689 1.444694576e-38
0.2101415952 0.049436189 0.6851956289 1.453840991e-38
0.2101415952 0.049436189 0.6838946589 1.444727927e-38
0.2101415952 0.049436189 0.6825936989 1.444691773e-38
0.2101415952 0.049436189 0.6812927589 1.444691353e-38
0.2111415852 0.049508572 0.6796432289 1.444690652e-38
0.2111415852 0.049508572 0.6783403789 1.444689952e-38
0.2111415852 0.049508572 0.6770375189 1.444690792e-38
0.2111415852 0.049508572 0.6757346689 1.435508083e-38
0.2111415852 0.049508572 0.6744317989 1.435473191e-38
0.2111415852 0.049508572 0.6731289289 1.435474172e-38
0.2111415852 0.049508572 0.6718260989 1.435473191e-38
0.2111415852 0.049508572 0.6705232289 1.435508083e-38
0.2131416152 0.049653336 0.6684927389 1.435507803e-38
0.2111415852 0.049508572 0.6679175389 1.444726946e-38
0.2131416152 0.049653336 0.6658794089 1.453874482e-38
0.2131416152 0.049653336 0.6645727289 1.444798412e-38
0.2131416152 0.049653336 0.6632661089 1.43547151e-38
0.2141416052 0.049725715 0.6615860889 1.407885128e-38
0.2141416052 0.049725715 0.6602775289 1.389518449e-38
0.2141416052 0.049725715 0.6589689689 1.398702559e-38
0.2161415752 0.049870476 0.6569022689 1.417034065e-38
0.2171416252 0.049942859 0.6552089289 1.398667246e-38
0.2171416252 0.049942859 0.6538946489 1.380442519e-38
0.2171416252 0.049942859 0.6525803689 1.389732707e-38
0.2181416052 0.050015241 0.6508794289 1.40792058e-38
0.2181416052 0.050015241 0.6495632389 1.41710427e-38
0.2201415852 0.050160002 0.6474661089 1.42607258e-38
0.2201415852 0.050160002 0.6461460689 1.407633875e-38
0.2201415852 0.050160002 0.6448260989 1.389230902e-38
0.2211415752 0.050232381 0.6431098989 1.389195029e-38
0.2211415752 0.050232381 0.6417879889 1.389193628e-38
0.2211415752 0.050232381 0.6404660789 1.370824987e-38
0.2211415752 0.050232381 0.6391441989 1.352386562e-38
0.2221416152 0.050304763 0.6374184589 1.306397488e-38
0.2251415752 0.050521903 0.6348775489 1.269663289e-38
0.2251415752 0.050521903 0.6335479789 1.333947996e-38
0.2251415752 0.050521903 0.6322184689 1.398268577e-38
0.2251415752 0.050521903 0.6308889489 1.370789534e-38
0.2251415752 0.050521903 0.6295594389 1.352316077e-38
0.2271416152 0.050666671 0.6273994289 1.333842619e-38
0.2271416152 0.050666671 0.6260660989 1.315511112e-38
0.2281415952 0.050739046 0.6243137289 1.260481281e-38
0.2301415752 0.050883811 0.6221365789 1.20523607e-38
0.2301415752 0.050883811 0.6207974989 1.223495129e-38
0.2311416252 0.050956193 0.6190336789 1.250866272e-38
0.2311416252 0.050956193 0.6176927489 1.232535046e-38
0.2321416052 0.051028572 0.6159232089 1.223352477e-38
0.2321416052 0.051028572 0.6145803489 1.195982175e-38
0.2321416052 0.051028572 0.6132375189 1.168322225e-38
0.2341415852 0.051173333 0.6110260889 1.140770035e-38
0.2341415852 0.051173333 0.6096794489 1.12200819e-38
0.2351415652 0.051245712 0.6078946689 1.085417344e-38
0.2381415952 0.051462859 0.6052260889 1.057687189e-38
0.2411416152 0.051680002 0.6025460789 1.011805314e-38
0.2441415752 0.051897142 0.5998546589 9.749993691e-39
0.2471415952 0.052114286 0.5971517989 9.749276227e-39
0.2471415952 0.052114286 0.5957803589 9.841114525e-39
0.2491416252 0.052259054 0.5935098989 9.473776745e-39
0.2491416252 0.052259054 0.5921346389 9.198264651e-39
0.2501416152 0.052331433 0.5903060889 9.198259046e-39
0.2501416152 0.052331433 0.5889289189 9.194671722e-39
0.2551416052 0.052693337 0.5852660689 8.456760562e-39
0.2561415952 0.052765716 0.5834203789 7.811071657e-39
0.2561415952 0.052765716 0.5820317989 7.349411075e-39
0.2671415752 0.053561907 0.5755517889 6.991043006e-39
0.2691416052 0.053706668 0.5732127589 9.204428963e-39
0.2671415752 0.053561907 0.5727327589 1.151364131e-38
0.2661415852 0.053489525 0.5717918089 1.354734718e-38
0.2661415852 0.053489525 0.5703841889 1.566638231e-38
0.2661415852 0.053489525 0.5689765689 1.576503652e-38
0.2691416052 0.053706668 0.5661460889 1.594622161e-38
0.2071415752 0.050514285 0.8170375289 9.394487074e-39
0.2091416052 0.05066286 0.8154413289 9.394488475e-39
0.2091416052 0.05066286 0.8141422789 9.115754796e-39
0.2091416052 0.05066286 0.8128432289 8.92885241e-39
0.2091416052 0.05066286 0.8115441889 8.561867756e-39
0.2071415752 0.050514285 0.8105613389 8.195243236e-39
0.2071415752 0.050514285 0.8092661089 7.824313927e-39
0.2071415752 0.050514285 0.8079708689 7.453748956e-39
0.2071415752 0.050514285 0.8066756289 7.819661617e-39
0.2091416052 0.05066286 0.8050489489 8.277411174e-39
0.2091416052 0.05066286 0.8037498989 8.461449307e-39
0.2091416052 0.05066286 0.8024508589 8.554000866e-39
0.2091416052 0.05066286 0.8011518089 8.830582151e-39
0.2091416052 0.05066286 0.7998527589 9.107519365e-39
0.2091416052 0.05066286 0.7985537089 9.291186153e-39
0.2101415952 0.050737143 0.7970775289 9.474855744e-39
0.2091416052 0.05066286 0.7959556189 9.841480264e-39
0.2091416052 0.05066286 0.7946565789 1.011662802e-38
0.2091416052 0.05066286 0.7933575289 1.021025858e-38
0.2101415952 0.050737143 0.7918737189 1.021061031e-38
0.2101415952 0.050737143 0.7905727589 1.021024457e-38
0.2101415952 0.050737143 0.7892717989 1.020989564e-38
0.2101415952 0.050737143 0.7879708589 1.030245981e-38
0.2101415952 0.050737143 0.7866699089 1.03031941e-38
0.2091416052 0.05066286 0.7855632289 1.04879595e-38
0.2091416052 0.05066286 0.7842641889 1.067305281e-38
0.2091416052 0.05066286 0.7829651389 1.076415823e-38
0.2091416052 0.05066286 0.7816660989 1.085563079e-38
0.2091416052 0.05066286 0.7803670289 1.103965771e-38
0.2091416052 0.05066286 0.7790679889 1.122368744e-38
0.2091416052 0.05066286 0.7777689389 1.131444674e-38
0.2071415752 0.050514285 0.7768851389 1.140557738e-38
0.2091416052 0.05066286 0.7751708489 1.149742549e-38
0.2091416052 0.05066286 0.7738718089 1.158926799e-38
0.2091416052 0.05066286 0.7725727589 1.15903526e-38
0.2091416052 0.05066286 0.7712737189 1.168324607e-38
0.2091416052 0.05066286 0.7699746589 1.168322926e-38
0.2091416052 0.05066286 0.7686756089 1.168322645e-38
0.2091416052 0.05066286 0.7673765589 1.159174829e-38
0.2091416052 0.05066286 0.7660775189 1.150026592e-38
0.2091416052 0.05066286 0.7647784689 1.131658932e-38
0.2091416052 0.05066286 0.7634794289 1.122475943e-38
0.2071415752 0.050514285 0.7626375289 1.122476644e-38
0.2071415752 0.050514285 0.7613422889 1.122512657e-38
0.2071415752 0.050514285 0.7600470489 1.1316246e-38
0.2071415752 0.050514285 0.7587518089 1.140771997e-38
0.2061415852 0.050440002 0.7576927689 1.149811913e-38
0.2061415852 0.050440002 0.7563994389 1.158886442e-38
0.2061415852 0.050440002 0.7551061089 1.177288153e-38
0.2051415952 0.050365716 0.7540546689 1.19572868e-38
0.2051415952 0.050365716 0.7527632389 1.204949925e-38
0.2051415952 0.050365716 0.7514717989 1.214205501e-38
0.2051415952 0.050365716 0.7501803789 1.232429388e-38
0.2031416252 0.050217148 0.7493879989 1.250651032e-38
0.2031416252 0.050217148 0.7481003689 1.278343352e-38
0.2031416252 0.050217148 0.7468127589 1.306039176e-38
0.2051415952 0.050365716 0.7450146689 1.315296153e-38
0.2051415952 0.050365716 0.7437232289 1.32455215e-38
0.2051415952 0.050365716 0.7424318089 1.333880033e-38
0.2051415952 0.050365716 0.7411403789 1.352282165e-38
0.2051415952 0.050365716 0.7398489589 1.389230762e-38
0.2031416252 0.050217148 0.7390870489 1.435400324e-38
0.2051415952 0.050365716 0.7372660889 1.407886249e-38
0.2051415952 0.050365716 0.7359746589 1.380370913e-38
0.2051415952 0.050365716 0.7346832489 1.389661521e-38
0.2051415952 0.050365716 0.7333918089 1.398989124e-38
0.2061415852 0.050440002 0.7318260989 1.417392798e-38
0.2061415852 0.050440002 0.7305327689 1.44497946e-38
0.2071415752 0.050514285 0.7289613489 1.426612501e-38
0.2071415752 0.050514285 0.7276661089 1.417357345e-38
0.2071415752 0.050514285 0.7263708689 1.398882766e-38
0.2071415752 0.050514285 0.7250756289 1.389734949e-38
0.2071415752 0.050514285 0.7237803889 1.389734809e-38
0.2071415752 0.050514285 0.7224851589 1.389554742e-38
0.2071415752 0.050514285 0.7211899189 1.389590055e-38
0.2071415752 0.050514285 0.7198946789 1.389625788e-38
0.2071415752 0.050514285 0.7185994389 1.398773324e-38
0.2071415752 0.050514285 0.7173041989 1.417140284e-38
0.2071415752 0.050514285 0.7160089589 1.398844791e-38
0.2071415752 0.050514285 0.7147137189 1.371402462e-38
0.2071415752 0.050514285 0.7134184789 1.36218388e-38
0.2071415752 0.050514285 0.7121232489 1.362112554e-38
0.2071415752 0.050514285 0.7108280089 1.362113115e-38
0.2071415752 0.050514285 0.7095327689 1.371332818e-38
0.2071415752 0.050514285 0.7082375289 1.380516788e-38
0.2071415752 0.050514285 0.7069422889 1.38973565e-38
0.2071415752 0.050514285 0.7056470489 1.417285879e-38
0.2071415752 0.050514285 0.7043518089 1.435618366e-38
0.2071415752 0.050514285 0.7030565689 1.426507824e-38
0.2071415752 0.050514285 0.7017613489 1.408175477e-38
0.2071415752 0.050514285 0.7004661089 1.371440157e-38
0.2071415752 0.050514285 0.6991708689 1.343924821e-38
0.2071415752 0.050514285 0.6978756289 1.362255627e-38
0.2071415752 0.050514285 0.6965803989 1.389805154e-38
0.2071415752 0.050514285 0.6952851589 1.426538372e-38
0.2071415752 0.050514285 0.6939899189 1.463273411e-38
0.2071415752 0.050514285 0.6926946789 1.444835406e-38
0.2091416052 0.05066286 0.6907327589 1.435616544e-38
0.2091416052 0.05066286 0.6894337089 1.435581371e-38
0.2091416052 0.05066286 0.6881346689 1.444766603e-38
0.2101415952 0.050737143 0.6864965689 1.444696538e-38
0.2091416052 0.05066286 0.6855365589 1.444658843e-38
0.2101415952 0.050737143 0.6838946589 1.435545358e-38
0.2101415952 0.050737143 0.6825936989 1.426325094e-38
0.2101415952 0.050737143 0.6812927589 1.444691493e-38
0.2101415952 0.050737143 0.6799918089 1.463092924e-38
0.2101415952 0.050737143 0.6786908489 1.463091523e-38
0.2101415952 0.050737143 0.6773899089 1.453908954e-38
0.2111415852 0.050811429 0.6757346689 1.444690652e-38
0.2101415952 0.050737143 0.6747879989 1.43536445e-38
0.2101415952 0.050737143 0.6734870389 1.444656601e-38
0.2111415852 0.050811429 0.6718260989 1.462986706e-38
0.2111415852 0.050811429 0.6705232289 1.453802175e-38
0.2131416152 0.050960004 0.6684927389 1.444618625e-38
0.2111415852 0.050811429 0.6679175389 1.444654639e-38
0.2131416152 0.050960004 0.6658794089 1.444690652e-38
0.2131416152 0.050960004 0.6645727289 1.453838469e-38
0.2131416152 0.050960004 0.6632661089 1.462986145e-38
0.2141416052 0.051034287 0.6615860889 1.444619046e-38
0.2141416052 0.051034287 0.6602775289 1.42628838e-38
0.2141416052 0.051034287 0.6589689689 1.426217194e-38
0.2141416052 0.051034287 0.6576603489 1.426181181e-38
0.2141416052 0.051034287 0.6563517889 1.389410969e-38
0.2161415752 0.051182859 0.6542775489 1.362109892e-38
0.2161415752 0.051182859 0.6529651389 1.389587393e-38
0.2171416252 0.051257145 0.6512660789 1.407882045e-38
0.2181416052 0.051331431 0.6495632389 1.4352885e-38
0.2181416052 0.051331431 0.6482470189 1.453549241e-38
0.2181416052 0.051331431 0.6469308589 1.425928247e-38
0.2201415852 0.051479999 0.6448260989 1.398234385e-38
0.2201415852 0.051479999 0.6435060989 1.398234805e-38
