# .PCD v0.7 - Point Cloud Data file format
VERSION 0.7
FIELDS x y z rgb
SIZE 4 4 4 4
TYPE F F F F
COUNT 1 1 1 1
WIDTH 879
HEIGHT 1
VIEWPOINT 0 0 0 1 0 0 0
POINTS 879
DATA ascii
0.30276188 0.02147308075 0.8409671753 1.085168333e-38
0.30438095 0.02147308075 0.8409671753 1.094422789e-38
0.30600002 0.02147308075 0.8409671753 1.103642212e-38
0.30761904 0.02147308075 0.8409671753 1.122045324e-38
0.30851048 0.02347305075 0.8409595564 1.140556056e-38
0.31085718 0.02147308075 0.8409671753 1.149883379e-38
0.31247619 0.02147308075 0.8409671753 1.159067209e-38
0.31409526 0.02147308075 0.8409671753 1.22338807e-38
0.31571427 0.02147308075 0.8409671753 1.29689234e-38
0.31733334 0.02147308075 0.8409671753 1.251010465e-38
0.31895241 0.02147308075 0.8409671753 1.205092437e-38
0.32132575 0.01947304075 0.8409747947 1.19594448e-38
0.32370666 0.01747307075 0.8409824136 1.186725618e-38
0.32533333 0.01747307075 0.8409824136 1.168430826e-38
0.32696 0.01747307075 0.8409824136 1.159426782e-38
0.3285867 0.01747307075 0.8409824136 1.168825712e-38
0.33098671 0.01547303075 0.8409900328 1.177974089e-38
0.33261716 0.01547303075 0.8409900328 1.196341748e-38
0.33424765 0.01547303075 0.8409900328 1.214601088e-38
0.3358781 0.01547303075 0.8409900328 1.223676737e-38
0.33750859 0.01547303075 0.8409900328 1.242116003e-38
0.33913907 0.01547303075 0.8409900328 1.251515213e-38
0.34076953 0.01547303075 0.8409900328 1.269954899e-38
0.34240001 0.01547303075 0.8409900328 1.270027347e-38
0.3440305 0.01547303075 0.8409900328 1.279210336e-38
0.34566098 0.01547303075 0.8409900328 1.279245648e-38
0.34729147 0.01547303075 0.8409900328 1.279173341e-38
0.34892195 0.01547303075 0.8409900328 1.279101034e-38
0.35055238 0.01547303075 0.8409900328 1.288393044e-38
0.35300571 0.01347306075 0.8409976517 1.316159914e-38
0.35464001 0.01347306075 0.8409976517 1.343638115e-38
0.35710475 0.01147309075 0.8410052706 1.343565668e-38
0.35874283 0.01147309075 0.8410052706 1.343565808e-38
0.36121908 0.009473050752 0.8410128897 1.361969061e-38
0.36286098 0.009473050752 0.8410128897 1.389520551e-38
0.36577144 0.006473030752 0.8410243185 1.361970883e-38
0.36741909 0.006473030752 0.8410243185 1.334418833e-38
0.36906669 0.006473030752 0.8410243185 1.35278439e-38
0.37157145 0.004473060752 0.8410319374 1.380264554e-38
0.37322289 0.004473060752 0.8410319374 1.435402986e-38
0.37573904 0.002473080752 0.8410395563 1.490395543e-38
0.37739429 0.002473080752 0.8410395563 1.370972404e-38
0.37992194 0.0004730507525 0.8410471754 1.260697782e-38
0.38158098 0.0004730507525 0.8410471754 1.242294529e-38
0.38324004 0.0004730507525 0.8410471754 1.232860847e-38
0.38489905 0.0004730507525 0.8410471754 1.150102262e-38
0.38655812 0.0004730507525 0.8410471754 1.076453098e-38
0.38821715 0.0004730507525 0.8410471754 1.113042402e-38
0.38987622 0.0004730507525 0.8410471754 1.150393872e-38
0.26434669 0.009473050752 0.8426547949 9.939418415e-39
0.26598859 0.009473050752 0.8426547949 9.662472793e-39
0.26763049 0.009473050752 0.8426547949 9.38589291e-39
0.26927239 0.009473050752 0.8426547949 8.923848373e-39
0.27091432 0.009473050752 0.8426547949 8.462149956e-39
0.27255622 0.009473050752 0.8426547949 8.644018878e-39
0.27356189 0.01147309075 0.8426433657 8.918097444e-39
0.27456003 0.01347306075 0.8426319375 8.828421349e-39
0.2761943 0.01347306075 0.8426319375 8.736590056e-39
0.27718097 0.01547303075 0.8426205092 8.461805237e-39
0.27881142 0.01547303075 0.8426205092 8.279218849e-39
0.28044191 0.01547303075 0.8426205092 8.829522769e-39
0.2820724 0.01547303075 0.8426205092 9.380177014e-39
0.28370288 0.01547303075 0.8426205092 9.565284337e-39
0.28533337 0.01547303075 0.8426205092 9.842217347e-39
0.28696382 0.01547303075 0.8426205092 9.841134144e-39
0.28859431 0.01547303075 0.8426205092 9.840419481e-39
0.29022479 0.01547303075 0.8426205092 1.002481074e-38
0.29185528 0.01547303075 0.8426205092 1.02091978e-38
0.29348573 0.01547303075 0.8426205092 1.066837528e-38
0.29442668 0.01747307075 0.84260908 1.121974278e-38
0.29605335 0.01747307075 0.84260908 1.103606759e-38
0.29698288 0.01947304075 0.8425976517 1.085274972e-38
0.29860571 0.01947304075 0.8425976517 1.057652016e-38
0.3002286 0.01947304075 0.8425976517 1.039249044e-38
0.30185145 0.01947304075 0.8425976517 1.048432593e-38
0.30347431 0.01947304075 0.8425976517 1.066799973e-38
0.30438095 0.02147308075 0.8425862235 1.085274972e-38
0.30600002 0.02147308075 0.8425862235 1.103426832e-38
0.30761904 0.02147308075 0.8425862235 1.112897368e-38
0.30923811 0.02147308075 0.8425862235 1.122045044e-38
0.31085718 0.02147308075 0.8425862235 1.122260283e-38
0.31247619 0.02147308075 0.8425862235 1.131516e-38
0.31409526 0.02147308075 0.8425862235 1.168286632e-38
0.31645718 0.01947304075 0.8425976517 1.214239553e-38
0.31808001 0.01947304075 0.8425976517 1.195907766e-38
0.31970286 0.01947304075 0.8425976517 1.18676051e-38
0.32132575 0.01947304075 0.8425976517 1.168358098e-38
0.32370666 0.01747307075 0.84260908 1.159138816e-38
0.32533333 0.01747307075 0.84260908 1.159318462e-38
0.32696 0.01747307075 0.84260908 1.159533982e-38
0.32935622 0.01547303075 0.8426205092 1.159534262e-38
0.33098671 0.01547303075 0.8426205092 1.159534822e-38
0.33261716 0.01547303075 0.8426205092 1.177938496e-38
0.33424765 0.01547303075 0.8426205092 1.186834919e-38
0.3358781 0.01547303075 0.8426205092 1.205237892e-38
0.33750859 0.01547303075 0.8426205092 1.223641144e-38
0.33913907 0.01547303075 0.8426205092 1.223928551e-38
0.34076953 0.01547303075 0.8426205092 1.224072604e-38
0.34240001 0.01547303075 0.8426205092 1.242404391e-38
0.3440305 0.01547303075 0.8426205092 1.269954899e-38
0.34566098 0.01547303075 0.8426205092 1.269954759e-38
0.34810287 0.01347306075 0.8426319375 1.279138449e-38
0.34973717 0.01347306075 0.8426319375 1.288322139e-38
0.35137144 0.01347306075 0.8426319375 1.297649742e-38
0.35300571 0.01347306075 0.8426319375 1.316017542e-38
0.35546669 0.01147309075 0.8426433657 1.334419533e-38
0.35710475 0.01147309075 0.8426433657 1.343602242e-38
0.35957718 0.009473050752 0.8426547949 1.352821385e-38
0.36121908 0.009473050752 0.8426547949 1.407886529e-38
0.36286098 0.009473050752 0.8426547949 1.462989508e-38
0.36450288 0.009473050752 0.8426547949 1.407818146e-38
0.36741909 0.006473030752 0.8426719378 1.361861582e-38
0.36906669 0.006473030752 0.8426719378 1.361858779e-38
0.37157145 0.004473060752 0.842683366 1.371080444e-38
0.37322289 0.004473060752 0.842683366 1.407709265e-38
0.37573904 0.002473080752 0.8426947947 1.444370455e-38
0.37739429 0.002473080752 0.8426947947 1.361753121e-38
0.37992194 0.0004730507525 0.842706223 1.278993415e-38
0.38158098 0.0004730507525 0.842706223 1.269809865e-38
0.38324004 0.0004730507525 0.842706223 1.26044737e-38
0.38489905 0.0004730507525 0.842706223 1.205346492e-38
0.38655812 0.0004730507525 0.842706223 1.159426082e-38
0.38821715 0.0004730507525 0.842706223 1.168355996e-38
0.38987622 0.0004730507525 0.842706223 1.177078379e-38
0.26598859 0.009473050752 0.8442966994 9.941932345e-39
0.26763049 0.009473050752 0.8442966994 9.75682362e-39
0.26927239 0.009473050752 0.8442966994 9.663550392e-39
0.27185714 0.006473030752 0.8443195568 9.570272959e-39
0.27255622 0.009473050752 0.8442966994 9.476996929e-39
0.27419811 0.009473050752 0.8442966994 9.474129872e-39
0.27456003 0.01347306075 0.8442662232 9.104280964e-39
0.2761943 0.01347306075 0.8442662232 8.735869789e-39
0.27718097 0.01547303075 0.8442509854 8.000475361e-39
0.27881142 0.01547303075 0.8442509854 7.356908022e-39
0.28044191 0.01547303075 0.8442509854 8.090873125e-39
0.2820724 0.01547303075 0.8442509854 8.918112858e-39
0.28370288 0.01547303075 0.8442509854 9.102505519e-39
0.28600001 0.01347306075 0.8442662232 9.379081198e-39
0.28763431 0.01347306075 0.8442662232 9.472344618e-39
0.28926858 0.01347306075 0.8442662232 9.564545853e-39
0.29090288 0.01347306075 0.8442662232 9.656747088e-39
0.29185528 0.01547303075 0.8442509854 9.748949724e-39
0.29348573 0.01547303075 0.8442509854 1.02113642e-38
0.29511619 0.01547303075 0.8442509854 1.076200444e-38
0.29674667 0.01547303075 0.8442509854 1.06697976e-38
0.29768002 0.01747307075 0.8442357471 1.057759916e-38
0.29930666 0.01747307075 0.8442357471 1.039392397e-38
0.30093333 0.01747307075 0.8442357471 1.020881805e-38
0.30256 0.01747307075 0.8442357471 1.030065354e-38
0.3041867 0.01747307075 0.8442357471 1.048432453e-38
0.30509716 0.01947304075 0.8442205093 1.076126595e-38
0.30672002 0.01947304075 0.8442205093 1.103713257e-38
0.30834287 0.01947304075 0.8442205093 1.103785284e-38
0.30996573 0.01947304075 0.8442205093 1.112897227e-38
0.31158859 0.01947304075 0.8442205093 1.103821578e-38
0.31321144 0.01947304075 0.8442205093 1.103965491e-38
0.3148343 0.01947304075 0.8442205093 1.122476504e-38
0.31645718 0.01947304075 0.8442205093 1.140843183e-38
0.31808001 0.01947304075 0.8442205093 1.150026312e-38
0.32045335 0.01747307075 0.8442357471 1.168322786e-38
0.32208002 0.01747307075 0.8442357471 1.15020792e-38
0.32370666 0.01747307075 0.8442357471 1.14102381e-38
0.32533333 0.01747307075 0.8442357471 1.150206799e-38
0.32772574 0.01547303075 0.8442509854 1.159498108e-38
0.32935622 0.01547303075 0.8442509854 1.150350712e-38
0.33098671 0.01547303075 0.8442509854 1.150351273e-38
0.33261716 0.01547303075 0.8442509854 1.159535243e-38
0.33424765 0.01547303075 0.8442509854 1.16857558e-38
0.3358781 0.01547303075 0.8442509854 1.18683534e-38
0.33750859 0.01547303075 0.8442509854 1.205310059e-38
0.33913907 0.01547303075 0.8442509854 1.196377762e-38
0.34076953 0.01547303075 0.8442509854 1.187194773e-38
0.34240001 0.01547303075 0.8442509854 1.223965405e-38
0.3440305 0.01547303075 0.8442509854 1.260735336e-38
0.34566098 0.01547303075 0.8442509854 1.269954619e-38
0.34810287 0.01347306075 0.8442662232 1.288321578e-38
0.34973717 0.01347306075 0.8442662232 1.297541001e-38
0.35137144 0.01347306075 0.8442662232 1.315872788e-38
0.35382858 0.01147309075 0.8442814611 1.315837475e-38
0.35546669 0.01147309075 0.8442814611 1.325235844e-38
0.35793525 0.009473050752 0.8442966994 1.343602522e-38
0.35957718 0.009473050752 0.8442966994 1.371116737e-38
0.36121908 0.009473050752 0.8442966994 1.453660504e-38
0.36286098 0.009473050752 0.8442966994 1.536313431e-38
0.36577144 0.006473030752 0.8443195568 1.462845875e-38
0.36741909 0.006473030752 0.8443195568 1.398559626e-38
0.36906669 0.006473030752 0.8443195568 1.380155393e-38
0.37157145 0.004473060752 0.8443347947 1.361717528e-38
0.37322289 0.004473060752 0.8443347947 1.380014002e-38
0.37573904 0.002473080752 0.8443500325 1.398415993e-38
0.37739429 0.002473080752 0.8443500325 1.352569151e-38
0.37992194 0.0004730507525 0.8443652708 1.306579376e-38
0.38158098 0.0004730507525 0.8443652708 1.297359673e-38
0.38324004 0.0004730507525 0.8443652708 1.297253034e-38
0.38489905 0.0004730507525 0.8443652708 1.269559873e-38
0.38655812 0.0004730507525 0.8443652708 1.242043276e-38
0.38821715 0.0004730507525 0.8443652708 1.223674355e-38
0.38987622 0.0004730507525 0.8443652708 1.205058105e-38
0.39153525 0.0004730507525 0.8443652708 1.168110629e-38
0.27185714 0.006473030752 0.8459671759 9.66426085e-39
0.27255622 0.009473050752 0.8459386048 9.664615379e-39
0.27515242 0.006473030752 0.8459671759 9.756809607e-39
0.27584001 0.009473050752 0.8459386048 9.570268756e-39
0.2761943 0.01347306075 0.8459005081 9.292260949e-39
0.27718097 0.01547303075 0.8458814616 8.647628623e-39
0.27881142 0.01547303075 0.8458814616 8.089429788e-39
0.28109714 0.01347306075 0.8459005081 8.458196893e-39
0.2820724 0.01547303075 0.8458814616 8.826979412e-39
0.28436571 0.01347306075 0.8459005081 9.009938545e-39
0.28600001 0.01347306075 0.8459005081 9.192885066e-39
0.28763431 0.01347306075 0.8459005081 9.10176143e-39
0.28994286 0.01147309075 0.8459195564 9.102490105e-39
0.29090288 0.01347306075 0.8459005081 8.829147221e-39
0.29253715 0.01347306075 0.8459005081 8.554375013e-39
0.29417142 0.01347306075 0.8459005081 9.197600436e-39
0.29511619 0.01547303075 0.8458814616 9.932979449e-39
0.29674667 0.01547303075 0.8458814616 1.002766378e-38
0.29837716 0.01547303075 0.8458814616 1.012272367e-38
0.30000764 0.01547303075 0.8458814616 9.842192124e-39
0.30093333 0.01747307075 0.8458624133 9.658162399e-39
0.30256 0.01747307075 0.8458624133 9.841474659e-39
0.3041867 0.01747307075 0.8458624133 1.002550158e-38
0.30581334 0.01747307075 0.8458624133 1.021024737e-38
0.30744001 0.01747307075 0.8458624133 1.03942799e-38
0.30906668 0.01747307075 0.8458624133 1.057759636e-38
0.31069335 0.01747307075 0.8458624133 1.085274832e-38
0.31231999 0.01747307075 0.8458624133 1.06687228e-38
0.31394666 0.01747307075 0.8458624133 1.048505601e-38
0.31557333 0.01747307075 0.8458624133 1.066908994e-38
0.31720001 0.01747307075 0.8458624133 1.085311686e-38
0.31882668 0.01747307075 0.8458624133 1.103893745e-38
0.32045335 0.01747307075 0.8458624133 1.131553695e-38
0.32208002 0.01747307075 0.8458624133 1.122587206e-38
0.32446477 0.01547303075 0.8458814616 1.122657551e-38
0.32609525 0.01547303075 0.8458814616 1.12265629e-38
0.32772574 0.01547303075 0.8458814616 1.1319476e-38
0.32935622 0.01547303075 0.8458814616 1.113580781e-38
0.33098671 0.01547303075 0.8458814616 1.095249835e-38
0.33261716 0.01547303075 0.8458814616 1.122800904e-38
0.33424765 0.01547303075 0.8458814616 1.159535663e-38
0.3358781 0.01547303075 0.8458814616 1.17775983e-38
0.33750859 0.01547303075 0.8458814616 1.196162662e-38
0.33913907 0.01547303075 0.8458814616 1.205381945e-38
0.34076953 0.01547303075 0.8458814616 1.214637662e-38
0.34240001 0.01547303075 0.8458814616 1.233112941e-38
0.3440305 0.01547303075 0.8458814616 1.260735196e-38
0.3464686 0.01347306075 0.8459005081 1.279138029e-38
0.34810287 0.01347306075 0.8459005081 1.297540721e-38
0.35055238 0.01147309075 0.8459195564 1.306688257e-38
0.35219049 0.01147309075 0.8459195564 1.315872227e-38
0.35382858 0.01147309075 0.8459195564 1.325128084e-38
0.35546669 0.01147309075 0.8459195564 1.325235703e-38
0.35793525 0.009473050752 0.8459386048 1.32519983e-38
0.35874283 0.01147309075 0.8459195564 1.334346666e-38
0.36038095 0.01147309075 0.8459195564 1.407778489e-38
0.36286098 0.009473050752 0.8459386048 1.481103533e-38
0.36450288 0.009473050752 0.8459386048 1.435329418e-38
0.36741909 0.006473030752 0.8459671759 1.398631233e-38
0.36906669 0.006473030752 0.8459671759 1.389376077e-38
0.37071431 0.006473030752 0.8459671759 1.380084767e-38
0.37322289 0.004473060752 0.8459862233 1.398523473e-38
0.37573904 0.002473080752 0.8460052707 1.426145308e-38
0.37739429 0.002473080752 0.8460052707 1.371079463e-38
0.37904954 0.002473080752 0.8460052707 1.316013478e-38
0.38158098 0.0004730507525 0.846024319 1.306614269e-38
0.38324004 0.0004730507525 0.846024319 1.2973245e-38
0.38489905 0.0004730507525 0.846024319 1.27870783e-38
0.38655812 0.0004730507525 0.846024319 1.260411496e-38
0.38821715 0.0004730507525 0.846024319 1.242007543e-38
0.39077142 -0.001526929248 0.8460433665 1.223639183e-38
0.39243427 -0.001526929248 0.8460433665 1.18665261e-38
0.39409715 -0.001526929248 0.8460433665 1.149529692e-38
0.39576 -0.001526929248 0.8460433665 1.141607731e-38
0.27255622 0.009473050752 0.8475805097 9.940487606e-39
0.27515242 0.006473030752 0.8476147954 1.01241572e-38
0.27584001 0.009473050752 0.8475805097 1.002981057e-38
0.27683809 0.01147309075 0.8475576513 9.937623352e-39
0.27782857 0.01347306075 0.8475347948 9.386617381e-39
0.27946284 0.01347306075 0.8475347948 8.836313462e-39
0.28175238 0.01147309075 0.8475576513 8.83702392e-39
0.28273144 0.01347306075 0.8475347948 8.833080666e-39
0.28502858 0.01147309075 0.8475576513 8.921330239e-39
0.28666666 0.01147309075 0.8475576513 9.012085334e-39
0.28830475 0.01147309075 0.8475576513 8.827333941e-39
0.28994286 0.01147309075 0.8475576513 8.735868388e-39
0.29158095 0.01147309075 0.8475576513 8.093388456e-39
0.29253715 0.01347306075 0.8475347948 7.449825321e-39
0.29485714 0.01147309075 0.8475576513 8.275988856e-39
0.29511619 0.01547303075 0.8475119383 9.104296379e-39
0.29674667 0.01547303075 0.8475119383 9.373340079e-39
0.29837716 0.01547303075 0.8475119383 9.653145751e-39
0.30000764 0.01547303075 0.8475119383 9.38229858e-39
0.30163813 0.01547303075 0.8475119383 9.198628989e-39
0.30326861 0.01547303075 0.8475119383 9.382301382e-39
0.30489907 0.01547303075 0.8475119383 9.565609438e-39
0.30652955 0.01547303075 0.8475119383 9.659594526e-39
0.30744001 0.01747307075 0.8474890799 9.750353825e-39
0.30906668 0.01747307075 0.8474890799 1.020845651e-38
0.31069335 0.01747307075 0.8474890799 1.066763819e-38
0.31231999 0.01747307075 0.8474890799 1.030066055e-38
0.31394666 0.01747307075 0.8474890799 1.002551419e-38
0.31557333 0.01747307075 0.8474890799 1.020954672e-38
0.31720001 0.01747307075 0.8474890799 1.039465124e-38
0.31882668 0.01747307075 0.8474890799 1.067051506e-38
0.32120383 0.01547303075 0.8475119383 1.094711036e-38
0.32283428 0.01547303075 0.8475119383 1.09496327e-38
0.32446477 0.01547303075 0.8475119383 1.104217585e-38
0.32609525 0.01547303075 0.8475119383 1.10428835e-38
0.32772574 0.01547303075 0.8475119383 1.104360377e-38
0.32935622 0.01547303075 0.8475119383 1.067769952e-38
0.33098671 0.01547303075 0.8475119383 1.040219303e-38
0.33261716 0.01547303075 0.8475119383 1.095320601e-38
0.33424765 0.01547303075 0.8475119383 1.150351974e-38
0.3358781 0.01547303075 0.8475119383 1.168577401e-38
0.33750859 0.01547303075 0.8475119383 1.196163223e-38
0.33913907 0.01547303075 0.8475119383 1.214565635e-38
0.34076953 0.01547303075 0.8475119383 1.242189011e-38
0.3432 0.01347306075 0.8475347948 1.251481161e-38
0.3448343 0.01347306075 0.8475347948 1.260699884e-38
0.3464686 0.01347306075 0.8475347948 1.279138029e-38
0.34810287 0.01347306075 0.8475347948 1.30672371e-38
0.35055238 0.01147309075 0.8475576513 1.316014179e-38
0.35219049 0.01147309075 0.8475576513 1.325234162e-38
0.35382858 0.01147309075 0.8475576513 1.325449962e-38
0.35629335 0.009473050752 0.8475805097 1.334562746e-38
0.35793525 0.009473050752 0.8475805097 1.316160754e-38
0.35874283 0.01147309075 0.8475576513 1.297720507e-38
0.36038095 0.01147309075 0.8475576513 1.361932347e-38
0.36286098 0.009473050752 0.8475805097 1.426181461e-38
0.36577144 0.006473030752 0.8476147954 1.407814502e-38
0.36741909 0.006473030752 0.8476147954 1.398666826e-38
0.36906669 0.006473030752 0.8476147954 1.398702839e-38
0.37157145 0.004473060752 0.8476376519 1.398702839e-38
0.37408379 0.002473080752 0.8476605094 1.426253488e-38
0.37573904 0.002473080752 0.8476605094 1.453659803e-38
0.37739429 0.002473080752 0.8476605094 1.389410128e-38
0.37904954 0.002473080752 0.8476605094 1.325088847e-38
0.38070479 0.002473080752 0.8476605094 1.306721188e-38
0.38324004 0.0004730507525 0.8476833659 1.297288067e-38
0.38489905 0.0004730507525 0.8476833659 1.287854946e-38
0.38655812 0.0004730507525 0.8476833659 1.278742582e-38
0.38821715 0.0004730507525 0.8476833659 1.260482542e-38
0.39077142 -0.001526929248 0.8477062224 1.242042435e-38
0.39243427 -0.001526929248 0.8477062224 1.205235089e-38
0.39409715 -0.001526929248 0.8477062224 1.17754361e-38
0.39576 -0.001526929248 0.8477062224 1.048833225e-38
0.27683809 0.01147309075 0.8491957461 1.058119209e-38
0.27782857 0.01347306075 0.8491690801 9.93942402e-39
0.27946284 0.01347306075 0.8491690801 9.391635431e-39
0.28175238 0.01147309075 0.8491957461 9.39055503e-39
0.28339046 0.01147309075 0.8491957461 9.389477432e-39
0.28502858 0.01147309075 0.8491957461 9.479876597e-39
0.28666666 0.01147309075 0.8491957461 9.662109857e-39
0.28830475 0.01147309075 0.8491957461 9.478796196e-39
0.28994286 0.01147309075 0.8491957461 9.295852477e-39
0.29158095 0.01147309075 0.8491957461 8.830945087e-39
0.29253715 0.01347306075 0.8491690801 8.27417978e-39
0.29417142 0.01347306075 0.8491690801 8.734063515e-39
0.29511619 0.01547303075 0.8491424141 9.285803766e-39
0.29674667 0.01547303075 0.8491424141 9.377290339e-39
0.29837716 0.01547303075 0.8491424141 9.469118829e-39
0.30000764 0.01547303075 0.8491424141 9.104282366e-39
0.30163813 0.01547303075 0.8491424141 8.737301916e-39
0.30326861 0.01547303075 0.8491424141 8.922770774e-39
0.30489907 0.01547303075 0.8491424141 9.105718696e-39
0.30652955 0.01547303075 0.8491424141 9.104636894e-39
0.30816001 0.01547303075 0.8491424141 9.103918028e-39
0.30979049 0.01547303075 0.8491424141 8.91952817e-39
0.31142098 0.01547303075 0.8491424141 8.826979412e-39
0.31305146 0.01547303075 0.8491424141 8.919537979e-39
0.31468192 0.01547303075 0.8491424141 9.103926436e-39
0.3163124 0.01547303075 0.8491424141 9.289751224e-39
0.31794289 0.01547303075 0.8491424141 9.568845036e-39
0.31957337 0.01547303075 0.8491424141 9.935110824e-39
0.32120383 0.01547303075 0.8491424141 1.030174095e-38
0.32283428 0.01547303075 0.8491424141 1.039501838e-38
0.32446477 0.01547303075 0.8491424141 1.048864053e-38
0.32609525 0.01547303075 0.8491424141 1.067481705e-38
0.32849145 0.01347306075 0.8491690801 1.085956704e-38
0.33012572 0.01347306075 0.8491690801 1.076737701e-38
0.33176002 0.01347306075 0.8491690801 1.067517858e-38
0.33339432 0.01347306075 0.8491690801 1.104466876e-38
0.33502859 0.01347306075 0.8491690801 1.150387707e-38
0.3358781 0.01547303075 0.8491424141 1.168578523e-38
0.33750859 0.01547303075 0.8491424141 1.18705212e-38
0.33993143 0.01347306075 0.8491690801 1.205561732e-38
0.34156573 0.01347306075 0.8491690801 1.224073725e-38
0.3432 0.01347306075 0.8491690801 1.233294549e-38
0.3448343 0.01347306075 0.8491690801 1.251696261e-38
0.3464686 0.01347306075 0.8491690801 1.279209775e-38
0.3489143 0.01147309075 0.8491957461 1.2975396e-38
0.35055238 0.01147309075 0.8491957461 1.316048931e-38
0.35219049 0.01147309075 0.8491957461 1.325304787e-38
0.35465145 0.009473050752 0.8492224141 1.334596657e-38
0.35629335 0.009473050752 0.8492224141 1.343746296e-38
0.35793525 0.009473050752 0.8492224141 1.334564708e-38
0.35874283 0.01147309075 0.8491957461 1.325379196e-38
0.36121908 0.009473050752 0.8492224141 1.380478672e-38
0.36412382 0.006473030752 0.8492624141 1.435615983e-38
0.36577144 0.006473030752 0.8492624141 1.408029601e-38
0.36741909 0.006473030752 0.8492624141 1.380443079e-38
0.36992002 0.004473060752 0.8492890801 1.362040107e-38
0.37157145 0.004473060752 0.8492890801 1.352820824e-38
0.37408379 0.002473080752 0.8493157471 1.380300007e-38
0.37573904 0.002473080752 0.8493157471 1.407741915e-38
0.37739429 0.002473080752 0.8493157471 1.380226018e-38
0.37904954 0.002473080752 0.8493157471 1.352567189e-38
0.38070479 0.002473080752 0.8493157471 1.325051853e-38
0.38324004 0.0004730507525 0.8493424141 1.306435183e-38
0.38489905 0.0004730507525 0.8493424141 1.297432681e-38
0.38655812 0.0004730507525 0.8493424141 1.297827146e-38
0.38821715 0.0004730507525 0.8493424141 1.287925992e-38
0.39077142 -0.001526929248 0.8493690801 1.278920407e-38
0.39243427 -0.001526929248 0.8493690801 1.260516033e-38
0.39409715 -0.001526929248 0.8493690801 1.2421125e-38
0.39576 -0.001526929248 0.8493690801 1.113147639e-38
0.39742285 -0.001526929248 0.8493690801 9.934080869e-39
0.27946284 0.01347306075 0.8508033661 9.94158202e-39
0.28175238 0.01147309075 0.8508338421 9.941569408e-39
0.28273144 0.01347306075 0.8508033661 1.00334049e-38
0.28436571 0.01347306075 0.8508033661 1.01252418e-38
0.28666666 0.01147309075 0.8508338421 1.030926732e-38
0.28763431 0.01347306075 0.8508033661 1.012631099e-38
0.28994286 0.01147309075 0.8508338421 9.942647007e-39
0.29158095 0.01147309075 0.8508338421 9.575670761e-39
0.29253715 0.01347306075 0.8508033661 9.207964439e-39
0.29417142 0.01347306075 0.8508033661 9.299436999e-39
0.29580572 0.01347306075 0.8508033661 9.47952347e-39
0.29744002 0.01347306075 0.8508033661 9.384103452e-39
0.29907429 0.01347306075 0.8508033661 9.381583917e-39
0.30070859 0.01347306075 0.8508033661 8.828411539e-39
0.30163813 0.01547303075 0.8507728911 8.278480365e-39
0.30326861 0.01547303075 0.8507728911 8.46323316e-39
0.30489907 0.01547303075 0.8507728911 8.738020782e-39
0.3072457 0.01347306075 0.8508033661 8.549326135e-39
0.30888 0.01347306075 0.8508033661 8.457486435e-39
0.30979049 0.01547303075 0.8507728911 7.723156994e-39
0.31214857 0.01347306075 0.8508033661 6.989910757e-39
0.31378287 0.01347306075 0.8508033661 7.541285269e-39
0.31541717 0.01347306075 0.8508033661 8.185565869e-39
0.31705144 0.01347306075 0.8508033661 8.462147153e-39
0.31868574 0.01347306075 0.8508033661 8.739092775e-39
0.32032001 0.01347306075 0.8508033661 9.19970939e-39
0.32195428 0.01347306075 0.8508033661 9.750726571e-39
0.32434285 0.01147309075 0.8508338421 9.842925003e-39
0.32598096 0.01147309075 0.8508338421 1.002802672e-38
0.32761905 0.01147309075 0.8508338421 1.030711773e-38
0.32925713 0.01147309075 0.8508338421 1.067482545e-38
0.33089525 0.01147309075 0.8508338421 1.076702809e-38
0.33253333 0.01147309075 0.8508338421 1.095069768e-38
0.33417144 0.01147309075 0.8508338421 1.122799643e-38
0.33580953 0.01147309075 0.8508338421 1.150280367e-38
0.33744761 0.01147309075 0.8508338421 1.159429865e-38
0.33829716 0.01347306075 0.8508033661 1.178046396e-38
0.33993143 0.01347306075 0.8508033661 1.187479516e-38
0.34156573 0.01347306075 0.8508033661 1.205812424e-38
0.3432 0.01347306075 0.8508033661 1.224145472e-38
0.3448343 0.01347306075 0.8508033661 1.25169584e-38
0.3464686 0.01347306075 0.8508033661 1.270098532e-38
0.34810287 0.01347306075 0.8508033661 1.297685335e-38
0.35055238 0.01147309075 0.8508338421 1.316088447e-38
0.35219049 0.01147309075 0.8508338421 1.334490579e-38
0.35465145 0.009473050752 0.8508643191 1.343781048e-38
0.35629335 0.009473050752 0.8508643191 1.352893692e-38
0.35793525 0.009473050752 0.8508643191 1.352858799e-38
0.35957718 0.009473050752 0.8508643191 1.352892851e-38
0.36121908 0.009473050752 0.8508643191 1.398844791e-38
0.36412382 0.006473030752 0.8509100331 1.45394763e-38
0.36577144 0.006473030752 0.8509100331 1.408031563e-38
0.36741909 0.006473030752 0.8509100331 1.371189325e-38
0.36906669 0.006473030752 0.8509100331 1.334239607e-38
0.37157145 0.004473060752 0.8509405091 1.306904758e-38
0.37322289 0.004473060752 0.8509405091 1.334348347e-38
0.37573904 0.002473080752 0.8509709851 1.371081285e-38
0.37739429 0.002473080752 0.8509709851 1.371080023e-38
0.37904954 0.002473080752 0.8509709851 1.380192107e-38
0.38070479 0.002473080752 0.8509709851 1.352605865e-38
0.38324004 0.0004730507525 0.8510014611 1.325090949e-38
0.38489905 0.0004730507525 0.8510014611 1.315979146e-38
0.38655812 0.0004730507525 0.8510014611 1.315943133e-38
0.38821715 0.0004730507525 0.8510014611 1.315405034e-38
0.38987622 0.0004730507525 0.8510014611 1.315654746e-38
0.39153525 0.0004730507525 0.8510014611 1.306505668e-38
0.39409715 -0.001526929248 0.8510319371 1.306504827e-38
0.39576 -0.001526929248 0.8510319371 1.186651629e-38
0.39742285 -0.001526929248 0.8510319371 1.076272891e-38
0.39908573 -0.001526929248 0.8510319371 1.066913198e-38
0.28273144 0.01347306075 0.8524376511 1.012596207e-38
0.28436571 0.01347306075 0.8524376511 1.040111263e-38
0.28600001 0.01347306075 0.8524376511 1.076916787e-38
0.28763431 0.01347306075 0.8524376511 1.040182169e-38
0.28994286 0.01147309075 0.8524719381 1.01273942e-38
0.29158095 0.01147309075 0.8524719381 9.758980218e-39
0.29321906 0.01147309075 0.8524719381 9.485627526e-39
0.29485714 0.01147309075 0.8524719381 9.574954698e-39
0.29580572 0.01347306075 0.8524376511 9.666427258e-39
0.29744002 0.01347306075 0.8524376511 9.664270659e-39
0.29977143 0.01147309075 0.8524719381 9.662467188e-39
0.30140954 0.01147309075 0.8524719381 9.386593559e-39
0.30234286 0.01347306075 0.8524376511 9.110735345e-39
0.30397716 0.01347306075 0.8524376511 9.200068122e-39
0.30632383 0.01147309075 0.8524719381 9.289036562e-39
0.30796191 0.01147309075 0.8524719381 8.920263851e-39
0.31032002 0.009473050752 0.8525062231 8.643315427e-39
0.31196192 0.009473050752 0.8525062231 7.540923734e-39
0.31469527 0.006473030752 0.8525576531 6.530733276e-39
0.3170743 0.004473060752 0.8525919381 7.265417245e-39
0.31872573 0.004473060752 0.8525919381 8.001890673e-39
0.32037717 0.004473060752 0.8525919381 8.276675493e-39
0.32128575 0.006473030752 0.8525576531 8.551471523e-39
0.32293335 0.006473030752 0.8525576531 8.922409239e-39
0.32458097 0.006473030752 0.8525576531 9.29047009e-39
0.32622862 0.006473030752 0.8525576531 9.47486135e-39
0.32673907 0.009473050752 0.8525062231 9.567773043e-39
0.32838097 0.009473050752 0.8525062231 9.937267422e-39
0.32925713 0.01147309075 0.8524719381 1.030641428e-38
0.33166477 0.009473050752 0.8525062231 1.049081395e-38
0.33330667 0.009473050752 0.8525062231 1.067556254e-38
0.33417144 0.01147309075 0.8524719381 1.104290732e-38
0.33580953 0.01147309075 0.8524719381 1.141061365e-38
0.33744761 0.01147309075 0.8524719381 1.150245475e-38
0.33908573 0.01147309075 0.8524719381 1.169040811e-38
0.34072381 0.01147309075 0.8524719381 1.187405668e-38
0.3423619 0.01147309075 0.8524719381 1.205810742e-38
0.3432 0.01347306075 0.8524376511 1.22414407e-38
0.3448343 0.01347306075 0.8524376511 1.24251187e-38
0.3464686 0.01347306075 0.8524376511 1.26087981e-38
0.3489143 0.01147309075 0.8524719381 1.288575634e-38
0.35055238 0.01147309075 0.8524719381 1.306944555e-38
0.35219049 0.01147309075 0.8524719381 1.334492961e-38
0.35465145 0.009473050752 0.8525062231 1.334490719e-38
0.35629335 0.009473050752 0.8525062231 1.343674129e-38
0.35793525 0.009473050752 0.8525062231 1.334490439e-38
0.35957718 0.009473050752 0.8525062231 1.325305208e-38
0.36121908 0.009473050752 0.8525062231 1.371221414e-38
0.36412382 0.006473030752 0.8525576531 1.417142245e-38
0.36577144 0.006473030752 0.8525576531 1.389558806e-38
0.36741909 0.006473030752 0.8525576531 1.37111926e-38
0.36906669 0.006473030752 0.8525576531 1.352787473e-38
0.37157145 0.004473060752 0.8525919381 1.334492961e-38
0.37322289 0.004473060752 0.8525919381 1.352825168e-38
0.37573904 0.002473080752 0.8526262231 1.380338402e-38
0.37739429 0.002473080752 0.8526262231 1.398632354e-38
0.37904954 0.002473080752 0.8526262231 1.417000574e-38
0.38070479 0.002473080752 0.8526262231 1.352609368e-38
0.38324004 0.0004730507525 0.8526605101 1.288537939e-38
0.38489905 0.0004730507525 0.8526605101 1.297612047e-38
0.38655812 0.0004730507525 0.8526605101 1.306544484e-38
0.38821715 0.0004730507525 0.8526605101 1.3156923e-38
0.39077142 -0.001526929248 0.8526947951 1.334021985e-38
0.39243427 -0.001526929248 0.8526947951 1.306469935e-38
0.39409715 -0.001526929248 0.8526947951 1.279061798e-38
0.39576 -0.001526929248 0.8526947951 1.205448927e-38
0.40060952 -0.008526949248 0.8528147951 1.131838018e-38
0.40228572 -0.008526949248 0.8528147951 1.113077434e-38
0.40488002 -0.01052692925 0.8528490811 1.09449958e-38
0.40656 -0.01052692925 0.8528490811 1.113660515e-38
0.28273144 0.01347306075 0.8540719361 1.021671436e-38
0.28436571 0.01347306075 0.8540719361 1.067589605e-38
0.28600001 0.01347306075 0.8540719361 1.122690342e-38
0.28763431 0.01347306075 0.8540719361 1.076807906e-38
0.28994286 0.01147309075 0.8541100331 1.031106379e-38
0.29158095 0.01147309075 0.8541100331 1.003448951e-38
0.29321906 0.01147309075 0.8541100331 9.850819919e-39
0.29485714 0.01147309075 0.8541100331 9.850819919e-39
0.29649523 0.01147309075 0.8541100331 9.941577816e-39
0.29744002 0.01347306075 0.8540719361 9.940142887e-39
0.30046856 0.009473050752 0.8541481291 9.939072295e-39
0.30316195 0.006473030752 0.8542052721 9.938360435e-39
0.30375242 0.009473050752 0.8541481291 1.002947146e-38
0.30539432 0.009473050752 0.8541481291 9.937268823e-39
0.30703622 0.009473050752 0.8541481291 9.845429123e-39
0.30867812 0.009473050752 0.8541481291 9.294411943e-39
0.31140003 0.006473030752 0.8542052721 8.832360399e-39
0.31377146 0.004473060752 0.8542433661 7.451953893e-39
0.31615049 0.002473080752 0.8542814611 6.164826221e-39
0.31780574 0.002473080752 0.8542814611 6.989914961e-39
0.31946096 0.002473080752 0.8542814611 7.908624451e-39
0.32111618 0.002473080752 0.8542814611 8.092651373e-39
0.32202858 0.004473060752 0.8542433661 8.367804734e-39
0.32368001 0.004473060752 0.8542433661 8.64511049e-39
0.32533145 0.004473060752 0.8542433661 8.923126704e-39
0.32622862 0.006473030752 0.8542052721 9.014960799e-39
0.32787621 0.006473030752 0.8542052721 9.200426855e-39
0.32838097 0.009473050752 0.8541481291 9.568487705e-39
0.33002287 0.009473050752 0.8541481291 1.002910852e-38
0.33166477 0.009473050752 0.8541481291 1.021350679e-38
0.33330667 0.009473050752 0.8541481291 1.049117268e-38
0.33494857 0.009473050752 0.8541481291 1.085852307e-38
0.33580953 0.01147309075 0.8541100331 1.131841662e-38
0.33744761 0.01147309075 0.8541100331 1.141096958e-38
0.33908573 0.01147309075 0.8541100331 1.159714049e-38
0.34072381 0.01147309075 0.8541100331 1.17822352e-38
0.3423619 0.01147309075 0.8541100331 1.20566781e-38
0.34400001 0.01147309075 0.8541100331 1.214745001e-38
0.3448343 0.01347306075 0.8540719361 1.23322014e-38
0.34727621 0.01147309075 0.8541100331 1.260878969e-38
0.3489143 0.01147309075 0.8541100331 1.288538219e-38
0.35055238 0.01147309075 0.8541100331 1.307014059e-38
0.35219049 0.01147309075 0.8541100331 1.33449184e-38
0.35465145 0.009473050752 0.8541481291 1.3343831e-38
0.35629335 0.009473050752 0.8541481291 1.334490719e-38
0.35793525 0.009473050752 0.8541481291 1.31612362e-38
0.35957718 0.009473050752 0.8541481291 1.297719947e-38
0.36121908 0.009473050752 0.8541481291 1.334417712e-38
0.36412382 0.006473030752 0.8542052721 1.380337141e-38
0.36577144 0.006473030752 0.8542052721 1.371191146e-38
0.36741909 0.006473030752 0.8542052721 1.371154853e-38
0.36906669 0.006473030752 0.8542052721 1.361970883e-38
0.37071431 0.006473030752 0.8542052721 1.361971443e-38
0.37322289 0.004473060752 0.8542433661 1.371191567e-38
0.37487429 0.004473060752 0.8542433661 1.389521532e-38
0.37652573 0.004473060752 0.8542433661 1.426182863e-38
0.37817717 0.004473060752 0.8542433661 1.462845875e-38
0.38070479 0.002473080752 0.8542814611 1.361791657e-38
0.38235998 0.002473080752 0.8542814611 1.260914983e-38
0.38489905 0.0004730507525 0.8543195581 1.279280961e-38
0.38655812 0.0004730507525 0.8543195581 1.306760564e-38
0.38821715 0.0004730507525 0.8543195581 1.325056617e-38
0.39077142 -0.001526929248 0.8543576531 1.352390345e-38
0.39243427 -0.001526929248 0.8543576531 1.306470916e-38
0.39409715 -0.001526929248 0.8543576531 1.26069596e-38
0.39666671 -0.003526959248 0.8543957481 1.223961061e-38
0.39969906 -0.006526919248 0.8544528901 1.19616e-38
0.40228572 -0.008526949248 0.8544909851 1.159283009e-38
0.40488002 -0.01052692925 0.8545290811 1.131375309e-38
0.40656 -0.01052692925 0.8545290811 1.131125878e-38
0.40823999 -0.01052692925 0.8545290811 1.132026072e-38
0.40992001 -0.01052692925 0.8545290811 1.068462193e-38
0.29485714 0.01147309075 0.8557481271 1.012561034e-38
0.29649523 0.01147309075 0.8557481271 1.012489428e-38
0.30046856 0.009473050752 0.8557900321 1.012420064e-38
0.30316195 0.006473030752 0.8558528891 1.012458039e-38
0.30375242 0.009473050752 0.8557900321 1.02167508e-38
0.30539432 0.009473050752 0.8557900321 1.040039937e-38
0.30703622 0.009473050752 0.8557900321 1.058405775e-38
0.30867812 0.009473050752 0.8557900321 1.00301637e-38
0.31140003 0.006473030752 0.8558528891 9.478071724e-39
0.31377146 0.004473060752 0.8558947951 8.373891975e-39
0.31687811 0.0004730507525 0.8559786051 7.269722034e-39
0.31853715 0.0004730507525 0.8559786051 7.539139881e-39
0.32019621 0.0004730507525 0.8559786051 7.908271324e-39
0.32111618 0.002473080752 0.8559366991 7.908268521e-39
0.32277143 0.002473080752 0.8559366991 7.908630056e-39
0.32442668 0.002473080752 0.8559366991 8.278128639e-39
0.32533145 0.004473060752 0.8558947951 8.555781917e-39
0.32698289 0.004473060752 0.8558947951 8.832001666e-39
0.32787621 0.006473030752 0.8558528891 9.108587154e-39
0.32952383 0.006473030752 0.8558528891 9.475933343e-39
0.33117145 0.006473030752 0.8558528891 9.936910091e-39
0.33166477 0.009473050752 0.8557900321 1.021278232e-38
0.33330667 0.009473050752 0.8557900321 1.049045381e-38
0.33494857 0.009473050752 0.8557900321 1.085709235e-38
0.3365905 0.009473050752 0.8557900321 1.122335113e-38
0.3382324 0.009473050752 0.8557900321 1.141060244e-38
0.33908573 0.01147309075 0.8557481271 1.150423159e-38
0.34072381 0.01147309075 0.8557481271 1.168790259e-38
0.3423619 0.01147309075 0.8557481271 1.196341328e-38
0.34400001 0.01147309075 0.8557481271 1.214708988e-38
0.3456381 0.01147309075 0.8557481271 1.242259777e-38
0.34727621 0.01147309075 0.8557481271 1.260878129e-38
0.3489143 0.01147309075 0.8557481271 1.279353128e-38
0.35136765 0.009473050752 0.8557900321 1.297756521e-38
0.35300955 0.009473050752 0.8557900321 1.31612362e-38
0.35465145 0.009473050752 0.8557900321 1.32530731e-38
0.35629335 0.009473050752 0.8557900321 1.334491e-38
0.35793525 0.009473050752 0.8557900321 1.316088167e-38
0.35957718 0.009473050752 0.8557900321 1.306869025e-38
0.36121908 0.009473050752 0.8557900321 1.33438408e-38
0.36412382 0.006473030752 0.8558528891 1.36193501e-38
0.36577144 0.006473030752 0.8558528891 1.362007176e-38
0.36741909 0.006473030752 0.8558528891 1.352823347e-38
0.36906669 0.006473030752 0.8558528891 1.36193501e-38
0.37071431 0.006473030752 0.8558528891 1.371047093e-38
0.37322289 0.004473060752 0.8558947951 1.371154993e-38
0.37487429 0.004473060752 0.8558947951 1.371154012e-38
0.37652573 0.004473060752 0.8558947951 1.389412651e-38
0.37817717 0.004473060752 0.8558947951 1.4167482e-38
0.37982857 0.004473060752 0.8558947951 1.352642859e-38
0.38235998 0.002473080752 0.8559366991 1.288429198e-38
0.38489905 0.0004730507525 0.8559786051 1.288428778e-38
0.38655812 0.0004730507525 0.8559786051 1.288465912e-38
0.38821715 0.0004730507525 0.8559786051 1.30669092e-38
0.38987622 0.0004730507525 0.8559786051 1.324876691e-38
0.39243427 -0.001526929248 0.8560205091 1.288176544e-38
0.39409715 -0.001526929248 0.8560205091 1.251549545e-38
0.39576 -0.001526929248 0.8560205091 1.233038532e-38
0.39833337 -0.003526959248 0.8560624141 1.214564093e-38
0.40228572 -0.008526949248 0.8561671751 1.177758569e-38
0.40396193 -0.008526949248 0.8561671751 1.1498838e-38
0.40656 -0.01052692925 0.8562090811 1.140555636e-38
0.40823999 -0.01052692925 0.8562090811 1.131265868e-38
0.40992001 -0.01052692925 0.8562090811 1.08588776e-38
0.41160002 -0.01052692925 0.8562090811 1.040516658e-38
0.30316195 0.006473030752 0.8575005111 1.031002262e-38
0.30375242 0.009473050752 0.8574319391 1.040112664e-38
0.30539432 0.009473050752 0.8574319391 1.085957264e-38
0.30703622 0.009473050752 0.8574319391 1.140986535e-38
0.30867812 0.009473050752 0.8574319391 1.076629661e-38
0.31212002 0.004473060752 0.8575462241 1.012200761e-38
0.31449524 0.002473080752 0.8575919391 9.201853376e-39
0.31687811 0.0004730507525 0.8576376521 8.37605558e-39
0.31853715 0.0004730507525 0.8576376521 8.180193291e-39
0.32019621 0.0004730507525 0.8576376521 8.000108221e-39
0.32185525 0.0004730507525 0.8576376521 7.726752726e-39
0.32277143 0.002473080752 0.8575919391 7.543441867e-39
0.32442668 0.002473080752 0.8575919391 7.911502718e-39
0.32608193 0.002473080752 0.8575919391 8.28027683e-39
0.32698289 0.004473060752 0.8575462241 8.649768406e-39
0.32863429 0.004473060752 0.8575462241 9.016399932e-39
0.33028573 0.004473060752 0.8575462241 9.475225687e-39
0.33117145 0.006473030752 0.8575005111 9.935482168e-39
0.33281907 0.006473030752 0.8575005111 1.021206766e-38
0.3344667 0.006473030752 0.8575005111 1.058014112e-38
0.33494857 0.009473050752 0.8574319391 1.085673782e-38
0.3365905 0.009473050752 0.8574319391 1.122514479e-38
0.3382324 0.009473050752 0.8574319391 1.131840541e-38
0.33908573 0.01147309075 0.8573862221 1.150350852e-38
0.34072381 0.01147309075 0.8573862221 1.168861305e-38
0.3423619 0.01147309075 0.8573862221 1.187193231e-38
0.34400001 0.01147309075 0.8573862221 1.214888074e-38
0.3456381 0.01147309075 0.8573862221 1.251658285e-38
0.34727621 0.01147309075 0.8573862221 1.260913862e-38
0.3489143 0.01147309075 0.8573862221 1.279317115e-38
0.35136765 0.009473050752 0.8574319391 1.288608564e-38
0.35300955 0.009473050752 0.8574319391 1.30693993e-38
0.35465145 0.009473050752 0.8574319391 1.32530703e-38
0.35629335 0.009473050752 0.8574319391 1.343674549e-38
0.35793525 0.009473050752 0.8574319391 1.325487236e-38
0.35957718 0.009473050752 0.8574319391 1.316124741e-38
0.36121908 0.009473050752 0.8574319391 1.334492401e-38
0.36286098 0.009473050752 0.8574319391 1.352823347e-38
0.36577144 0.006473030752 0.8575005111 1.343639517e-38
0.36741909 0.006473030752 0.8575005111 1.343639236e-38
0.36906669 0.006473030752 0.8575005111 1.361898576e-38
0.37071431 0.006473030752 0.8575005111 1.380301969e-38
0.37322289 0.004473060752 0.8575462241 1.361971303e-38
0.37487429 0.004473060752 0.8575462241 1.352822646e-38
0.37652573 0.004473060752 0.8575462241 1.361861582e-38
0.37817717 0.004473060752 0.8575462241 1.371044711e-38
0.37982857 0.004473060752 0.8575462241 1.343529655e-38
0.38235998 0.002473080752 0.8575919391 1.325162416e-38
0.38489905 0.0004730507525 0.8576376521 1.297611627e-38
0.38655812 0.0004730507525 0.8576376521 1.279281101e-38
0.38821715 0.0004730507525 0.8576376521 1.288357872e-38
0.38987622 0.0004730507525 0.8576376521 1.306651543e-38
0.39243427 -0.001526929248 0.8576833651 1.279063339e-38
0.39409715 -0.001526929248 0.8576833651 1.251441505e-38
0.39666671 -0.003526959248 0.8577290811 1.242043276e-38
0.39969906 -0.006526919248 0.8577976511 1.23289574e-38
0.40228572 -0.008526949248 0.8578433661 1.205417118e-38
0.40396193 -0.008526949248 0.8578433661 1.177614656e-38
0.40656 -0.01052692925 0.8578890811 1.159103363e-38
0.40823999 -0.01052692925 0.8578890811 1.140630045e-38
0.40992001 -0.01052692925 0.8578890811 1.103825361e-38
0.41160002 -0.01052692925 0.8578890811 1.076637088e-38
0.41328001 -0.01052692925 0.8578890811 9.484657827e-39
0.31283998 0.002473080752 0.8592471741 1.030712474e-38
0.31521904 0.0004730507525 0.8592967001 1.02159983e-38
0.31687811 0.0004730507525 0.8592967001 1.02170745e-38
0.31853715 0.0004730507525 0.8592967001 9.108591358e-39
0.32019621 0.0004730507525 0.8592967001 8.09230245e-39
0.32185525 0.0004730507525 0.8592967001 7.911143986e-39
0.32351431 0.0004730507525 0.8592967001 7.729265254e-39
0.32442668 0.002473080752 0.8592471741 7.82110075e-39
0.32608193 0.002473080752 0.8592471741 7.912936246e-39
0.32773712 0.002473080752 0.8592471741 8.372472459e-39
0.32863429 0.004473060752 0.8591976521 8.832018482e-39
0.33028573 0.004473060752 0.8591976521 9.199729008e-39
0.33117145 0.006473030752 0.8591481281 9.567428324e-39
0.33281907 0.006473030752 0.8591481281 9.936922703e-39
0.3344667 0.006473030752 0.8591481281 1.021280334e-38
0.33611429 0.006473030752 0.8591481281 1.058159567e-38
0.3365905 0.009473050752 0.8590738421 1.08588804e-38
0.3382324 0.009473050752 0.8590738421 1.113473161e-38
0.3398743 0.009473050752 0.8590738421 1.13194746e-38
0.34072381 0.01147309075 0.8590243181 1.150421758e-38
0.3423619 0.01147309075 0.8590243181 1.168861585e-38
0.3448 0.009473050752 0.8590738421 1.187265538e-38
0.3456381 0.01147309075 0.8590243181 1.2148522e-38
0.34727621 0.01147309075 0.8590243181 1.224107777e-38
0.3489143 0.01147309075 0.8590243181 1.233399226e-38
0.35136765 0.009473050752 0.8590738421 1.251838352e-38
0.35300955 0.009473050752 0.8590738421 1.279496621e-38
0.35465145 0.009473050752 0.8590738421 1.31612334e-38
0.35629335 0.009473050752 0.8590738421 1.362041648e-38
0.35793525 0.009473050752 0.8590738421 1.325344024e-38
0.35957718 0.009473050752 0.8590738421 1.288646399e-38
0.36121908 0.009473050752 0.8590738421 1.307014199e-38
0.36286098 0.009473050752 0.8590738421 1.334563867e-38
0.36577144 0.006473030752 0.8591481281 1.325271857e-38
0.36741909 0.006473030752 0.8591481281 1.316088027e-38
0.36906669 0.006473030752 0.8591481281 1.334454986e-38
0.37071431 0.006473030752 0.8591481281 1.362042209e-38
0.37236193 0.006473030752 0.8591481281 1.352823627e-38
0.37400955 0.006473030752 0.8591481281 1.352858239e-38
0.37652573 0.004473060752 0.8591976521 1.37126009e-38
0.37817717 0.004473060752 0.8591976521 1.389662082e-38
0.37982857 0.004473060752 0.8591976521 1.362110592e-38
0.38235998 0.002473080752 0.8592471741 1.334560084e-38
0.38489905 0.0004730507525 0.8592967001 1.306902095e-38
0.38655812 0.0004730507525 0.8592967001 1.27927998e-38
0.38821715 0.0004730507525 0.8592967001 1.306795036e-38
0.38987622 0.0004730507525 0.8592967001 1.34349182e-38
0.39243427 -0.001526929248 0.8593462221 1.306504967e-38
0.39409715 -0.001526929248 0.8593462221 1.278919987e-38
0.39576 -0.001526929248 0.8593462221 1.251299273e-38
0.39833337 -0.003526959248 0.8593957481 1.232824554e-38
0.40137142 -0.006526919248 0.8594700331 1.214493328e-38
0.40396193 -0.008526949248 0.8595195571 1.205345511e-38
0.4056381 -0.008526949248 0.8595195571 1.186727159e-38
0.4073143 -0.008526949248 0.8595195571 1.168217688e-38
0.4089905 -0.008526949248 0.8595195571 1.140560681e-38
0.41160002 -0.01052692925 0.8595690811 1.103896968e-38
0.41328001 -0.01052692925 0.8595690811 1.021387393e-38
0.41496 -0.01052692925 0.8595690811 9.389222395e-39
0.31283998 0.002473080752 0.8609024141 1.049044541e-38
0.31521904 0.0004730507525 0.8609557471 1.122547269e-38
0.31760573 -0.001526929248 0.8610090801 1.205449768e-38
0.31926855 -0.001526929248 0.8610090801 1.012523059e-38
0.32093143 -0.001526929248 0.8610090801 8.279559365e-39
0.32185525 0.0004730507525 0.8609557471 8.095535245e-39
0.32351431 0.0004730507525 0.8609557471 7.910426521e-39
0.32517335 0.0004730507525 0.8609557471 7.725319197e-39
0.32608193 0.002473080752 0.8609024141 7.544516663e-39
0.32773712 0.002473080752 0.8609024141 8.097323302e-39
0.32939237 0.002473080752 0.8609024141 8.648700617e-39
0.33104762 0.002473080752 0.8609024141 8.924930175e-39
0.33193716 0.004473060752 0.8608490811 9.292274962e-39
0.33281907 0.006473030752 0.8607957481 9.570293979e-39
0.3344667 0.006473030752 0.8607957481 9.93728704e-39
0.33611429 0.006473030752 0.8607957481 1.021495713e-38
0.33776194 0.006473030752 0.8607957481 1.058300818e-38
0.3382324 0.009473050752 0.8607157471 1.085958385e-38
0.3398743 0.009473050752 0.8607157471 1.122764471e-38
0.34072381 0.01147309075 0.8606624121 1.141203596e-38
0.3431581 0.009473050752 0.8607157471 1.159571677e-38
0.3448 0.009473050752 0.8607157471 1.168756207e-38
0.34644189 0.009473050752 0.8607157471 1.178046956e-38
0.34727621 0.01147309075 0.8606624121 1.178118282e-38
0.34972572 0.009473050752 0.8607157471 1.187373718e-38
0.35136765 0.009473050752 0.8607157471 1.215068e-38
0.35300955 0.009473050752 0.8607157471 1.251838352e-38
0.35465145 0.009473050752 0.8607157471 1.316159353e-38
0.35629335 0.009473050752 0.8607157471 1.380444761e-38
0.35793525 0.009473050752 0.8607157471 1.316160474e-38
0.35957718 0.009473050752 0.8607157471 1.261059317e-38
0.36121908 0.009473050752 0.8607157471 1.288645979e-38
0.36286098 0.009473050752 0.8607157471 1.316124321e-38
0.36577144 0.006473030752 0.8607957481 1.297720788e-38
0.36741909 0.006473030752 0.8607957481 1.288537238e-38
0.36906669 0.006473030752 0.8607957481 1.316087887e-38
0.37071431 0.006473030752 0.8607957481 1.343603223e-38
0.37236193 0.006473030752 0.8607957481 1.352787333e-38
0.37400955 0.006473030752 0.8607957481 1.361970042e-38
0.37565717 0.006473030752 0.8607957481 1.380372174e-38
0.37730479 0.006473030752 0.8607957481 1.407992887e-38
0.37895241 0.006473030752 0.8607957481 1.371328754e-38
0.38235998 0.002473080752 0.8609024141 1.343742792e-38
0.38489905 0.0004730507525 0.8609557471 1.316192844e-38
0.38655812 0.0004730507525 0.8609557471 1.288499823e-38
0.38821715 0.0004730507525 0.8609557471 1.334382819e-38
0.38987622 0.0004730507525 0.8609557471 1.380083786e-38
0.39243427 -0.001526929248 0.8610090801 1.343168821e-38
0.39409715 -0.001526929248 0.8610090801 1.306471897e-38
0.39576 -0.001526929248 0.8610090801 1.269738959e-38
0.39833337 -0.003526959248 0.8610624151 1.242044537e-38
0.40137142 -0.006526919248 0.8611424121 1.232752948e-38
0.40304381 -0.006526919248 0.8611424121 1.2327884e-38
0.4056381 -0.008526949248 0.8611957471 1.214349274e-38
0.4073143 -0.008526949248 0.8611957471 1.204986359e-38
0.4089905 -0.008526949248 0.8611957471 1.168108807e-38
0.41066667 -0.008526949248 0.8611957471 1.140665918e-38
0.41234288 -0.008526949248 0.8611957471 1.09474831e-38
0.41401908 -0.008526949248 0.8611957471 1.058339633e-38
0.41569528 -0.008526949248 0.8611957471 9.851968983e-39
0.41737145 -0.008526949248 0.8611957471 9.123435313e-39
0.41999999 -0.01052692925 0.8612490801 1.105813243e-38
0.42168 -0.01052692925 0.8612490801 1.308857327e-38
