# .PCD v0.7 - Point Cloud Data file format
VERSION 0.7
FIELDS x y z rgb
SIZE 4 4 4 4
TYPE F F F F
COUNT 1 1 1 1
WIDTH 856
HEIGHT 1
VIEWPOINT 0 0 0 1 0 0 0
POINTS 856
DATA ascii
-0.4537532641 -0.1002909955 0.82500005 6.444308193e-39
-0.4535932701 -0.1028643655 0.82300001 6.351390895e-39
-0.4535932701 -0.1044319655 0.82300001 5.891131612e-39
-0.4539132651 -0.1040110455 0.82700002 5.521295316e-39
-0.4537532641 -0.1065767255 0.82500005 5.518801004e-39
-0.4537532641 -0.1081481355 0.82500005 5.60562826e-39
-0.4537532641 -0.1097195855 0.82500005 4.959565208e-39
-0.4542332671 -0.1083538955 0.83100003 4.329291987e-39
-0.4542332671 -0.1099367255 0.83100003 7.924527787e-39
-0.4542332671 -0.1115195855 0.83100003 1.151219938e-38
-0.4542332671 -0.1131024455 0.83100003 1.142680985e-38
-0.4537437421 -0.02585293549 0.84500003 1.096009479e-38
-0.4537437421 -0.02746246549 0.84500003 1.132709346e-38
-0.4535875551 -0.03022242549 0.84300005 1.151077986e-38
-0.4528066001 -0.03756148549 0.83300006 1.160297409e-38
-0.4524942201 -0.04143388549 0.82900006 1.1327469e-38
-0.4521818391 -0.04529098549 0.82500005 1.114308055e-38
-0.4523380261 -0.04572723549 0.82700002 1.132137195e-38
-0.4521818391 -0.04843388549 0.82500005 1.159436591e-38
-0.4520256451 -0.05113292549 0.82300001 1.205748945e-38
-0.4521818391 -0.05157671549 0.82500005 1.24255517e-38
-0.4521818391 -0.05314813549 0.82500005 1.270213859e-38
-0.4521818391 -0.05471957549 0.82500005 1.297907581e-38
-0.4520256451 -0.05740339549 0.82300001 1.29801478e-38
-0.4521818391 -0.05786244549 0.82500005 1.307305529e-38
-0.4520256451 -0.06053866549 0.82300001 1.279682853e-38
-0.4521818391 -0.06100527549 0.82500005 1.261244568e-38
-0.4521818391 -0.06257675549 0.82500005 1.24287817e-38
-0.4520256451 -0.06524149549 0.82300001 1.233622593e-38
-0.4520256451 -0.06680912549 0.82300001 1.251989412e-38
-0.4520256451 -0.06837673549 0.82300001 1.261172121e-38
-0.4518694591 -0.07102624549 0.82100004 1.270534336e-38
-0.4518694591 -0.07259006549 0.82100004 1.280076338e-38
-0.4518694591 -0.07415385549 0.82100004 1.261708959e-38
-0.4518694591 -0.07571769549 0.82100004 1.252560161e-38
-0.4518694591 -0.07728151549 0.82100004 1.169512628e-38
-0.4518694591 -0.07884530549 0.82100004 1.086754183e-38
-0.4520256451 -0.07935006549 0.82300001 1.059132909e-38
-0.4520256451 -0.08091769549 0.82300001 1.031511354e-38
-0.4520256451 -0.08248530549 0.82300001 9.852358544e-39
-0.4520256451 -0.08405293549 0.82300001 9.484655025e-39
-0.4520256451 -0.08562056549 0.82300001 9.297393906e-39
-0.4520256451 -0.08718816549 0.82300001 9.202666129e-39
-0.4520256451 -0.08875579549 0.82300001 8.746336087e-39
-0.4520256451 -0.09032340549 0.82300001 8.379701758e-39
-0.4520256451 -0.09189103549 0.82300001 7.914417419e-39
-0.4520256451 -0.09345863549 0.82300001 7.546716702e-39
-0.4520256451 -0.09502626549 0.82300001 7.178299921e-39
-0.4520256451 -0.09659389549 0.82300001 6.810253083e-39
-0.4521818391 -0.09714816549 0.82500005 6.16418863e-39
-0.4523380261 -0.09771008549 0.82700002 5.610295985e-39
-0.4521818391 -0.1002909955 0.82500005 4.96707897e-39
-0.4523380261 -0.1008605455 0.82700002 4.323859153e-39
-0.4523380261 -0.1024357755 0.82700002 3.771041304e-39
-0.4524942201 -0.1030167155 0.82900006 3.310430295e-39
-0.4524942201 -0.1045957955 0.82900006 4.782669494e-39
-0.4524942201 -0.1061748055 0.82900006 6.337068223e-39
-0.4521818391 -0.1097195855 0.82500005 7.175797202e-39
-0.4526504141 -0.1083538955 0.83100003 8.014564016e-39
-0.4526504141 -0.1099367255 0.83100003 9.675186774e-39
-0.4521342231 -0.02585293549 0.84500003 1.077572595e-38
-0.4519818361 -0.02861670549 0.84300005 1.123491604e-38
-0.4519818361 -0.03022242549 0.84300005 1.141860105e-38
-0.4515246911 -0.03526819549 0.83700001 1.169445646e-38
-0.4509151741 -0.04143388549 0.82900006 1.151113439e-38
-0.4507627941 -0.04415197549 0.82700002 1.14171465e-38
-0.4509151741 -0.04459194549 0.82900006 1.122737706e-38
-0.4507627941 -0.04730246549 0.82700002 1.104441933e-38
-0.4506104081 -0.05000529549 0.82500005 1.113876174e-38
-0.4507627941 -0.05045292549 0.82700002 1.123203497e-38
-0.4507627941 -0.05202819549 0.82700002 1.187596245e-38
-0.4506104081 -0.05471957549 0.82500005 1.251952979e-38
-0.4506104081 -0.05629102549 0.82500005 1.252025005e-38
-0.4506104081 -0.05786244549 0.82500005 1.261208275e-38
-0.4506104081 -0.05943385549 0.82500005 1.233657346e-38
-0.4506104081 -0.06100527549 0.82500005 1.20614299e-38
-0.4504580281 -0.06367389549 0.82300001 1.196959861e-38
-0.4504580281 -0.06524149549 0.82300001 1.187776031e-38
-0.4504580281 -0.06680912549 0.82300001 1.20614299e-38
-0.4504580281 -0.06837673549 0.82300001 1.233620912e-38
-0.4504580281 -0.06994436549 0.82300001 1.233619791e-38
-0.4504580281 -0.07151199549 0.82300001 1.243162633e-38
-0.4503056421 -0.07415385549 0.82100004 1.179021839e-38
-0.4504580281 -0.07464723549 0.82300001 1.114520912e-38
-0.4504580281 -0.07621483549 0.82300001 1.068386943e-38
-0.4504580281 -0.07778246549 0.82300001 1.031186953e-38
-0.4503056421 -0.08040912549 0.82100004 9.388497924e-39
-0.4504580281 -0.08091769549 0.82300001 8.563409184e-39
-0.4503056421 -0.08353672549 0.82100004 8.105663831e-39
-0.4503056421 -0.08510054549 0.82100004 7.736166649e-39
-0.4503056421 -0.08666436549 0.82100004 7.917682444e-39
-0.4503056421 -0.08822814549 0.82100004 8.101331016e-39
-0.4504580281 -0.08875579549 0.82300001 7.459536319e-39
-0.4504580281 -0.09032340549 0.82300001 6.813823592e-39
-0.4504580281 -0.09189103549 0.82300001 6.719123842e-39
-0.4506104081 -0.09243385549 0.82500005 6.626577887e-39
-0.4506104081 -0.09400529549 0.82500005 6.258884177e-39
-0.4507627941 -0.09455959549 0.82700002 5.889033868e-39
-0.4507627941 -0.09613482549 0.82700002 5.244035803e-39
-0.4507627941 -0.09771008549 0.82700002 4.599379655e-39
-0.4507627941 -0.09928531549 0.82700002 3.40371053e-39
-0.4509151741 -0.09985865549 0.82900006 2.30023283e-39
-0.4509151741 -0.1014376755 0.82900006 1.656291345e-39
-0.4510675531 -0.1020224555 0.83100003 1.106741323e-39
-0.4510675531 -0.1036053155 0.83100003 4.138775652e-39
-0.4510675531 -0.1051881755 0.83100003 7.184076073e-39
-0.4507475501 -0.02411575549 0.84800005 1.077502951e-38
-0.4502275481 -0.02977101549 0.84100002 1.11423813e-38
-0.4502275481 -0.03137291549 0.84100002 1.141861646e-38
-0.4500789801 -0.03412149549 0.83900005 1.160226784e-38
-0.4497818401 -0.03800530549 0.83500004 1.178663668e-38
-0.4493361241 -0.04301289549 0.82900006 1.187488345e-38
-0.4493361241 -0.04459194549 0.82900006 1.131920555e-38
-0.4493361241 -0.04617102549 0.82900006 1.086217205e-38
-0.4490389831 -0.05000529549 0.82500005 1.077212321e-38
-0.4491875521 -0.05045292549 0.82700002 1.068172545e-38
-0.4490389831 -0.05314813549 0.82500005 1.095759347e-38
-0.4490389831 -0.05471957549 0.82500005 1.123203077e-38
-0.4490389831 -0.05629102549 0.82500005 1.132279848e-38
-0.4490389831 -0.05786244549 0.82500005 1.141355637e-38
-0.4488904081 -0.06053866549 0.82300001 1.159937836e-38
-0.4488904081 -0.06210626549 0.82300001 1.187775611e-38
-0.4488904081 -0.06367389549 0.82300001 1.178520455e-38
-0.4488904081 -0.06524149549 0.82300001 1.169265019e-38
-0.4488904081 -0.06680912549 0.82300001 1.160117342e-38
-0.4488904081 -0.06837673549 0.82300001 1.150968265e-38
-0.4488904081 -0.06994436549 0.82300001 1.1418552e-38
-0.4488904081 -0.07151199549 0.82300001 1.141964221e-38
-0.4487418351 -0.07415385549 0.82100004 1.114558467e-38
-0.4488904081 -0.07464723549 0.82300001 1.086468878e-38
-0.4488904081 -0.07621483549 0.82300001 1.040227571e-38
-0.4488904081 -0.07778246549 0.82300001 9.940226964e-39
-0.4488904081 -0.07935006549 0.82300001 9.201955671e-39
-0.4488904081 -0.08091769549 0.82300001 8.464385027e-39
-0.4488904081 -0.08248530549 0.82300001 7.821879872e-39
-0.4487418351 -0.08510054549 0.82100004 7.179387329e-39
-0.4488904081 -0.08562056549 0.82300001 7.089344093e-39
-0.4488904081 -0.08718816549 0.82300001 7.091472666e-39
-0.4488904081 -0.08875579549 0.82300001 6.537567409e-39
-0.4488904081 -0.09032340549 0.82300001 6.075898419e-39
-0.4488904081 -0.09189103549 0.82300001 5.88830239e-39
-0.4490389831 -0.09243385549 0.82500005 5.608862457e-39
-0.4490389831 -0.09400529549 0.82500005 5.332293784e-39
-0.4491875521 -0.09455959549 0.82700002 5.056062824e-39
-0.4491875521 -0.09613482549 0.82700002 4.412850013e-39
-0.4491875521 -0.09771008549 0.82700002 3.861460087e-39
-0.4491875521 -0.09928531549 0.82700002 2.849816483e-39
-0.4493361241 -0.09985865549 0.82900006 1.838527407e-39
-0.4494846921 -0.1004395955 0.83100003 3.862473226e-39
-0.4494846921 -0.1020224555 0.83100003 5.978690345e-39
-0.4494846921 -0.1036053155 0.83100003 7.737968719e-39
-0.4494846921 -0.1051881755 0.83100003 9.405389176e-39
-0.4491323171 -0.02411575549 0.84800005 1.077466377e-38
-0.4484808861 -0.03092531549 0.83900005 1.114237289e-38
-0.4486256441 -0.03137291549 0.84100002 1.132676835e-38
-0.4483361221 -0.03526819549 0.83700001 1.160261536e-38
-0.4481913611 -0.03800530549 0.83500004 1.197029646e-38
-0.4480466031 -0.04073480549 0.83300006 1.242767607e-38
-0.4479018381 -0.04345671549 0.83100003 1.150285972e-38
-0.4477570771 -0.04617102549 0.82900006 1.067920872e-38
-0.4476123131 -0.04887769549 0.82700002 1.040585322e-38
-0.4476123131 -0.05045292549 0.82700002 1.022254376e-38
-0.4474675551 -0.05314813549 0.82500005 1.003959444e-38
-0.4474675551 -0.05471957549 0.82500005 9.945968084e-39
-0.4473227871 -0.05740339549 0.82300001 1.003709032e-38
-0.4473227871 -0.05897102549 0.82300001 1.022004385e-38
-0.4473227871 -0.06053866549 0.82300001 1.095436908e-38
-0.4473227871 -0.06210626549 0.82300001 1.169264178e-38
-0.4473227871 -0.06367389549 0.82300001 1.160439501e-38
-0.4471780291 -0.06633482549 0.82100004 1.150897499e-38
-0.4471780291 -0.06789861549 0.82100004 1.104370326e-38
-0.4473227871 -0.06837673549 0.82300001 1.067705772e-38
-0.4471780291 -0.07102624549 0.82100004 1.049444191e-38
-0.4471780291 -0.07259006549 0.82100004 1.040582519e-38
-0.4471780291 -0.07415385549 0.82100004 1.050123821e-38
-0.4473227871 -0.07464723549 0.82300001 1.058876891e-38
-0.4473227871 -0.07621483549 0.82300001 1.003345115e-38
-0.4473227871 -0.07778246549 0.82300001 9.571046476e-39
-0.4473227871 -0.07935006549 0.82300001 8.92281982e-39
-0.4473227871 -0.08091769549 0.82300001 8.371434097e-39
-0.4473227871 -0.08248530549 0.82300001 7.45270639e-39
-0.4473227871 -0.08405293549 0.82300001 6.625123339e-39
-0.4473227871 -0.08562056549 0.82300001 6.348911998e-39
-0.4473227871 -0.08718816549 0.82300001 6.073394299e-39
-0.4473227871 -0.08875579549 0.82300001 5.706042505e-39
-0.4474675551 -0.08929101549 0.82500005 5.426959903e-39
-0.4474675551 -0.09086243549 0.82500005 5.056041805e-39
-0.4474675551 -0.09243385549 0.82500005 4.688708228e-39
-0.4474675551 -0.09400529549 0.82500005 4.413211548e-39
-0.4477570771 -0.09354243549 0.82900006 4.228090212e-39
-0.4476123131 -0.09613482549 0.82700002 3.675987025e-39
-0.4476123131 -0.09771008549 0.82700002 3.123881035e-39
-0.4474675551 -0.1002909955 0.82500005 2.204434462e-39
-0.4476123131 -0.1008605455 0.82700002 1.388704995e-39
-0.4476123131 -0.1024357755 0.82700002 6.17422473e-39
-0.4479018381 -0.1020224555 0.83100003 1.095936191e-38
-0.4475170761 -0.02411575549 0.84800005 1.068282266e-38
-0.4471646971 -0.02861670549 0.84300005 1.105052759e-38
-0.4470237391 -0.03137291549 0.84100002 1.123384545e-38
-0.4467418351 -0.03526819549 0.83700001 1.141749823e-38
-0.4466008851 -0.03800530549 0.83500004 1.160366213e-38
-0.4464599351 -0.04073480549 0.83300006 1.178696738e-38
-0.4463189811 -0.04345671549 0.83100003 1.095792978e-38
-0.4463189811 -0.04503960549 0.83100003 1.022073889e-38
-0.4460370741 -0.04887769549 0.82700002 9.85340111e-39
-0.4460370741 -0.05045292549 0.82700002 9.486422062e-39
-0.4458961231 -0.05314813549 0.82500005 9.39459077e-39
-0.4457551701 -0.05583579549 0.82300001 9.302755274e-39
-0.4458961231 -0.05629102549 0.82500005 9.392079643e-39
-0.4458961231 -0.05786244549 0.82500005 9.573956973e-39
-0.4457551701 -0.06053866549 0.82300001 9.665435138e-39
-0.4457551701 -0.06210626549 0.82300001 9.849107532e-39
-0.4457551701 -0.06367389549 0.82300001 9.577189769e-39
-0.4457551701 -0.06524149549 0.82300001 9.305279012e-39
-0.4457551701 -0.06680912549 0.82300001 8.936151773e-39
-0.4457551701 -0.06837673549 0.82300001 8.658822195e-39
-0.4457551701 -0.06994436549 0.82300001 8.38041642e-39
-0.4457551701 -0.07151199549 0.82300001 8.010529678e-39
-0.4457551701 -0.07307959549 0.82300001 8.105561536e-39
-0.4458961231 -0.07357673549 0.82500005 8.200991362e-39
-0.4458961231 -0.07514814549 0.82500005 7.825048208e-39
-0.4458961231 -0.07671956549 0.82500005 7.549187191e-39
-0.4458961231 -0.07829101549 0.82500005 6.900244471e-39
-0.4458961231 -0.07986245549 0.82500005 6.348144086e-39
-0.4458961231 -0.08143387549 0.82500005 5.702773276e-39
-0.4457551701 -0.08405293549 0.82300001 5.057799033e-39
-0.4458961231 -0.08457670549 0.82500005 4.78088424e-39
-0.4458961231 -0.08614815549 0.82500005 4.596139853e-39
-0.4460370741 -0.08668340549 0.82700002 4.503948427e-39
-0.4460370741 -0.08825863549 0.82700002 4.412114332e-39
-0.4460370741 -0.08983386549 0.82700002 3.585238937e-39
-0.4460370741 -0.09140909549 0.82700002 2.758364943e-39
-0.4460370741 -0.09298436549 0.82700002 3.21647043e-39
-0.4461780311 -0.09354243549 0.82900006 3.674549293e-39
-0.4460370741 -0.09613482549 0.82700002 4.041868857e-39
-0.4460370741 -0.09771008549 0.82700002 4.501389656e-39
-0.4458961231 -0.1002909955 0.82500005 5.337580883e-39
-0.4458961231 -0.1018624455 0.82500005 6.265701494e-39
-0.4458961231 -0.1034338855 0.82500005 8.56740849e-39
-0.4459018381 -0.02411575549 0.84800005 1.068353172e-38
-0.4456961241 -0.02746246549 0.84500003 1.105052058e-38
-0.4454218381 -0.03137291549 0.84100002 1.114200155e-38
-0.4451475491 -0.03526819549 0.83700001 1.12345419e-38
-0.4450104101 -0.03800530549 0.83500004 1.114556365e-38
-0.4448732711 -0.04073480549 0.83300006 1.114483778e-38
-0.4447361201 -0.04345671549 0.83100003 1.04998285e-38
-0.4447361201 -0.04503960549 0.83100003 9.853396906e-39
-0.4444618381 -0.04887769549 0.82700002 9.299518274e-39
-0.4444618381 -0.05045292549 0.82700002 8.841059659e-39
-0.4444618381 -0.05202819549 0.82700002 8.75030036e-39
-0.4443246921 -0.05471957549 0.82500005 8.748861227e-39
-0.4443246921 -0.05629102549 0.82500005 8.83925759e-39
-0.4443246921 -0.05786244549 0.82500005 8.931088882e-39
-0.4441875491 -0.06053866549 0.82300001 8.473702261e-39
-0.4441875491 -0.06210626549 0.82300001 8.013805914e-39
-0.4441875491 -0.06367389549 0.82300001 7.553910968e-39
-0.4441875491 -0.06524149549 0.82300001 7.090790233e-39
-0.4441875491 -0.06680912549 0.82300001 6.903536121e-39
-0.4443246921 -0.06729100549 0.82500005 6.718421791e-39
-0.4441875491 -0.06994436549 0.82300001 6.166324209e-39
-0.4444618381 -0.06935579549 0.82700002 5.704976117e-39
-0.4441875491 -0.07307959549 0.82300001 5.702806907e-39
-0.4441875491 -0.07464723549 0.82300001 5.797515065e-39
-0.4443246921 -0.07514814549 0.82500005 5.617075467e-39
-0.4443246921 -0.07671956549 0.82500005 5.523084774e-39
-0.4443246921 -0.07829101549 0.82500005 4.878079702e-39
-0.4443246921 -0.07986245549 0.82500005 4.323473796e-39
-0.4443246921 -0.08143387549 0.82500005 3.858908323e-39
-0.4443246921 -0.08300529549 0.82500005 3.493372612e-39
-0.4443246921 -0.08457670549 0.82500005 3.311507893e-39
-0.4444618381 -0.08510814549 0.82700002 3.126401971e-39
-0.4444618381 -0.08668340549 0.82700002 3.216803939e-39
-0.4444618381 -0.08825863549 0.82700002 3.400109193e-39
-0.4444618381 -0.08983386549 0.82700002 2.11440524e-39
-0.4444618381 -0.09140909549 0.82700002 8.276573198e-40
-0.4444618381 -0.09298436549 0.82700002 2.02082793e-39
-0.4445989811 -0.09354243549 0.82900006 3.219337487e-39
-0.4445989811 -0.09512148549 0.82900006 4.510041272e-39
-0.4444618381 -0.09771008549 0.82700002 5.894398038e-39
-0.4444618381 -0.09928531549 0.82700002 8.564810483e-39
-0.4444618381 -0.1008605455 0.82700002 1.123704321e-38
-0.4443246921 -0.1034338855 0.82500005 1.106237556e-38
-0.4436866021 -0.03092531549 0.83900005 1.095903541e-38
-0.4438199341 -0.03137291549 0.84100002 1.105087651e-38
-0.4436866021 -0.03412149549 0.83900005 1.10519443e-38
-0.4435532621 -0.03686244549 0.83700001 1.105337222e-38
-0.4434199341 -0.03959579549 0.83500004 1.096188565e-38
-0.4434199341 -0.04118625549 0.83500004 1.0407993e-38
-0.4431532671 -0.04503960549 0.83100003 9.945232403e-39
-0.4430199311 -0.04775003549 0.82900006 9.298802211e-39
-0.4430199311 -0.04932908549 0.82900006 8.745992769e-39
-0.4428865991 -0.05202819549 0.82700002 8.560884044e-39
-0.4428865991 -0.05360342549 0.82700002 8.283932817e-39
-0.4428865991 -0.05517862549 0.82700002 8.193165111e-39
-0.4428865991 -0.05675385549 0.82700002 8.194593034e-39
-0.4427532671 -0.05943385549 0.82500005 7.828678972e-39
-0.4427532671 -0.06100527549 0.82500005 7.463126446e-39
-0.4427532671 -0.06257675549 0.82500005 6.814894184e-39
-0.4427532671 -0.06414816549 0.82500005 6.068729376e-39
-0.4427532671 -0.06571958549 0.82500005 5.795375282e-39
-0.4430199311 -0.06511957549 0.82900006 5.614226627e-39
-0.4430199311 -0.06669862549 0.82900006 5.151833166e-39
-0.4430199311 -0.06827769549 0.82900006 4.781619921e-39
-0.4430199311 -0.06985671549 0.82900006 4.689783024e-39
-0.4428865991 -0.07250626549 0.82700002 4.689780221e-39
-0.4428865991 -0.07408149549 0.82700002 4.598660789e-39
-0.4428865991 -0.07565675549 0.82700002 4.416054783e-39
-0.4427532671 -0.07829101549 0.82500005 4.046190461e-39
-0.4427532671 -0.07986245549 0.82500005 3.768171445e-39
-0.4428865991 -0.08038247549 0.82700002 3.30863383e-39
-0.4427532671 -0.08300529549 0.82500005 2.941289043e-39
-0.4428865991 -0.08353294549 0.82700002 2.757975382e-39
-0.4430199311 -0.08406816549 0.82900006 2.483184957e-39
-0.4430199311 -0.08564717549 0.82900006 2.390631996e-39
-0.4430199311 -0.08722625549 0.82900006 2.298420952e-39
-0.4428865991 -0.08983386549 0.82700002 3.216760499e-39
-0.4430199311 -0.09038431549 0.82900006 4.224844805e-39
-0.4430199311 -0.09196339549 0.82900006 5.7929118e-39
-0.4431532671 -0.09252528549 0.83100003 7.269087246e-39
-0.4430199311 -0.09512148549 0.82900006 7.922690685e-39
-0.4428865991 -0.09771008549 0.82700002 8.576690691e-39
-0.4428865991 -0.09928531549 0.82700002 9.867800853e-39
-0.4428865991 -0.1008605455 0.82700002 1.106739081e-38
-0.4429304121 -0.02179954549 0.85200006 1.059239828e-38
-0.4426713591 -0.02573103549 0.84800005 1.095938853e-38
-0.4423475541 -0.03022242549 0.84300005 1.095939694e-38
-0.4422180251 -0.03297482549 0.84100002 1.095903961e-38
-0.4420885041 -0.03571958549 0.83900005 1.086971524e-38
-0.4419589801 -0.03845675549 0.83700001 1.086862503e-38
-0.4420885041 -0.03891576549 0.83900005 1.040835734e-38
-0.4420885041 -0.04051385549 0.83900005 1.003850143e-38
-0.4415704101 -0.04662243549 0.83100003 9.389911834e-39
-0.4415704101 -0.04820532549 0.83100003 8.745621425e-39
-0.4414408891 -0.05090816549 0.82900006 8.282851015e-39
-0.4414408891 -0.05248720549 0.82900006 7.913711164e-39
-0.4414408891 -0.05406622549 0.82900006 7.636408211e-39
-0.4414408891 -0.05564529549 0.82900006 7.455961607e-39
-0.4411818361 -0.05943385549 0.82500005 7.183679506e-39
-0.4413113601 -0.05990434549 0.82700002 6.997133049e-39
-0.4411818361 -0.06257675549 0.82500005 6.076262757e-39
-0.4411818361 -0.06414816549 0.82500005 5.150378619e-39
-0.4413113601 -0.06463007549 0.82700002 4.785191831e-39
-0.4413113601 -0.06620530549 0.82700002 4.506093815e-39
-0.4414408891 -0.06669862549 0.82900006 4.135161703e-39
-0.4414408891 -0.06827769549 0.82900006 3.860730011e-39
-0.4414408891 -0.06985671549 0.82900006 3.770328043e-39
-0.4414408891 -0.07143576549 0.82900006 3.678847075e-39
-0.4413113601 -0.07408149549 0.82700002 3.495532013e-39
-0.4414408891 -0.07459385549 0.82900006 3.401179785e-39
-0.4413113601 -0.07723198549 0.82700002 3.30718769e-39
-0.4413113601 -0.07880721549 0.82700002 3.216785722e-39
-0.4413113601 -0.08038247549 0.82700002 2.853031062e-39
-0.4411818361 -0.08300529549 0.82500005 2.482466091e-39
-0.4413113601 -0.08353294549 0.82700002 2.206606475e-39
-0.4414408891 -0.08406816549 0.82900006 1.930371311e-39
-0.4415704101 -0.08461101549 0.83100003 1.56229925e-39
-0.4415704101 -0.08619387549 0.83100003 1.195697151e-39
-0.4414408891 -0.08880530549 0.82900006 4.411038135e-39
-0.4415704101 -0.08935959549 0.83100003 7.728624861e-39
-0.4415704101 -0.09094245549 0.83100003 9.576842247e-39
-0.4415704101 -0.09252528549 0.83100003 1.142073102e-38
-0.4414408891 -0.09512148549 0.82900006 1.133643171e-38
-0.4413113601 -0.09771008549 0.82700002 1.133607858e-38
-0.4413113601 -0.09928531549 0.82700002 1.115205446e-38
-0.4413113601 -0.1008605455 0.82700002 1.096694293e-38
-0.4413075531 -0.02179954549 0.85200006 1.077570213e-38
-0.4410561221 -0.02573103549 0.84800005 1.105121983e-38
-0.4407418381 -0.03022242549 0.84300005 1.105051357e-38
-0.4407418381 -0.03182814549 0.84300005 1.105016325e-38
-0.4404904111 -0.03571958549 0.83900005 1.095869629e-38
-0.4404904111 -0.03731767549 0.83900005 1.086719991e-38
-0.4404904111 -0.03891576549 0.83900005 1.049948098e-38
-0.4406161211 -0.03938244549 0.84100002 1.004029369e-38
-0.4404904111 -0.04211197549 0.83900005 9.484250049e-39
-0.4402389801 -0.04595766549 0.83500004 8.928922474e-39
-0.4401132661 -0.04866812549 0.83300006 8.28104334e-39
-0.4399875491 -0.05137102549 0.83100003 7.72644444e-39
-0.4399875491 -0.05295388549 0.83100003 7.176150329e-39
-0.4399875491 -0.05453671549 0.83100003 6.717688912e-39
-0.4398618391 -0.05722434549 0.82900006 6.351421723e-39
-0.4398618391 -0.05880339549 0.82900006 5.985509063e-39
-0.4398618391 -0.06038243549 0.82900006 5.154679204e-39
-0.4398618391 -0.06196148549 0.82900006 4.323861956e-39
-0.4398618391 -0.06354053549 0.82900006 3.95365852e-39
-0.4398618391 -0.06511957549 0.82900006 3.583427058e-39
-0.4399875491 -0.06561673549 0.83100003 3.400453912e-39
-0.4399875491 -0.06719959549 0.83100003 3.217140251e-39
-0.4399875491 -0.06878243549 0.83100003 3.217497582e-39
-0.4399875491 -0.07036532549 0.83100003 3.217850709e-39
-0.4401132661 -0.07088146549 0.83300006 2.849428323e-39
-0.4399875491 -0.07353101549 0.83100003 2.481011543e-39
-0.4399875491 -0.07511387549 0.83100003 2.664683936e-39
-0.4398618391 -0.07775197549 0.82900006 2.849431126e-39
-0.4398618391 -0.07933099549 0.82900006 2.206941385e-39
-0.4397361211 -0.08195771549 0.82700002 1.56482439e-39
-0.4398618391 -0.08248911549 0.82900006 3.032412679e-39
-0.4399875491 -0.08302817549 0.83100003 4.500321866e-39
-0.4399875491 -0.08461101549 0.83100003 5.331841165e-39
-0.4399875491 -0.08619387549 0.83100003 6.163801872e-39
-0.4399875491 -0.08777673549 0.83100003 7.827664432e-39
-0.4399875491 -0.08935959549 0.83100003 9.583669373e-39
-0.4399875491 -0.09094245549 0.83100003 1.068965259e-38
-0.4399875491 -0.09252528549 0.83100003 1.188747411e-38
-0.4395627871 -0.02457670549 0.85000002 1.114269099e-38
-0.4392580291 -0.02907199549 0.84500003 1.114198613e-38
-0.4392580291 -0.03068150549 0.84500003 1.123381042e-38
-0.4390142161 -0.03457675549 0.84100002 1.104905342e-38
-0.4390142161 -0.03617866549 0.84100002 1.095865706e-38
-0.4390142161 -0.03778053549 0.84100002 1.049948518e-38
-0.4391361221 -0.03825099549 0.84300005 1.013178166e-38
-0.4388923131 -0.04211197549 0.83900005 9.57897222e-39
-0.4387704071 -0.04483388549 0.83700001 9.116182192e-39
-0.4386485041 -0.04754815549 0.83500004 8.37106976e-39
-0.4387704071 -0.04802246549 0.83700001 7.632806874e-39
-0.4385266011 -0.05184147549 0.83300006 6.80091483e-39
-0.4385266011 -0.05342815549 0.83300006 5.980842739e-39
-0.4384046951 -0.05611960549 0.83100003 5.521296717e-39
-0.4384046951 -0.05770243549 0.83100003 5.059603905e-39
-0.4384046951 -0.05928532549 0.83100003 4.322404605e-39
-0.4384046951 -0.06086815549 0.83100003 3.587729044e-39
-0.4384046951 -0.06245101549 0.83100003 3.124613914e-39
-0.4384046951 -0.06403387549 0.83100003 2.757612445e-39
-0.4385266011 -0.06453479549 0.83300006 2.66683493e-39
-0.4385266011 -0.06612150549 0.83300006 2.5746393e-39
-0.4385266011 -0.06770814549 0.83300006 2.666473395e-39
-0.4386485041 -0.06822435549 0.83500004 2.849782852e-39
-0.4386485041 -0.06981481549 0.83500004 2.20585678e-39
-0.4385266011 -0.07246814549 0.83300006 1.654846606e-39
-0.4385266011 -0.07405481549 0.83300006 2.022191393e-39
-0.4385266011 -0.07564149549 0.83300006 2.482440867e-39
-0.4385266011 -0.07722814549 0.83300006 1.564800568e-39
-0.4384046951 -0.07986245549 0.83100003 6.453764155e-40
-0.4384046951 -0.08144528549 0.83100003 3.864648041e-39
-0.4385266011 -0.08198816549 0.83300006 7.089317469e-39
-0.4386485041 -0.08253864549 0.83500004 9.120124045e-39
-0.4386485041 -0.08412913549 0.83500004 1.114627691e-38
-0.4384046951 -0.08777673549 0.83100003 1.124424168e-38
-0.4384046951 -0.08935959549 0.83100003 1.14214597e-38
-0.4384046951 -0.09094245549 0.83100003 1.188386857e-38
-0.4382980291 -0.01948336549 0.85600007 1.105011981e-38
-0.4380618381 -0.02342246549 0.85200006 1.123452088e-38
-0.4376485061 -0.02907199549 0.84500003 1.132601165e-38
-0.4378256471 -0.02896149549 0.84800005 1.132598082e-38
-0.4376485061 -0.03229100549 0.84500003 1.12341159e-38
-0.4376485061 -0.03390054549 0.84500003 1.114230983e-38
-0.4375304101 -0.03664527549 0.84300005 1.077499728e-38
-0.4376485061 -0.03711957549 0.84500003 1.040694063e-38
-0.4372942161 -0.04211197549 0.83900005 9.946691154e-39
-0.4372942161 -0.04371003549 0.83900005 9.487112902e-39
-0.4371761201 -0.04642818549 0.83700001 8.836330277e-39
-0.4371761201 -0.04802246549 0.83700001 8.182017781e-39
-0.4370580291 -0.05072910549 0.83500004 7.447707959e-39
-0.4371761201 -0.05121104549 0.83700001 6.621887741e-39
-0.4368218381 -0.05611960549 0.83100003 5.977227389e-39
-0.4369399331 -0.05660147549 0.83300006 5.241105688e-39
-0.4369399331 -0.05818812549 0.83300006 4.505701451e-39
-0.4369399331 -0.05977482549 0.83300006 3.862145322e-39
-0.4369399331 -0.06136147549 0.83300006 3.218230461e-39
-0.4369399331 -0.06294814549 0.83300006 2.666481802e-39
-0.4370580291 -0.06345291549 0.83500004 2.574629491e-39
-0.4370580291 -0.06504340549 0.83500004 2.57319316e-39
-0.4371761201 -0.06555960549 0.83700001 2.666103452e-39
-0.4371761201 -0.06715388549 0.83700001 2.757581617e-39
-0.4371761201 -0.06874818549 0.83700001 2.389882301e-39
-0.4371761201 -0.07034243549 0.83700001 2.022184387e-39
-0.4371761201 -0.07193673549 0.83700001 2.39024804e-39
-0.4371761201 -0.07353104549 0.83700001 2.758659215e-39
-0.4370580291 -0.07617674549 0.83500004 2.207281901e-39
-0.4369399331 -0.07881481549 0.83300006 1.74666949e-39
-0.4369399331 -0.08040146549 0.83300006 5.343679334e-39
-0.4369399331 -0.08198816549 0.83300006 9.029723478e-39
-0.4370580291 -0.08253864549 0.83500004 9.952453294e-39
-0.4370580291 -0.08412913549 0.83500004 1.096730867e-38
-0.4366675551 -0.01948336549 0.85600007 1.132527737e-38
-0.4363246901 -0.02457670549 0.85000002 1.141892615e-38
-0.4362104101 -0.02734626549 0.84800005 1.142325056e-38
-0.4362104101 -0.02896149549 0.84800005 1.151003858e-38
-0.4360389791 -0.03229100549 0.84500003 1.141889532e-38
-0.4360389791 -0.03390054549 0.84500003 1.132635637e-38
-0.4360389791 -0.03551007549 0.84500003 1.09590298e-38
-0.4360389791 -0.03711957549 0.84500003 1.068244712e-38
-0.4358104101 -0.04098437549 0.84100002 1.0314745e-38
-0.4358104101 -0.04258627549 0.84100002 9.945935854e-39
-0.4356961261 -0.04530815549 0.83900005 9.393455718e-39
-0.4355818381 -0.04802246549 0.83700001 8.835270895e-39
-0.4355818381 -0.04961673549 0.83700001 8.093773813e-39
-0.4356961261 -0.05010242549 0.83900005 7.355843035e-39
-0.4355818381 -0.05280531549 0.83700001 6.434599998e-39
-0.4356961261 -0.05329863549 0.83900005 5.515174444e-39
-0.4354675501 -0.05709100549 0.83500004 4.779780016e-39
-0.4353532651 -0.05977482549 0.83300006 4.136930142e-39
-0.4354675501 -0.06027196549 0.83500004 3.40224337e-39
-0.4354675501 -0.06186245549 0.83500004 2.666471993e-39
-0.4355818381 -0.06237102549 0.83700001 2.574267956e-39
-0.4355818381 -0.06396533549 0.83700001 2.574267956e-39
-0.4356961261 -0.06448532549 0.83900005 2.574267956e-39
-0.4358104101 -0.06501294549 0.84100002 2.666106254e-39
-0.4358104101 -0.06661481549 0.84100002 2.482796797e-39
-0.4359246951 -0.06715385549 0.84300005 2.390965505e-39
-0.4358104101 -0.06981865549 0.84100002 2.758311693e-39
-0.4358104101 -0.07142056549 0.84100002 3.125286538e-39
-0.4356961261 -0.07407386549 0.83900005 2.941607138e-39
-0.4352389771 -0.07986245549 0.83100003 2.847990591e-39
-0.4352389771 -0.08144528549 0.83100003 6.914953901e-39
-0.4352389771 -0.08302817549 0.83100003 1.095828291e-38
-0.4349265961 -0.02064151549 0.85400003 1.141855761e-38
-0.4348161231 -0.02342246549 0.85200006 1.151185326e-38
-0.4345951691 -0.02734626549 0.84800005 1.151116242e-38
-0.4345951691 -0.02896149549 0.84800005 1.160225943e-38
-0.4344294561 -0.03229100549 0.84500003 1.141856882e-38
-0.4344294561 -0.03390054549 0.84500003 1.132673332e-38
-0.4344294561 -0.03551007549 0.84500003 1.114234627e-38
-0.4344294561 -0.03711957549 0.84500003 1.086647544e-38
-0.4342085021 -0.04098437549 0.84100002 1.049769432e-38
-0.4342085021 -0.04258627549 0.84100002 1.003777555e-38
-0.4340980291 -0.04530815549 0.83900005 9.669693684e-39
-0.4340980291 -0.04690624549 0.83900005 9.211582592e-39
-0.4340980291 -0.04850436549 0.83900005 8.565138387e-39
-0.4340980291 -0.05010242549 0.83900005 7.919041704e-39
-0.4339875511 -0.05280531549 0.83700001 7.181469658e-39
-0.4339875511 -0.05439959549 0.83700001 6.444289976e-39
-0.4339875511 -0.05599389549 0.83700001 5.521647042e-39
-0.4339875511 -0.05758817549 0.83700001 4.690808774e-39
-0.4339875511 -0.05918244549 0.83700001 3.77100487e-39
-0.4340980291 -0.05969099549 0.83900005 2.942328806e-39
-0.4342085021 -0.06020720549 0.84100002 2.666818114e-39
-0.4342085021 -0.06180913549 0.84100002 2.483865988e-39
-0.4342085021 -0.06341103549 0.84100002 2.482792593e-39
-0.4344294561 -0.06287197549 0.84500003 2.574630892e-39
-0.4344294561 -0.06448150549 0.84500003 2.4827996e-39
-0.4344294561 -0.06609101549 0.84500003 2.391328441e-39
-0.4344294561 -0.06770054549 0.84500003 2.758317298e-39
-0.4344294561 -0.06931008549 0.84500003 3.127441735e-39
-0.4342085021 -0.07302243549 0.84100002 3.032367838e-39
-0.4340980291 -0.07567198549 0.83900005 3.031316864e-39
-0.4340980291 -0.07727004549 0.83900005 7.097216588e-39
-0.4336561231 -0.08302817549 0.83100003 1.105013242e-38
-0.4334066001 -0.01948336549 0.85600007 1.151003717e-38
-0.4332999301 -0.02226812549 0.85400003 1.169372218e-38
-0.4331932641 -0.02504528549 0.85200006 1.169373759e-38
-0.4330865971 -0.02781484549 0.85000002 1.169442563e-38
-0.4329799311 -0.03057674549 0.84800005 1.151144268e-38
-0.4328199301 -0.03390054549 0.84500003 1.14185464e-38
-0.4328199301 -0.03551007549 0.84500003 1.123381322e-38
-0.4328199301 -0.03711957549 0.84500003 1.114090433e-38
-0.4326065971 -0.04098437549 0.84100002 1.068101079e-38
-0.4327132671 -0.04146243549 0.84300005 1.022145215e-38
-0.4326065971 -0.04418815549 0.84100002 9.944845644e-39
-0.4326065971 -0.04579005549 0.84100002 9.667544092e-39
-0.4324999311 -0.04850436549 0.83900005 9.115096186e-39
-0.4324999311 -0.05010242549 0.83900005 8.561918203e-39
-0.4324999311 -0.05170054549 0.83900005 7.91762359e-39
-0.4326065971 -0.05219767549 0.84100002 7.363026091e-39
-0.4326065971 -0.05379958549 0.84100002 6.349969978e-39
-0.4327132671 -0.05430815549 0.84300005 5.335099183e-39
-0.4327132671 -0.05591384549 0.84300005 4.231622886e-39
-0.4328199301 -0.05643386549 0.84500003 3.218555562e-39
-0.4328199301 -0.05804340549 0.84500003 2.75865361e-39
-0.4327132671 -0.06073100549 0.84300005 2.391318632e-39
-0.4328199301 -0.06126244549 0.84500003 2.483162536e-39
-0.4329799311 -0.06126625549 0.84800005 2.574637898e-39
-0.4330865971 -0.06181485549 0.85000002 2.482440867e-39
-0.4329799311 -0.06449673549 0.84800005 2.39097111e-39
-0.4330865971 -0.06505293549 0.85000002 2.758320101e-39
-0.4331932641 -0.06561673549 0.85200006 3.124577481e-39
-0.4329799311 -0.06934241549 0.84800005 3.215328372e-39
-0.4329799311 -0.07095767549 0.84800005 3.308998168e-39
-0.4324999311 -0.07727004549 0.83900005 7.279847817e-39
-0.4317761221 -0.01622239549 0.85600007 1.077605385e-38
-0.4317761221 -0.01785291549 0.85600007 1.123559988e-38
-0.4317761221 -0.01948336549 0.85600007 1.151075744e-38
-0.4317761221 -0.02111388549 0.85600007 1.17859094e-38
-0.4316732631 -0.02389479549 0.85400003 1.169515431e-38
-0.4315704081 -0.02666814549 0.85200006 1.169977859e-38
-0.4315704081 -0.02829099549 0.85200006 1.142172314e-38
-0.4313646971 -0.03219194549 0.84800005 1.123843891e-38
-0.4312104071 -0.03551007549 0.84500003 1.114555664e-38
-0.4312104071 -0.03711957549 0.84500003 1.114448885e-38
-0.4311075521 -0.03985671549 0.84300005 1.077392808e-38
-0.4311075521 -0.04146243549 0.84300005 1.040656228e-38
-0.4310046931 -0.04418815549 0.84100002 1.003740421e-38
-0.4311075521 -0.04467384549 0.84300005 9.755806277e-39
-0.4311075521 -0.04627956549 0.84300005 9.296635803e-39
-0.4311075521 -0.04788528549 0.84300005 8.929288213e-39
-0.4311075521 -0.04949100549 0.84300005 7.91729989e-39
-0.4311075521 -0.05109671549 0.84300005 6.904231165e-39
-0.4312104071 -0.05160529549 0.84500003 6.0744747e-39
-0.4312104071 -0.05321483549 0.84500003 5.245065757e-39
-0.4312104071 -0.05482433549 0.84500003 4.231628491e-39
-0.4312104071 -0.05643386549 0.84500003 3.311470058e-39
-0.4312104071 -0.05804340549 0.84500003 2.57677628e-39
-0.4312104071 -0.05965293549 0.84500003 1.842106324e-39
-0.4313646971 -0.05965099549 0.84800005 2.208027392e-39
-0.4313646971 -0.06126625549 0.84800005 2.575002236e-39
-0.4315704081 -0.06074814549 0.85200006 2.574636497e-39
-0.4314675491 -0.06343386549 0.85000002 2.574643504e-39
-0.4316732631 -0.06293482549 0.85400003 2.574651911e-39
-0.4317761221 -0.06350625549 0.85600007 2.663610542e-39
-0.4317761221 -0.06513674549 0.85600007 3.858183851e-39
-0.4313646971 -0.07095767549 0.84800005 5.148240237e-39
-0.4301456481 -0.01622239549 0.85600007 1.050126623e-38
-0.4301456481 -0.01785291549 0.85600007 1.123596001e-38
-0.4301456481 -0.01948336549 0.85600007 1.151183504e-38
-0.4300465971 -0.02226812549 0.85400003 1.187954136e-38
-0.4300465971 -0.02389479549 0.85400003 1.178842894e-38
-0.4299475521 -0.02666814549 0.85200006 1.169693396e-38
-0.4299475521 -0.02829099549 0.85200006 1.132993249e-38
-0.4299475521 -0.02991385549 0.85200006 1.105444421e-38
-0.4297494561 -0.03380720549 0.84800005 1.114665666e-38
-0.4297494561 -0.03542242549 0.84800005 1.123561949e-38
-0.4296008841 -0.03872911549 0.84500003 1.086683978e-38
-0.4296008841 -0.04033864549 0.84500003 1.058988014e-38
-0.4295018361 -0.04306815549 0.84300005 1.022216261e-38
-0.4295018361 -0.04467384549 0.84300005 9.853382893e-39
-0.4295018361 -0.04627956549 0.84300005 9.576440074e-39
-0.4295018361 -0.04788528549 0.84300005 9.388460089e-39
-0.4296008841 -0.04838625549 0.84500003 7.917295686e-39
-0.4296008841 -0.04999579549 0.84500003 6.536873766e-39
-0.4296008841 -0.05160529549 0.84500003 5.799301721e-39
-0.4297494561 -0.05157483549 0.84800005 5.151784121e-39
-0.4297494561 -0.05319006549 0.84800005 4.32346679e-39
-0.4297494561 -0.05480532549 0.84800005 3.495861318e-39
-0.4297494561 -0.05642051549 0.84800005 2.395260485e-39
-0.4297494561 -0.05803577549 0.84800005 1.381489709e-39
-0.4298485041 -0.05857671549 0.85000002 2.02470252e-39
-0.4298485041 -0.06019578549 0.85000002 2.666832127e-39
-0.4300465971 -0.05968148549 0.85400003 2.666829324e-39
-0.4301456481 -0.06024528549 0.85600007 2.758314496e-39
-0.4302446931 -0.06081671549 0.85800004 2.482816415e-39
-0.4303437411 -0.06139580549 0.86000001 2.296264353e-39
-0.4303437411 -0.06303389549 0.86000001 4.592859413e-39
-0.4285151711 -0.01622239549 0.85600007 1.096152131e-38
-0.4285151711 -0.01785291549 0.85600007 1.14217848e-38
-0.4285151711 -0.01948336549 0.85600007 1.188025602e-38
-0.4284199301 -0.02226812549 0.85400003 1.233872165e-38
-0.4284199301 -0.02389479549 0.85400003 1.206322216e-38
-0.4283246931 -0.02666814549 0.85200006 1.187955397e-38
-0.4283246931 -0.02829099549 0.85200006 1.151221479e-38
-0.4283246931 -0.02991385549 0.85200006 1.114487981e-38
-0.4281342191 -0.03380720549 0.84800005 1.141931851e-38
-0.4281342191 -0.03542242549 0.84800005 1.160225663e-38
-0.4279913581 -0.03872911549 0.84500003 1.1142705e-38
-0.4279913581 -0.04033864549 0.84500003 1.068136251e-38
-0.4278961211 -0.04306815549 0.84300005 1.012997959e-38
-0.4278961211 -0.04467384549 0.84300005 9.578955405e-39
-0.4279913581 -0.04516721549 0.84500003 9.206221224e-39
-0.4279913581 -0.04677675549 0.84500003 8.929635735e-39
-0.4281342191 -0.04672909549 0.84800005 7.824021056e-39
-0.4281342191 -0.04834432549 0.84800005 6.720889478e-39
-0.4281342191 -0.04995958549 0.84800005 5.892548324e-39
-0.4281342191 -0.05157483549 0.84800005 5.058862619e-39
-0.4282294561 -0.05210055549 0.85000002 4.138722403e-39
-0.4281342191 -0.05480532549 0.84800005 3.311116931e-39
-0.4281342191 -0.05642051549 0.84800005 2.391677364e-39
-0.4281342191 -0.05803577549 0.84800005 1.5640803e-39
-0.4282294561 -0.05857671549 0.85000002 1.931779616e-39
-0.4284199301 -0.05805481549 0.85400003 2.391318632e-39
-0.4286104081 -0.05754817549 0.85800004 2.574276363e-39
-0.4286104081 -0.05918244549 0.85800004 2.757597031e-39
-0.4287056451 -0.05975769549 0.86000001 2.389187257e-39
-0.4287056451 -0.06139580549 0.86000001 2.020755062e-39
-0.4288008861 -0.06198243549 0.86200005 5.242158063e-39
-0.4288008861 -0.06362433549 0.86200005 8.48087831e-39
-0.4268846971 -0.01622239549 0.85600007 1.142034707e-38
-0.4268846971 -0.01785291549 0.85600007 1.169657382e-38
-0.4268846971 -0.01948336549 0.85600007 1.2249742e-38
-0.4267932631 -0.02226812549 0.85400003 1.279718446e-38
-0.4267932631 -0.02389479549 0.85400003 1.243021803e-38
-0.4267018371 -0.02666814549 0.85200006 1.206322917e-38
-0.4267018371 -0.02829099549 0.85200006 1.169444525e-38
-0.4267018371 -0.02991385549 0.85200006 1.132675014e-38
-0.4266104111 -0.03267197549 0.85000002 1.1693739e-38
-0.4265189811 -0.03542242549 0.84800005 1.206106977e-38
-0.4265189811 -0.03703768549 0.84800005 1.141856882e-38
-0.4263818351 -0.04033864549 0.84500003 1.086611391e-38
-0.4263818351 -0.04194815549 0.84500003 1.012962927e-38
-0.4263818351 -0.04355768549 0.84500003 9.393140426e-39
-0.4263818351 -0.04516721549 0.84500003 8.927851882e-39
-0.4263818351 -0.04677675549 0.84500003 8.467233867e-39
-0.4265189811 -0.04672909549 0.84800005 7.639273867e-39
-0.4265189811 -0.04834432549 0.84800005 6.90456047e-39
-0.4265189811 -0.04995958549 0.84800005 5.98581875e-39
-0.4266104111 -0.05048148549 0.85000002 5.061013612e-39
-0.4266104111 -0.05210055549 0.85000002 4.045091843e-39
-0.4266104111 -0.05371962549 0.85000002 3.126373945e-39
-0.4266104111 -0.05533863549 0.85000002 2.391325638e-39
-0.4266104111 -0.05695770549 0.85000002 1.747758299e-39
-0.4267018371 -0.05750243549 0.85200006 1.930710425e-39
-0.4268846971 -0.05698431549 0.85600007 2.205863787e-39
-0.4269761231 -0.05754817549 0.85800004 2.481018549e-39
-0.4270675491 -0.05811960549 0.86000001 2.757601235e-39
-0.4271589821 -0.05869863549 0.86200005 2.296628691e-39
-0.4271589821 -0.06034053549 0.86200005 1.83709528e-39
-0.4271589821 -0.06198243549 0.86200005 5.891493147e-39
-0.4271589821 -0.06362433549 0.86200005 9.956716043e-39
-0.4253418381 -0.01342244549 0.85800004 1.132744238e-38
-0.4252542191 -0.01622239549 0.85600007 1.151147351e-38
-0.4252542191 -0.01785291549 0.85600007 1.169585636e-38
-0.4252542191 -0.01948336549 0.85600007 1.20639116e-38
-0.4251665971 -0.02226812549 0.85400003 1.242948655e-38
-0.4251665971 -0.02389479549 0.85400003 1.215436682e-38
-0.4250789781 -0.02666814549 0.85200006 1.187956238e-38
-0.4250789781 -0.02829099549 0.85200006 1.160224682e-38
-0.4250789781 -0.02991385549 0.85200006 1.123419017e-38
-0.4249913631 -0.03267197549 0.85000002 1.132602847e-38
-0.4249037441 -0.03542242549 0.84800005 1.141785696e-38
-0.4249037441 -0.03703768549 0.84800005 1.086719711e-38
-0.4249037441 -0.03865290549 0.84800005 1.040837556e-38
-0.4247723161 -0.04194815549 0.84500003 9.855208785e-39
-0.4247723161 -0.04355768549 0.84500003 9.391355172e-39
-0.4247723161 -0.04516721549 0.84500003 8.84140578e-39
-0.4249037441 -0.04511384549 0.84800005 8.291817924e-39
-0.4249037441 -0.04672909549 0.84800005 7.457037804e-39
-0.4249913631 -0.04724339549 0.85000002 6.629053982e-39
-0.4249037441 -0.04995958549 0.84800005 5.7085186e-39
-0.4249913631 -0.05048148549 0.85000002 4.78801825e-39
-0.4249913631 -0.05210055549 0.85000002 3.862855781e-39
-0.4250789781 -0.05263386549 0.85200006 3.034182519e-39
-0.4250789781 -0.05425671549 0.85200006 2.392051511e-39
-0.4249913631 -0.05695770549 0.85000002 1.7499177e-39
-0.4252542191 -0.05535386549 0.85600007 2.115823354e-39
-0.4254294571 -0.05484340549 0.86000001 2.390263454e-39
-0.4254294571 -0.05648149549 0.86000001 2.849450744e-39
-0.4254294571 -0.05811960549 0.86000001 3.21678292e-39
-0.4255170721 -0.05869863549 0.86200005 3.214620716e-39
-0.4255170721 -0.06034053549 0.86200005 3.123163571e-39
-0.4255170721 -0.06198243549 0.86200005 6.821356972e-39
-0.4255170721 -0.06362433549 0.86200005 1.060603431e-38
-0.4237075531 -0.01342244549 0.85800004 1.150932672e-38
-0.4236237421 -0.01622239549 0.85600007 1.160152094e-38
-0.4236237421 -0.01785291549 0.85600007 1.169550463e-38
-0.4236237421 -0.01948336549 0.85600007 1.188132381e-38
-0.4235399301 -0.02226812549 0.85400003 1.206285642e-38
-0.4235399301 -0.02389479549 0.85400003 1.187884071e-38
-0.4234561221 -0.02666814549 0.85200006 1.178627374e-38
-0.4234561221 -0.02829099549 0.85200006 1.151039591e-38
-0.4234561221 -0.02991385549 0.85200006 1.123489362e-38
-0.4233723141 -0.03267197549 0.85000002 1.095939134e-38
-0.4232885061 -0.03542242549 0.84800005 1.077535741e-38
-0.4232885061 -0.03703768549 0.84800005 1.031509813e-38
-0.4232885061 -0.03865290549 0.84800005 9.94775474e-39
-0.4231627891 -0.04194815549 0.84500003 9.672605582e-39
-0.4231627891 -0.04355768549 0.84500003 9.39493689e-39
-0.4232885061 -0.04349861549 0.84800005 8.750284946e-39
-0.4232885061 -0.04511384549 0.84800005 8.104919741e-39
-0.4233723141 -0.04562435549 0.85000002 7.183329181e-39
-0.4233723141 -0.04724339549 0.85000002 6.349969978e-39
-0.4233723141 -0.04886246549 0.85000002 5.427645138e-39
-0.4233723141 -0.05048148549 0.85000002 4.600053679e-39
-0.4234561221 -0.05101100549 0.85200006 3.772463622e-39
-0.4234561221 -0.05263386549 0.85200006 2.942000902e-39
-0.4235399301 -0.05317483549 0.85400003 2.392785791e-39
-0.4234561221 -0.05587957549 0.85200006 1.841763005e-39
-0.4237913571 -0.05320532549 0.86000001 2.20909378e-39
-0.4237913571 -0.05484340549 0.86000001 2.667563605e-39
-0.4238751691 -0.05541480549 0.86200005 3.217868926e-39
-0.4238751691 -0.05705670549 0.86200005 3.76708684e-39
-0.4238751691 -0.05869863549 0.86200005 4.132993895e-39
-0.4238751691 -0.06034053549 0.86200005 4.510408413e-39
-0.4238751691 -0.06198243549 0.86200005 7.843060498e-39
-0.4238751691 -0.06362433549 0.86200005 1.123957676e-38
-0.4219932681 -0.01622239549 0.85600007 1.160224401e-38
-0.4219932681 -0.01785291549 0.85600007 1.169551024e-38
-0.4219932681 -0.01948336549 0.85600007 1.178770166e-38
-0.4219932681 -0.02111388549 0.85600007 1.197173139e-38
-0.4219132631 -0.02389479549 0.85400003 1.178662687e-38
-0.4219132631 -0.02552146549 0.85400003 1.16022272e-38
-0.4218332661 -0.02829099549 0.85200006 1.14185464e-38
-0.4218332661 -0.02991385549 0.85200006 1.114304551e-38
-0.4216732651 -0.03380720549 0.84800005 1.086754463e-38
-0.4216732651 -0.03542242549 0.84800005 1.059203394e-38
-0.4216732651 -0.03703768549 0.84800005 1.022397169e-38
-0.4216732651 -0.03865290549 0.84800005 9.764434072e-39
-0.4216732651 -0.04026816549 0.84800005 9.305613922e-39
-0.4215532661 -0.04355768549 0.84500003 8.846788168e-39
-0.4216732651 -0.04349861549 0.84800005 8.287160008e-39
-0.4217532661 -0.04400531549 0.85000002 7.643232535e-39
-0.4217532661 -0.04562435549 0.85000002 6.719135052e-39
-0.4218332661 -0.04614244549 0.85200006 5.70354399e-39
-0.4217532661 -0.04886246549 0.85000002 4.967406874e-39
-0.4217532661 -0.05048148549 0.85000002 4.323483605e-39
-0.4219132631 -0.04992149549 0.85400003 3.495530611e-39
-0.4219132631 -0.05154816549 0.85400003 2.758343923e-39
-0.4219932681 -0.05209289549 0.85600007 2.392086544e-39
-0.4221532611 -0.05156720549 0.86000001 2.117636634e-39
-0.4221532611 -0.05320532549 0.86000001 2.392407441e-39
-0.4222332661 -0.05377290549 0.86200005 2.761192763e-39
-0.4222332661 -0.05541480549 0.86200005 2.850526941e-39
-0.4222332661 -0.05705670549 0.86200005 2.939859718e-39
-0.4223532651 -0.05711005549 0.86500007 5.148584957e-39
-0.4223532651 -0.05875764549 0.86500007 7.459215422e-39
-0.4222332661 -0.06198243549 0.86200005 9.402503902e-39
-0.4203627901 -0.01785291549 0.85600007 1.17880688e-38
-0.4203627901 -0.01948336549 0.85600007 1.178772829e-38
-0.4203627901 -0.02111388549 0.85600007 1.187919524e-38
-0.4202865971 -0.02389479549 0.85400003 1.169443824e-38
-0.4202865971 -0.02552146549 0.85400003 1.151075464e-38
-0.4202104071 -0.02829099549 0.85200006 1.132707104e-38
-0.4202104071 -0.02991385549 0.85200006 1.114232945e-38
-0.4201342171 -0.03267197549 0.85000002 1.077427561e-38
-0.4201342171 -0.03429101549 0.85000002 1.049948098e-38
-0.4201342171 -0.03591008549 0.85000002 1.004101536e-38
-0.4201342171 -0.03752912549 0.85000002 9.672242646e-39
-0.4201342171 -0.03914816549 0.85000002 9.019352468e-39
-0.4201342171 -0.04076723549 0.85000002 8.375776721e-39
-0.4201342171 -0.04238624549 0.85000002 7.824035069e-39
-0.4202104071 -0.04289670549 0.85200006 7.273376621e-39
-0.4202865971 -0.04341484549 0.85400003 6.16345435e-39
-0.4202865971 -0.04504148549 0.85400003 5.151457618e-39
-0.4202865971 -0.04666815549 0.85400003 4.599354431e-39
-0.4202865971 -0.04829482549 0.85400003 4.047975715e-39
-0.4202865971 -0.04992149549 0.85400003 3.310773613e-39
-0.4203627901 -0.05046243549 0.85600007 2.574654714e-39
-0.4204389761 -0.05101100549 0.85800004 2.482101753e-39
-0.4205151691 -0.05156720549 0.86000001 2.391341053e-39
-0.4207056471 -0.05051956549 0.86500007 2.576086841e-39
-0.4207056471 -0.05216718549 0.86500007 2.850894082e-39
-0.4207056471 -0.05381481549 0.86500007 2.483212983e-39
-0.4207056471 -0.05546243549 0.86500007 2.205896017e-39
-0.4207056471 -0.05711005549 0.86500007 6.256326807e-39
-0.4207056471 -0.05875764549 0.86500007 1.040260781e-38
-0.4189494541 -0.007799575485 0.86200005 1.13260593e-38
-0.4189494541 -0.009441505485 0.86200005 1.1508989e-38
-0.4189494541 -0.01108343549 0.86200005 1.170088842e-38
-0.4188770741 -0.01389105549 0.86000001 1.188166713e-38
-0.4187323141 -0.01785291549 0.85600007 1.215721146e-38
-0.4188046931 -0.01832531549 0.85800004 1.197214337e-38
-0.4187323141 -0.02111388549 0.85600007 1.178701643e-38
-0.4187323141 -0.02274433549 0.85600007 1.160332582e-38
-0.4186599301 -0.02552146549 0.85400003 1.132816405e-38
-0.4186599301 -0.02714816549 0.85400003 1.114340285e-38
-0.4185875531 -0.02991385549 0.85200006 1.09579438e-38
-0.4185875531 -0.03153674549 0.85200006 1.059024868e-38
-0.4185151671 -0.03429101549 0.85000002 1.022146336e-38
-0.4185151671 -0.03591008549 0.85000002 9.856625498e-39
-0.4185151671 -0.03752912549 0.85000002 9.488574456e-39
-0.4185151671 -0.03914816549 0.85000002 8.836048616e-39
-0.4185151671 -0.04076723549 0.85000002 8.189597405e-39
-0.4185875531 -0.04127387549 0.85200006 7.638211682e-39
-0.4185875531 -0.04289670549 0.85200006 7.0871931e-39
-0.4186599301 -0.04341484549 0.85400003 6.073768446e-39
-0.4186599301 -0.04504148549 0.85400003 5.058547326e-39
-0.4186599301 -0.04666815549 0.85400003 4.415691847e-39
-0.4186599301 -0.04829482549 0.85400003 3.772467826e-39
-0.4187323141 -0.04883195549 0.85600007 3.127810276e-39
-0.4187323141 -0.05046243549 0.85600007 2.483159733e-39
-0.4187323141 -0.05209289549 0.85600007 2.390239632e-39
-0.4187323141 -0.05372337549 0.85600007 2.390255046e-39
-0.4190580291 -0.05051956549 0.86500007 2.757255114e-39
-0.4190580291 -0.05216718549 0.86500007 3.216460621e-39
-0.4190580291 -0.05381481549 0.86500007 3.308325544e-39
-0.4190580291 -0.05546243549 0.86500007 3.400477734e-39
-0.4190580291 -0.05711005549 0.86500007 7.001391595e-39
-0.4172389801 -0.007338655485 0.86000001 1.105197793e-38
-0.4173075511 -0.007799575485 0.86200005 1.141751784e-38
-0.4173075511 -0.009441505485 0.86200005 1.16008231e-38
