# .PCD v0.7 - Point Cloud Data file format
VERSION 0.7
FIELDS x y z rgb
SIZE 4 4 4 4
TYPE F F F F
COUNT 1 1 1 1
WIDTH 873
HEIGHT 1
VIEWPOINT 0 0 0 1 0 0 0
POINTS 873
DATA ascii
0.2979203656 -0.03232 0.8943910864 1.334382259e-38
0.2979203656 -0.03232 0.8928520364 1.352820824e-38
0.2999203956 -0.032400005 0.8905510564 1.380407206e-38
0.3019203756 -0.032480001 0.8882425064 1.417214552e-38
0.3039203456 -0.032559998 0.8859263064 1.389773065e-38
0.3039203456 -0.032559998 0.8843758364 1.371548758e-38
0.3039203456 -0.032559998 0.8828253764 1.361970042e-38
0.3049203956 -0.032600004 0.8808844064 1.352787894e-38
0.3049203956 -0.032600004 0.8793320064 1.361937112e-38
0.3049203956 -0.032600004 0.8777796264 1.370975206e-38
0.3049203956 -0.032600004 0.8762272564 1.31590782e-38
0.3049203956 -0.032600004 0.8746748864 1.260950155e-38
0.3399203556 -0.034000002 0.8591225164 1.270062099e-38
0.3379203856 -0.033920001 0.8583072664 1.279354529e-38
0.3379203856 -0.033920001 0.8566920164 1.141494926e-38
0.3209203656 -0.031657144 0.9632767864 1.170229252e-38
0.3189203956 -0.031580955 0.9622653664 1.077317839e-38
0.3169203556 -0.031504765 0.9612615564 9.850863359e-39
0.3149203856 -0.031428572 0.9602653564 9.566015815e-39
0.3129203456 -0.031352382 0.9592768064 9.383405605e-39
0.3129203456 -0.031352382 0.9577091764 9.292273561e-39
0.3129203456 -0.031352382 0.9561415564 9.291909223e-39
0.3109203756 -0.031276189 0.9551682264 9.195764735e-39
0.3109203756 -0.031276189 0.9536044164 9.103569105e-39
0.3109203756 -0.031276189 0.9520406064 9.103566302e-39
0.3109203756 -0.031276189 0.9504768064 9.198628989e-39
0.3109203756 -0.031276189 0.9489130064 9.106792091e-39
0.3109203756 -0.031276189 0.9473491864 9.016768474e-39
0.3089204056 -0.031200001 0.9464024864 9.200457683e-39
0.3089204056 -0.031200001 0.9448425164 9.474871159e-39
0.3089204056 -0.031200001 0.9432825164 9.56704717e-39
0.3089204056 -0.031200001 0.9417225064 9.658539348e-39
0.2809203456 -0.030133333 0.9490158564 9.75039166e-39
0.2809203456 -0.030133333 0.9475091964 9.84006215e-39
0.2809203456 -0.030133333 0.9460025064 9.562749388e-39
0.2809203456 -0.030133333 0.9444958564 9.289400899e-39
0.2789203656 -0.030057143 0.9436368064 9.842930608e-39
0.2789203656 -0.030057143 0.9421339364 1.039429671e-38
0.2789203656 -0.030057143 0.9406310864 1.039500997e-38
0.2789203656 -0.030057143 0.9391282164 1.048648674e-38
0.2789203656 -0.030057143 0.9376253464 9.557729937e-39
0.2789203656 -0.030057143 0.9361225064 8.732286669e-39
0.2789203656 -0.030057143 0.9346196364 8.274545519e-39
0.3209203656 -0.031657144 0.9189567864 7.906841999e-39
0.3229203956 -0.031733338 0.9166958264 7.631331307e-39
0.3229203956 -0.031733338 0.9151091564 7.444787653e-39
0.3229203956 -0.031733338 0.9135224764 7.076006535e-39
0.3209203656 -0.031657144 0.9126253664 6.800498645e-39
0.3169203556 -0.031504765 0.9124291864 6.341318361e-39
0.3129203456 -0.031352382 0.9122482264 5.974696644e-39
0.3109203756 -0.031276189 0.9113815364 6.526429889e-39
0.3069203656 -0.03112381 0.9112272864 7.170716094e-39
0.3049203956 -0.031047622 0.9103796464 7.540572008e-39
0.3039203456 -0.031009525 0.9091834664 8.002620749e-39
0.3039203456 -0.031009525 0.9076330064 8.2809999e-39
0.3019203756 -0.030933335 0.9068025064 8.649071961e-39
0.2999203956 -0.030857144 0.9059796364 9.935857716e-39
0.2999203956 -0.030857144 0.9044367964 1.131446075e-38
0.2979203656 -0.030780952 0.9036253664 1.149920233e-38
0.2979203656 -0.030780952 0.9020863164 1.177507316e-38
0.2959203856 -0.030704763 0.9012863064 1.205094539e-38
0.2979203656 -0.030780952 0.8990082164 1.242115863e-38
0.2959203856 -0.030704763 0.8982158264 1.251586539e-38
0.2979203656 -0.030780952 0.8959301064 1.269953778e-38
0.2979203656 -0.030780952 0.8943910864 1.2975403e-38
0.2979203656 -0.030780952 0.8928520364 1.325126963e-38
0.3019203756 -0.030933335 0.8897891664 1.343530075e-38
0.3019203756 -0.030933335 0.8882425064 1.371224918e-38
0.3039203456 -0.031009525 0.8859263064 1.362185562e-38
0.3039203456 -0.031009525 0.8843758364 1.362005495e-38
0.3039203456 -0.031009525 0.8828253764 1.352642019e-38
0.3039203456 -0.031009525 0.8812749064 1.34345931e-38
0.3049203956 -0.031047622 0.8793320064 1.371046673e-38
0.3049203956 -0.031047622 0.8777796264 1.398524174e-38
0.3049203956 -0.031047622 0.8762272564 1.325054516e-38
0.3379203856 -0.032304764 0.8615377564 1.251729752e-38
0.3379203856 -0.032304764 0.8599224964 1.251658285e-38
0.3379203856 -0.032304764 0.8583072664 1.260950856e-38
0.3379203856 -0.032304764 0.8566920164 1.251732694e-38
0.3379203856 -0.032304764 0.8550767864 1.251841015e-38
0.3209203656 -0.030074287 0.9632767864 1.418328865e-38
0.3189203956 -0.030001907 0.9622653664 1.160112998e-38
0.3149203856 -0.029857146 0.9618367964 9.024699823e-39
0.3149203856 -0.029857146 0.9602653564 9.106835531e-39
0.3129203456 -0.029784761 0.9592768064 9.292637899e-39
0.3129203456 -0.029784761 0.9577091764 9.108228422e-39
0.3129203456 -0.029784761 0.9561415564 8.924200099e-39
0.3109203756 -0.029712383 0.9551682264 9.015320933e-39
0.3109203756 -0.029712383 0.9536044164 9.10643476e-39
0.3109203756 -0.029712383 0.9520406064 9.014596461e-39
0.3109203756 -0.029712383 0.9504768064 9.014955194e-39
0.3109203756 -0.029712383 0.9489130064 9.10679069e-39
0.3109203756 -0.029712383 0.9473491864 9.108950091e-39
0.3089204056 -0.029640002 0.9464024864 9.383746121e-39
0.3089204056 -0.029640002 0.9448425164 9.566699648e-39
0.3089204056 -0.029640002 0.9432825164 9.934041633e-39
0.3089204056 -0.029640002 0.9417225064 1.030139763e-38
0.3089204056 -0.029640002 0.9401625064 1.020993628e-38
0.3089204056 -0.029640002 0.9386025064 1.021170892e-38
0.3109203756 -0.029712383 0.9364024964 1.002873578e-38
0.3109203756 -0.029712383 0.9348386764 9.845787856e-39
0.3129203456 -0.029784761 0.9326272864 1.021241798e-38
0.3129203456 -0.029784761 0.9310596564 1.057939703e-38
0.3109203756 -0.029712383 0.9301472564 1.04872e-38
0.3129203456 -0.029784761 0.9279244264 1.039141845e-38
0.3189203956 -0.030001907 0.9243682264 9.65565968e-39
0.3189203956 -0.030001907 0.9227891564 9.012092341e-39
0.3209203656 -0.030074287 0.9205396464 8.45892697e-39
0.3229203956 -0.03014667 0.9182825064 7.999392158e-39
0.3229203956 -0.03014667 0.9166958264 7.723169606e-39
0.3249203756 -0.030219048 0.9144272464 7.537700747e-39
0.3229203956 -0.03014667 0.9135224764 7.260756527e-39
0.3229203956 -0.03014667 0.9119358364 7.076725401e-39
0.3189203956 -0.030001907 0.9117358264 6.801218912e-39
0.3129203456 -0.029784761 0.9122482264 6.528223551e-39
0.3109203756 -0.029712383 0.9113815364 6.801577645e-39
0.3089204056 -0.029640002 0.9105224864 7.170357361e-39
0.3049203956 -0.029495239 0.9103796464 7.539495811e-39
0.3049203956 -0.029495239 0.9088272464 7.909710457e-39
0.3039203456 -0.029459048 0.9076330064 8.369968339e-39
0.3039203456 -0.029459048 0.9060825064 8.830243037e-39
0.3019203756 -0.029386668 0.9052558264 9.750772813e-39
0.2999203956 -0.029314287 0.9044367964 1.067197942e-38
0.2999203956 -0.029314287 0.9028938964 1.103966332e-38
0.2979203656 -0.029241905 0.9020863164 1.140772837e-38
0.2979203656 -0.029241905 0.9005472964 1.17754347e-38
0.2979203656 -0.029241905 0.8990082164 1.214314102e-38
0.2979203656 -0.029241905 0.8974691564 1.223749325e-38
0.2979203656 -0.029241905 0.8959301064 1.233147974e-38
0.2999203956 -0.029314287 0.8936367864 1.251443186e-38
0.3019203756 -0.029386668 0.8913358464 1.278958382e-38
0.3019203756 -0.029386668 0.8897891664 1.297541141e-38
0.3039203456 -0.029459048 0.8874767964 1.325235143e-38
0.3039203456 -0.029459048 0.8859263064 1.3159081e-38
0.3049203956 -0.029495239 0.8839891864 1.31579992e-38
0.3039203456 -0.029459048 0.8828253764 1.315871106e-38
0.3039203456 -0.029459048 0.8812749064 1.325162416e-38
0.3049203956 -0.029495239 0.8793320064 1.325090809e-38
0.3049203956 -0.029495239 0.8777796264 1.325054235e-38
0.3049203956 -0.029495239 0.8762272564 1.288391083e-38
0.3349203656 -0.030580953 0.8627320164 1.251728911e-38
0.3379203856 -0.030689526 0.8599224964 1.270096431e-38
0.3379203856 -0.030689526 0.8583072664 1.297684354e-38
0.3379203856 -0.030689526 0.8566920164 1.279282783e-38
0.3379203856 -0.030689526 0.8550767864 1.25191164e-38
0.3399203556 -0.030761903 0.8526463164 1.215213455e-38
0.3399203556 -0.030761903 0.8510272764 1.178519894e-38
0.3189203956 -0.028422859 0.9622653664 1.242906616e-38
0.3149203856 -0.028285714 0.9618367964 8.19708174e-39
0.3149203856 -0.028285714 0.9602653564 8.647631426e-39
0.3129203456 -0.028217142 0.9592768064 9.198991925e-39
0.3129203456 -0.028217142 0.9577091764 8.924193092e-39
0.3129203456 -0.028217142 0.9561415564 8.648330674e-39
0.3109203756 -0.028148573 0.9551682264 8.832004469e-39
0.3109203756 -0.028148573 0.9536044164 9.106076028e-39
0.3109203756 -0.028148573 0.9520406064 9.013881799e-39
0.3109203756 -0.028148573 0.9504768064 8.9231225e-39
0.3109203756 -0.028148573 0.9489130064 9.106794894e-39
0.3109203756 -0.028148573 0.9473491864 9.290105752e-39
0.3109203756 -0.028148573 0.9457853764 9.473776745e-39
0.3109203756 -0.028148573 0.9442215564 9.749287437e-39
0.3109203756 -0.028148573 0.9426577364 1.039249745e-38
0.3109203756 -0.028148573 0.9410939164 1.103607599e-38
0.3109203756 -0.028148573 0.9395301364 1.076165691e-38
0.3109203756 -0.028148573 0.9379663164 1.057904811e-38
0.3109203756 -0.028148573 0.9364024964 1.048827339e-38
0.3109203756 -0.028148573 0.9348386764 1.0488279e-38
0.3129203456 -0.028217142 0.9326272864 1.067231433e-38
0.3129203456 -0.028217142 0.9310596564 1.085491333e-38
0.3109203756 -0.028148573 0.9301472564 1.057941104e-38
0.3129203456 -0.028217142 0.9279244264 1.039286038e-38
0.3149203856 -0.028285714 0.9256939264 9.841121532e-39
0.3189203956 -0.028422859 0.9227891564 9.287594625e-39
0.3209203656 -0.028491428 0.9205396464 8.643668554e-39
0.3229203956 -0.028560003 0.9182825064 8.09157938e-39
0.3229203956 -0.028560003 0.9166958264 7.90683219e-39
0.3249203756 -0.028628573 0.9144272464 7.721007402e-39
0.3229203956 -0.028560003 0.9135224764 7.536976276e-39
0.3229203956 -0.028560003 0.9119358364 7.35294515e-39
0.3209203656 -0.028491428 0.9110425064 7.169272756e-39
0.3169203556 -0.028354287 0.9108539464 7.07708133e-39
0.3129203456 -0.028217142 0.9106805864 7.168918228e-39
0.3109203756 -0.028148573 0.9098177564 7.261832724e-39
0.3089204056 -0.028080003 0.9089624864 7.538775543e-39
0.3049203956 -0.027942859 0.9088272464 7.816435828e-39
0.3049203956 -0.027942859 0.9072748664 8.368886537e-39
0.3049203956 -0.027942859 0.9057225264 9.012823819e-39
0.3039203456 -0.027908571 0.9045320464 9.566003203e-39
0.3019203756 -0.027840002 0.9037091664 1.011880003e-38
0.2999203956 -0.02777143 0.9028938964 1.05801187e-38
0.2999203956 -0.02777143 0.9013510664 1.113185474e-38
0.2999203956 -0.02777143 0.8998081964 1.14999184e-38
0.2999203956 -0.02777143 0.8982653564 1.186762472e-38
0.2999203956 -0.02777143 0.8967224964 1.186834919e-38
0.2999203956 -0.02777143 0.8951796564 1.196126229e-38
0.3019203756 -0.027840002 0.8928825264 1.214636961e-38
0.3039203456 -0.027908571 0.8905777364 1.24218761e-38
0.3039203456 -0.027908571 0.8890272664 1.260734075e-38
0.3039203456 -0.027908571 0.8874767964 1.279101315e-38
0.3049203956 -0.027942859 0.8855415564 1.279101455e-38
0.3049203956 -0.027942859 0.8839891864 1.279101174e-38
0.3069203656 -0.028011428 0.8816596564 1.288320457e-38
0.3069203656 -0.028011428 0.8801034664 1.306688397e-38
0.3049203956 -0.027942859 0.8793320064 1.279138729e-38
0.3109203756 -0.028148573 0.8754139264 1.260770649e-38
0.3109203756 -0.028148573 0.8738501364 1.251729612e-38
0.3329203856 -0.028902858 0.8635282164 1.251657305e-38
0.3349203656 -0.02897143 0.8611224864 1.297502746e-38
0.3349203656 -0.02897143 0.8595129864 1.343493501e-38
0.3349203656 -0.02897143 0.8579034764 1.297684494e-38
0.3379203856 -0.029074287 0.8550767864 1.260915263e-38
0.3419203956 -0.029211432 0.8518310464 1.214998216e-38
0.3419203956 -0.029211432 0.8502082164 1.169297529e-38
0.3419203956 -0.029211432 0.8485853664 1.187881829e-38
0.3189203956 -0.026843812 0.9622653664 1.427903237e-38
0.3149203856 -0.026714286 0.9618367964 1.159425661e-38
0.3169203556 -0.026779048 0.9596863264 1.011518048e-38
0.3149203856 -0.026714286 0.9586939364 8.64437621e-39
0.3149203856 -0.026714286 0.9571225064 8.645811139e-39
0.3129203456 -0.026649524 0.9561415564 8.647250273e-39
0.3129203456 -0.026649524 0.9545739464 8.923837162e-39
0.3129203456 -0.026649524 0.9530063264 9.289388288e-39
0.3129203456 -0.026649524 0.9514387264 9.106797696e-39
0.3109203756 -0.026584763 0.9504768064 9.016038397e-39
0.3109203756 -0.026584763 0.9489130064 9.198993326e-39
0.3109203756 -0.026584763 0.9473491864 9.290461682e-39
0.3109203756 -0.026584763 0.9457853764 9.567037361e-39
0.3109203756 -0.026584763 0.9442215564 9.843985786e-39
0.3109203756 -0.026584763 0.9426577364 1.021133478e-38
0.3109203756 -0.026584763 0.9410939164 1.06708794e-38
0.3109203756 -0.026584763 0.9395301364 1.057905371e-38
0.3109203756 -0.026584763 0.9379663164 1.048756714e-38
0.3109203756 -0.026584763 0.9364024964 1.048755873e-38
0.3109203756 -0.026584763 0.9348386764 1.057975716e-38
0.3109203756 -0.026584763 0.9332748964 1.076307503e-38
0.3109203756 -0.026584763 0.9317110764 1.103859413e-38
0.3109203756 -0.026584763 0.9301472564 1.076310025e-38
0.3129203456 -0.026649524 0.9279244264 1.039430372e-38
0.3149203856 -0.026714286 0.9256939264 9.841477462e-39
0.3189203956 -0.026843812 0.9227891564 9.196113658e-39
0.3229203956 -0.026973335 0.9198691564 8.645097878e-39
0.3229203956 -0.026973335 0.9182825064 8.185918996e-39
0.3249203756 -0.027038096 0.9160177364 7.90646505e-39
0.3249203756 -0.027038096 0.9144272464 7.720641663e-39
0.3249203756 -0.027038096 0.9128367864 7.535895875e-39
0.3249203756 -0.027038096 0.9112462964 7.351506017e-39
0.3209203656 -0.026908573 0.9110425064 7.260745316e-39
0.3189203956 -0.026843812 0.9101567864 7.076719795e-39
0.3169203556 -0.026779048 0.9092787164 7.16927696e-39
0.3129203456 -0.026649524 0.9091129864 7.261831323e-39
0.3109203756 -0.026584763 0.9082539364 7.539491607e-39
0.3069203656 -0.02645524 0.9081148764 7.723521332e-39
0.3049203956 -0.026390478 0.9072748664 8.185209939e-39
0.3049203956 -0.026390478 0.9057225264 8.735152324e-39
0.3039203456 -0.026358096 0.9045320464 9.197922734e-39
0.3039203456 -0.026358096 0.9029815764 9.657096011e-39
0.3019203756 -0.026293335 0.9021625164 1.021025858e-38
0.3019203756 -0.026293335 0.9006158364 1.076306942e-38
0.3019203756 -0.026293335 0.8990691864 1.113185054e-38
0.3019203756 -0.026293335 0.8975225064 1.159246856e-38
0.3019203756 -0.026293335 0.8959758264 1.159319303e-38
0.3019203756 -0.026293335 0.8944291764 1.168323907e-38
0.3019203756 -0.026293335 0.8928825264 1.187014425e-38
0.3039203456 -0.026358096 0.8905777364 1.205452851e-38
0.3049203956 -0.026390478 0.8886463064 1.223783656e-38
0.3049203956 -0.026390478 0.8870938964 1.242115163e-38
0.3069203656 -0.02645524 0.8847720264 1.232932033e-38
0.3069203656 -0.02645524 0.8832158464 1.223748484e-38
0.3069203656 -0.02645524 0.8816596564 1.242115723e-38
0.3069203656 -0.02645524 0.8801034664 1.269668054e-38
0.3089204056 -0.026520003 0.8777624964 1.242190833e-38
0.3109203756 -0.026584763 0.8754139264 1.223894219e-38
0.3289203856 -0.02716762 0.8667187064 1.233076507e-38
0.3329203856 -0.027297145 0.8635282164 1.242258656e-38
0.3349203656 -0.027361905 0.8611224864 1.26977203e-38
0.3349203656 -0.027361905 0.8595129864 1.306507209e-38
0.3349203656 -0.027361905 0.8579034764 1.28846395e-38
0.3379203856 -0.027459048 0.8550767864 1.279245929e-38
0.3399203556 -0.02752381 0.8526463164 1.242477258e-38
0.3419203956 -0.027588574 0.8502082164 1.205383206e-38
0.3459204056 -0.027718097 0.8469396464 1.215103874e-38
0.3479203756 -0.027782857 0.8444825064 1.23394265e-38
0.3459204056 -0.027718097 0.8436786764 1.215903875e-38
0.3459204056 -0.027718097 0.8420481964 1.197898171e-38
0.3209203656 -0.025325716 0.9632767864 1.741519718e-38
0.3209203656 -0.025325716 0.9616939364 1.622094197e-38
0.3169203556 -0.025203809 0.9612615564 1.500333692e-38
0.3209203656 -0.025325716 0.9585282164 1.158311349e-38
0.3169203556 -0.025203809 0.9581110764 8.185560264e-39
0.3169203556 -0.025203809 0.9565358464 8.46178702e-39
0.3149203856 -0.025142858 0.9555510664 8.738729839e-39
0.3129203456 -0.025081905 0.9545739464 9.107868288e-39
0.3129203456 -0.025081905 0.9530063264 9.473420815e-39
0.3129203456 -0.025081905 0.9514387264 9.293700083e-39
0.3129203456 -0.025081905 0.9498711064 9.199710791e-39
0.3109203756 -0.025020953 0.9489130064 9.292621083e-39
0.3109203756 -0.025020953 0.9473491864 9.383378981e-39
0.3109203756 -0.025020953 0.9457853764 9.662830124e-39
0.3109203756 -0.025020953 0.9442215564 9.935472359e-39
0.3109203756 -0.025020953 0.9426577364 1.011986642e-38
0.3109203756 -0.025020953 0.9410939164 1.039538272e-38
0.3109203756 -0.025020953 0.9395301364 1.039754632e-38
0.3109203756 -0.025020953 0.9379663164 1.039645751e-38
0.3109203756 -0.025020953 0.9364024964 1.048756434e-38
0.3109203756 -0.025020953 0.9348386764 1.067123533e-38
0.3109203756 -0.025020953 0.9332748964 1.094638308e-38
0.3089204056 -0.024960002 0.9323624964 1.131444814e-38
0.3089204056 -0.024960002 0.9308024964 1.085635246e-38
0.3109203756 -0.025020953 0.9285834664 1.048756574e-38
0.3129203456 -0.025081905 0.9263568164 9.842196328e-39
0.3189203956 -0.025264764 0.9227891564 9.195041665e-39
0.3229203956 -0.025386669 0.9198691564 8.735861381e-39
0.3249203756 -0.02544762 0.9176081964 8.276681098e-39
0.3269203456 -0.025508571 0.9153396464 7.998303349e-39
0.3269203456 -0.025508571 0.9137453764 7.813917694e-39
0.3249203756 -0.02544762 0.9128367864 7.626663582e-39
0.3249203756 -0.02544762 0.9112462964 7.444064583e-39
0.3229203956 -0.025386669 0.9103491564 7.261824316e-39
0.3209203656 -0.025325716 0.9094596764 7.170347552e-39
0.3189203956 -0.025264764 0.9085777364 7.262543182e-39
0.3169203556 -0.025203809 0.9077034564 7.355456277e-39
0.3129203456 -0.025081905 0.9075453864 7.5405636e-39
0.3069203656 -0.024899049 0.9081148764 7.724238796e-39
0.3069203656 -0.024899049 0.9065586864 8.093737379e-39
0.3069203656 -0.024899049 0.9050025064 8.45965004e-39
0.3049203956 -0.024838097 0.9041701264 8.830226221e-39
0.3049203956 -0.024838097 0.9026177464 9.289756829e-39
0.3039203456 -0.024807619 0.9014311164 9.841483067e-39
0.3039203456 -0.024807619 0.8998806164 1.048684547e-38
0.3039203456 -0.024807619 0.8983301464 1.085598392e-38
0.3039203456 -0.024807619 0.8967796864 1.131552714e-38
0.3019203756 -0.024746668 0.8959758264 1.140988077e-38
0.3019203756 -0.024746668 0.8944291764 1.150171767e-38
0.3039203456 -0.024807619 0.8921282264 1.15939133e-38
0.3039203456 -0.024807619 0.8905777364 1.177758148e-38
0.3049203956 -0.024838097 0.8886463064 1.186977291e-38
0.3049203956 -0.024838097 0.8870938964 1.205344671e-38
0.3069203656 -0.024899049 0.8847720264 1.186870232e-38
0.3069203656 -0.024899049 0.8832158464 1.168718652e-38
0.3089204056 -0.024960002 0.8808824664 1.196305455e-38
0.3089204056 -0.024960002 0.8793224964 1.233005041e-38
0.3109203756 -0.025020953 0.8769777364 1.205455794e-38
0.3129203456 -0.025081905 0.8746253564 1.187123867e-38
0.3289203856 -0.025569525 0.8667187064 1.205526139e-38
0.3329203856 -0.025691429 0.8635282164 1.2331114e-38
0.3329203856 -0.025691429 0.8619224964 1.251513111e-38
0.3349203656 -0.025752382 0.8595129864 1.279100474e-38
0.3349203656 -0.025752382 0.8579034764 1.28846423e-38
0.3399203556 -0.025904762 0.8542653564 1.297648481e-38
0.3419203956 -0.025965717 0.8518310464 1.269990773e-38
0.3439203656 -0.026026668 0.8493891964 1.242368377e-38
0.3439203656 -0.026026668 0.8477625264 1.242332364e-38
0.3459204056 -0.026087621 0.8453091664 1.251625355e-38
0.3479203756 -0.026148573 0.8428482064 1.196669512e-38
0.3499203456 -0.026209524 0.8403796864 1.142074644e-38
0.3499203456 -0.026209524 0.8387415664 1.234416709e-38
0.3499203456 -0.026209524 0.8371034864 1.336620132e-38
0.3249203756 -0.023857143 0.9621415564 1.648290491e-38
0.3229203956 -0.023800001 0.9611224964 1.528976513e-38
0.3209203656 -0.023742856 0.9601110764 1.418834313e-38
0.3229203956 -0.023800001 0.9579491564 1.1127166e-38
0.3189203956 -0.023685714 0.9575282164 8.180900946e-39
0.3169203556 -0.023628572 0.9565358464 8.367087269e-39
0.3169203556 -0.023628572 0.9549606164 8.554704318e-39
0.3149203856 -0.02357143 0.9539796364 8.371392058e-39
0.3129203456 -0.023514286 0.9530063264 8.188444136e-39
0.3129203456 -0.023514286 0.9514387264 8.556150458e-39
0.3129203456 -0.023514286 0.9498711064 8.924205704e-39
0.3129203456 -0.023514286 0.9483034564 9.108591358e-39
0.3129203456 -0.023514286 0.9467358264 9.292984019e-39
0.3109203756 -0.023457143 0.9457853764 9.568135979e-39
0.3109203756 -0.023457143 0.9442215564 9.843646672e-39
0.3109203756 -0.023457143 0.9426577364 1.00276806e-38
0.3109203756 -0.023457143 0.9410939164 1.021208027e-38
0.3109203756 -0.023457143 0.9395301364 1.030500457e-38
0.3109203756 -0.023457143 0.9379663164 1.039718339e-38
0.3089204056 -0.023400001 0.9370425064 1.048792867e-38
0.3089204056 -0.023400001 0.9354824964 1.057939983e-38
0.3089204056 -0.023400001 0.9339224964 1.067123112e-38
0.3089204056 -0.023400001 0.9323624964 1.085705311e-38
0.3089204056 -0.023400001 0.9308024964 1.058082916e-38
0.3089204056 -0.023400001 0.9292424864 1.030639886e-38
0.3109203756 -0.023457143 0.9270196564 9.841481666e-39
0.3149203856 -0.02357143 0.9241224764 9.377997995e-39
0.3249203756 -0.023857143 0.9191986864 9.01065601e-39
0.3249203756 -0.023857143 0.9176081964 8.735145318e-39
0.3269203456 -0.023914287 0.9153396464 8.550754058e-39
0.3269203456 -0.023914287 0.9137453764 8.366371206e-39
0.3269203456 -0.023914287 0.9121510964 7.998677495e-39
0.3249203756 -0.023857143 0.9112462964 7.722805268e-39
0.3229203956 -0.023800001 0.9103491564 7.445498111e-39
0.3209203656 -0.023742856 0.9094596764 7.172499947e-39
0.3189203956 -0.023685714 0.9085777364 7.081021782e-39
0.3189203956 -0.023685714 0.9069986964 6.989905152e-39
0.3169203556 -0.023628572 0.9061282264 7.265413041e-39
0.3129203456 -0.023514286 0.9059777564 7.541285269e-39
0.3089204056 -0.023400001 0.9058424764 7.908635661e-39
0.3089204056 -0.023400001 0.9042824764 8.184147755e-39
0.3069203656 -0.023342857 0.9034463164 8.644048306e-39
0.3049203956 -0.023285715 0.9026177464 9.104294977e-39
0.3049203956 -0.023285715 0.9010653464 9.748931507e-39
0.3049203956 -0.023285715 0.8995129764 1.030245701e-38
0.3049203956 -0.023285715 0.8979605764 1.067051926e-38
0.3039203456 -0.023257142 0.8967796864 1.103894445e-38
0.3039203456 -0.023257142 0.8952291864 1.113186455e-38
0.3039203456 -0.023257142 0.8936786964 1.122477344e-38
0.3039203456 -0.023257142 0.8921282264 1.131624741e-38
0.3039203456 -0.023257142 0.8905777364 1.149955826e-38
0.3049203956 -0.023285715 0.8886463064 1.168574038e-38
0.3049203956 -0.023285715 0.8870938964 1.186977151e-38
0.3049203956 -0.023285715 0.8855415564 1.187049178e-38
0.3069203656 -0.023342857 0.8832158464 1.177973668e-38
0.3089204056 -0.023400001 0.8808824664 1.187157638e-38
0.3109203756 -0.023457143 0.8785415564 1.196342169e-38
0.3129203456 -0.023514286 0.8761929864 1.18705212e-38
0.3129203456 -0.023514286 0.8746253564 1.177868431e-38
0.3289203856 -0.023971431 0.8667187064 1.19623539e-38
0.3329203856 -0.024085715 0.8635282164 1.214816467e-38
0.3349203656 -0.024142858 0.8611224864 1.242401868e-38
0.3349203656 -0.024142858 0.8595129864 1.279172641e-38
0.3379203856 -0.024228573 0.8566920164 1.288428778e-38
0.3399203556 -0.024285713 0.8542653564 1.306867483e-38
0.3419203956 -0.024342857 0.8518310464 1.288500244e-38
0.3439203656 -0.024400001 0.8493891964 1.279317535e-38
0.3459204056 -0.024457145 0.8469396464 1.279282643e-38
0.3479203756 -0.024514288 0.8444825064 1.288464511e-38
0.3479203756 -0.024514288 0.8428482064 1.251800377e-38
0.3499203456 -0.02457143 0.8403796864 1.214785078e-38
0.3499203456 -0.02457143 0.8387415664 1.242808105e-38
0.3499203456 -0.02457143 0.8371034864 1.281302194e-38
0.3289203856 -0.022373334 0.9610063164 1.556486384e-38
0.3249203756 -0.022266667 0.9605510764 1.446246934e-38
0.3229203956 -0.022213334 0.9595358364 1.344143143e-38
0.3229203956 -0.022213334 0.9579491564 1.076305121e-38
0.3209203656 -0.022160001 0.9569453764 8.184484067e-39
0.3189203956 -0.022106668 0.9559491664 8.272735041e-39
0.3189203956 -0.022106668 0.9543701264 8.370315861e-39
0.3169203556 -0.022053333 0.9533853664 7.6345613e-39
0.3149203856 -0.022000002 0.9524082264 6.990999566e-39
0.3149203856 -0.022000002 0.9508367864 7.816807172e-39
0.3129203456 -0.021946667 0.9498711064 8.736587254e-39
0.3129203456 -0.021946667 0.9483034564 8.9220435e-39
0.3129203456 -0.021946667 0.9467358264 9.198273059e-39
0.3129203456 -0.021946667 0.9451682264 9.474859948e-39
0.3109203756 -0.021893334 0.9442215564 9.750367838e-39
0.3109203756 -0.021893334 0.9426577364 9.934398964e-39
0.3109203756 -0.021893334 0.9410939164 1.011915736e-38
0.3109203756 -0.021893334 0.9395301364 1.030463463e-38
0.3109203756 -0.021893334 0.9379663164 1.048865735e-38
0.3109203756 -0.021893334 0.9364024964 1.048865034e-38
0.3109203756 -0.021893334 0.9348386764 1.04882846e-38
0.3109203756 -0.021893334 0.9332748964 1.0488279e-38
0.3089204056 -0.021840001 0.9323624964 1.048863493e-38
0.3089204056 -0.021840001 0.9308024964 1.030532127e-38
0.3089204056 -0.021840001 0.9292424864 1.011913775e-38
0.3109203756 -0.021893334 0.9270196564 9.841120131e-39
0.3149203856 -0.022000002 0.9241224764 9.562023515e-39
0.3269203456 -0.02232 0.9185282264 9.379427319e-39
0.3269203456 -0.02232 0.9169339564 9.194319996e-39
0.3289203856 -0.022373334 0.9146615564 9.010647602e-39
0.3289203856 -0.022373334 0.9130634364 8.917379979e-39
0.3269203456 -0.02232 0.9121510964 8.457487836e-39
0.3269203456 -0.02232 0.9105567864 8.090143049e-39
0.3249203756 -0.022266667 0.9096558364 7.629529237e-39
0.3209203656 -0.022160001 0.9094596764 7.263978112e-39
0.3209203656 -0.022160001 0.9078767864 6.896633325e-39
0.3189203956 -0.022106668 0.9069986964 6.621126836e-39
0.3169203556 -0.022053333 0.9061282264 6.988470222e-39
0.3149203856 -0.022000002 0.9052653564 7.449089639e-39
0.3109203756 -0.021893334 0.9051263064 7.721734676e-39
0.3089204056 -0.021840001 0.9042824764 8.00047396e-39
0.3089204056 -0.021840001 0.9027224764 8.457145919e-39
0.3069203656 -0.021786667 0.9018901264 9.012100749e-39
0.3049203956 -0.021733334 0.9010653464 9.564903184e-39
0.3049203956 -0.021733334 0.8995129764 1.020919079e-38
0.3049203956 -0.021733334 0.8979605764 1.048613501e-38
0.3049203956 -0.021733334 0.8964081964 1.07627219e-38
0.3049203956 -0.021733334 0.8948558564 1.08556392e-38
0.3039203456 -0.021706667 0.8936786964 1.094783203e-38
0.3039203456 -0.021706667 0.8921282264 1.113186035e-38
0.3039203456 -0.021706667 0.8905777364 1.131553134e-38
0.3049203956 -0.021733334 0.8886463064 1.150207079e-38
0.3069203656 -0.021786667 0.8863282164 1.177829194e-38
0.3089204056 -0.021840001 0.8840024764 1.18708407e-38
0.3089204056 -0.021840001 0.8824424764 1.196304194e-38
0.3109203756 -0.021893334 0.8801053764 1.178009401e-38
0.3109203756 -0.021893334 0.8785415564 1.159535523e-38
0.3149203856 -0.022000002 0.8754081964 1.159464617e-38
0.3249203756 -0.022266667 0.8698939364 1.168612154e-38
0.3289203856 -0.022373334 0.8667187064 1.177795563e-38
0.3329203856 -0.022480002 0.8635282164 1.196484681e-38
0.3349203656 -0.022533333 0.8611224864 1.242509348e-38
0.3349203656 -0.022533333 0.8595129864 1.288391643e-38
0.3379203856 -0.022613334 0.8566920164 1.297467993e-38
0.3399203556 -0.022666667 0.8542653564 1.315942853e-38
0.3419203956 -0.02272 0.8518310464 1.316086626e-38
0.3439203656 -0.022773333 0.8493891964 1.325198989e-38
0.3459204056 -0.022826668 0.8469396464 1.325163677e-38
0.3479203756 -0.022880001 0.8444825064 1.325163116e-38
0.3479203756 -0.022880001 0.8428482064 1.306938949e-38
0.3499203456 -0.022933332 0.8403796864 1.288287807e-38
0.3499203456 -0.022933332 0.8387415664 1.260417242e-38
0.3499203456 -0.022933332 0.8371034864 1.233587421e-38
0.3349203656 -0.02092381 0.9609129864 1.409511895e-38
0.3289203856 -0.020775238 0.9610063164 1.427984092e-38
0.3249203756 -0.020676192 0.9605510764 1.289080381e-38
0.3249203756 -0.020676192 0.9589606064 1.150101842e-38
0.3249203756 -0.020676192 0.9573701264 1.021096203e-38
0.3229203956 -0.020626668 0.9563624964 8.92311129e-39
0.3209203656 -0.020577144 0.9553625164 8.830199596e-39
0.3189203956 -0.02052762 0.9543701264 8.82913461e-39
0.3189203956 -0.02052762 0.9527910764 8.369968339e-39
0.3169203556 -0.020478096 0.9518101364 8.002989291e-39
0.3149203856 -0.020428572 0.9508367864 8.553289007e-39
0.3149203856 -0.020428572 0.9492653764 9.103929238e-39
0.3129203456 -0.020379048 0.9483034564 9.289738612e-39
0.3129203456 -0.020379048 0.9467358264 9.381938446e-39
0.3129203456 -0.020379048 0.9451682264 9.564897579e-39
0.3129203456 -0.020379048 0.9436006264 9.656372941e-39
0.3109203756 -0.020329524 0.9426577364 9.932954225e-39
0.3109203756 -0.020329524 0.9410939164 1.011807136e-38
0.3109203756 -0.020329524 0.9395301364 1.01195175e-38
0.3109203756 -0.020329524 0.9379663164 1.012131116e-38
0.3109203756 -0.020329524 0.9364024964 1.02113544e-38
0.3109203756 -0.020329524 0.9348386764 1.030138782e-38
0.3109203756 -0.020329524 0.9332748964 1.011878602e-38
0.3109203756 -0.020329524 0.9317110764 9.936547155e-39
0.3089204056 -0.020280002 0.9308024964 1.011949788e-38
0.3109203756 -0.020329524 0.9285834664 1.039284917e-38
0.3109203756 -0.020329524 0.9270196564 1.011698255e-38
0.3329203856 -0.020874286 0.9181224964 9.930080162e-39
0.3309203556 -0.020824762 0.9171872764 9.7467651e-39
0.3289203856 -0.020775238 0.9162596464 9.653494674e-39
0.3309203556 -0.020824762 0.9139834664 9.469823682e-39
0.3289203856 -0.020775238 0.9130634364 9.376553256e-39
0.3289203856 -0.020775238 0.9114653764 8.825540279e-39
0.3269203456 -0.020725716 0.9105567864 8.367081664e-39
0.3249203756 -0.020676192 0.9096558364 7.907189521e-39
0.3229203956 -0.020626668 0.9087625164 7.539486002e-39
0.3229203956 -0.020626668 0.9071758064 7.172141214e-39
0.3209203656 -0.020577144 0.9062939564 6.805156561e-39
0.3189203956 -0.02052762 0.9054196464 7.081021782e-39
0.3169203556 -0.020478096 0.9045529964 7.265058513e-39
0.3149203856 -0.020428572 0.9036939464 7.540932142e-39
0.3109203756 -0.020329524 0.9035625164 7.817160299e-39
0.3109203756 -0.020329524 0.9019986964 8.276702117e-39
0.3109203756 -0.020329524 0.9004348764 8.736235528e-39
0.3089204056 -0.020280002 0.8996024964 9.286888371e-39
0.3089204056 -0.020280002 0.8980424964 9.837905552e-39
0.3089204056 -0.020280002 0.8964824964 1.011700497e-38
0.3069203656 -0.020230476 0.8956653764 1.039323032e-38
0.3069203656 -0.020230476 0.8941091864 1.048542595e-38
0.3049203956 -0.020180954 0.8933034564 1.048614342e-38
0.3049203956 -0.020180954 0.8917510764 1.08556392e-38
0.3049203956 -0.020180954 0.8901986764 1.113150302e-38
0.3069203656 -0.020230476 0.8878844064 1.131553274e-38
0.3089204056 -0.020280002 0.8855624764 1.149991139e-38
0.3089204056 -0.020280002 0.8840024764 1.150062045e-38
0.3109203756 -0.020329524 0.8816691664 1.159354055e-38
0.3109203756 -0.020329524 0.8801053764 1.150135473e-38
0.3129203456 -0.020379048 0.8777606164 1.15010016e-38
0.3149203856 -0.020428572 0.8754081964 1.159356157e-38
0.3269203456 -0.020725716 0.8691053664 1.168611173e-38
0.3329203856 -0.020874286 0.8651339364 1.187157498e-38
0.3349203656 -0.02092381 0.8627320164 1.214922966e-38
0.3349203656 -0.02092381 0.8611224864 1.251692757e-38
0.3379203856 -0.020998096 0.8583072664 1.297646519e-38
0.3379203856 -0.020998096 0.8566920164 1.315870265e-38
0.3399203556 -0.02104762 0.8542653564 1.334237785e-38
0.3419203956 -0.021097144 0.8518310464 1.334274219e-38
0.3439203656 -0.021146666 0.8493891964 1.334346245e-38
0.3459204056 -0.021196192 0.8469396464 1.334346526e-38
0.3479203756 -0.021245714 0.8444825064 1.334346946e-38
0.3479203756 -0.021245714 0.8428482064 1.34345931e-38
0.3499203456 -0.021295238 0.8403796864 1.343423296e-38
0.3499203456 -0.021295238 0.8387415664 1.297397929e-38
0.3499203456 -0.021295238 0.8371034864 1.251377325e-38
0.3499203456 -0.021295238 0.8354653664 1.224333666e-38
0.3499203456 -0.021295238 0.8338272864 1.207261226e-38
0.3419203956 -0.019474287 0.9605624964 1.33575399e-38
0.3349203656 -0.019314285 0.9609129864 1.317459338e-38
0.3289203856 -0.019177144 0.9610063164 1.298513782e-38
0.3269203456 -0.019131429 0.9599796564 1.122730559e-38
0.3249203756 -0.019085715 0.9589606064 9.570659718e-39
0.3249203756 -0.019085715 0.9573701264 9.567412909e-39
0.3229203956 -0.01904 0.9563624964 9.659961666e-39
0.3209203656 -0.018994287 0.9553625164 9.477002534e-39
0.3209203656 -0.018994287 0.9537796464 9.292622484e-39
0.3189203956 -0.018948574 0.9527910764 9.200077931e-39
0.3189203956 -0.018948574 0.9512120164 9.107886505e-39
0.3169203556 -0.018902857 0.9502349064 9.2915603e-39
0.3149203856 -0.018857144 0.9492653764 9.567058381e-39
0.3129203456 -0.018811429 0.9483034564 9.567408705e-39
0.3129203456 -0.018811429 0.9467358264 9.658168004e-39
0.3129203456 -0.018811429 0.9451682264 9.657091807e-39
0.3129203456 -0.018811429 0.9436006264 9.65601561e-39
0.3129203456 -0.018811429 0.9420329864 9.930803232e-39
0.3129203456 -0.018811429 0.9404653864 1.021098025e-38
0.3129203456 -0.018811429 0.9388977564 9.934403168e-39
0.3129203456 -0.018811429 0.9373301264 9.750369239e-39
0.3129203456 -0.018811429 0.9357624964 9.934036028e-39
0.3109203756 -0.018765714 0.9348386764 1.011770842e-38
0.3109203756 -0.018765714 0.9332748964 9.74929024e-39
0.3109203756 -0.018765714 0.9317110764 9.474865554e-39
0.3109203756 -0.018765714 0.9301472564 1.002696033e-38
0.3109203756 -0.018765714 0.9285834664 1.066908293e-38
0.3129203456 -0.018811429 0.9263568164 1.048468747e-38
0.3349203656 -0.019314285 0.9174558464 1.039105271e-38
0.3329203856 -0.019268574 0.9165167764 1.020594258e-38
0.3329203856 -0.019268574 0.9149110564 1.011338962e-38
0.3329203856 -0.019268574 0.9133053364 9.929002564e-39
0.3309203556 -0.019222857 0.9123815564 9.836448201e-39
0.3289203856 -0.019177144 0.9114653764 9.28471776e-39
0.3289203856 -0.019177144 0.9098672564 8.73478098e-39
0.3269203456 -0.019131429 0.9089625164 8.276679696e-39
0.3249203756 -0.019085715 0.9080653464 7.817142082e-39
0.3249203756 -0.019085715 0.9064748864 7.449441365e-39
0.3229203956 -0.01904 0.9055891664 7.081739247e-39
0.3209203656 -0.018994287 0.9047110664 7.081737845e-39
0.3189203956 -0.018948574 0.9038405964 7.173220214e-39
0.3189203956 -0.018948574 0.9022615564 7.358333143e-39
0.3169203556 -0.018902857 0.9014024964 7.63312637e-39
0.3129203456 -0.018811429 0.9012749164 8.001907488e-39
0.3109203756 -0.018765714 0.9004348764 8.460723434e-39
0.3109203756 -0.018765714 0.8988710964 8.920975711e-39
0.3089204056 -0.018720001 0.8980424964 9.471990089e-39
0.3089204056 -0.018720001 0.8964824964 9.747858113e-39
0.3089204056 -0.018720001 0.8949224964 1.011592036e-38
0.3089204056 -0.018720001 0.8933624864 1.011699936e-38
0.3069203656 -0.018674288 0.8925529964 1.011807696e-38
0.3069203656 -0.018674288 0.8909967864 1.057940824e-38
0.3069203656 -0.018674288 0.8894405964 1.103858852e-38
0.3069203656 -0.018674288 0.8878844064 1.113042682e-38
0.3089204056 -0.018720001 0.8855624764 1.122332871e-38
0.3109203756 -0.018765714 0.8832329764 1.122475383e-38
0.3109203756 -0.018765714 0.8816691664 1.12244035e-38
0.3109203756 -0.018765714 0.8801053764 1.131589007e-38
0.3109203756 -0.018765714 0.8785415564 1.140808851e-38
0.3149203856 -0.018857144 0.8754081964 1.150064707e-38
0.3149203856 -0.018857144 0.8738367864 1.168575159e-38
0.3329203856 -0.019268574 0.8651339364 1.196628034e-38
0.3349203656 -0.019314285 0.8627320164 1.233218459e-38
0.3379203856 -0.019382859 0.8599224964 1.269916644e-38
0.3379203856 -0.019382859 0.8583072664 1.315870125e-38
0.3379203856 -0.019382859 0.8566920164 1.334272957e-38
0.3379203856 -0.019382859 0.8550767864 1.352605024e-38
0.3419203956 -0.019474287 0.8518310464 1.352641738e-38
0.3439203656 -0.01952 0.8493891964 1.352641318e-38
0.3459204056 -0.019565716 0.8469396464 1.352640897e-38
0.3479203756 -0.019611429 0.8444825064 1.352641038e-38
0.3479203756 -0.019611429 0.8428482064 1.380191967e-38
0.3499203456 -0.019657142 0.8403796864 1.407707163e-38
0.3499203456 -0.019657142 0.8387415664 1.33416744e-38
0.3499203456 -0.019657142 0.8371034864 1.269848541e-38
0.3499203456 -0.019657142 0.8354653664 1.11329954e-38
0.3549204056 -0.019771431 0.8317034264 9.580093259e-39
0.3549204056 -0.019771431 0.8300558264 1.216014718e-38
0.3309203556 -0.017620953 0.9636425064 1.24377388e-38
0.3309203556 -0.017620953 0.9620406164 1.188027004e-38
0.3289203856 -0.017579047 0.9610063164 1.141492965e-38
0.3269203456 -0.017537143 0.9599796564 1.048897825e-38
0.3249203756 -0.017495239 0.9589606064 9.655302349e-39
0.3249203756 -0.017495239 0.9573701264 9.474878165e-39
0.3229203956 -0.017453335 0.9563624964 9.292632293e-39
0.3209203656 -0.017411429 0.9553625164 9.292265153e-39
0.3209203656 -0.017411429 0.9537796464 9.384104853e-39
0.3209203656 -0.017411429 0.9521968064 9.384469191e-39
0.3189203956 -0.017369524 0.9512120164 9.477741018e-39
0.3189203956 -0.017369524 0.9496329664 9.661414813e-39
0.3169203556 -0.01732762 0.9486596564 9.937277231e-39
0.3149203856 -0.017285716 0.9476939464 1.002910992e-38
0.3129203456 -0.01724381 0.9467358264 1.021313404e-38
0.3129203456 -0.01724381 0.9451682264 1.030424647e-38
0.3129203456 -0.01724381 0.9436006264 1.048755873e-38
0.3129203456 -0.01724381 0.9420329864 1.067122972e-38
0.3129203456 -0.01724381 0.9404653864 1.094673761e-38
0.3129203456 -0.01724381 0.9388977564 1.094638028e-38
0.3129203456 -0.01724381 0.9373301264 1.094601174e-38
0.3129203456 -0.01724381 0.9357624964 1.076161487e-38
0.3129203456 -0.01724381 0.9341948864 1.066907032e-38
0.3129203456 -0.01724381 0.9326272864 1.030137941e-38
0.3169203556 -0.01732762 0.9297567864 1.00255268e-38
0.3129203456 -0.01724381 0.9294920564 1.067054169e-38
0.3209203656 -0.017411429 0.9252882264 1.131373488e-38
0.3329203856 -0.017662859 0.9197282164 1.103749831e-38
0.3329203856 -0.017662859 0.9181224964 1.076162609e-38
0.3349203656 -0.017704763 0.9158463164 1.057651316e-38
0.3349203656 -0.017704763 0.9142368164 1.048324413e-38
0.3349203656 -0.017704763 0.9126272764 1.020738031e-38
0.3349203656 -0.017704763 0.9110177464 1.002334919e-38
0.3329203856 -0.017662859 0.9100939364 9.656723266e-39
0.3309203556 -0.017620953 0.9091777464 9.290456077e-39
0.3289203856 -0.017579047 0.9082691664 8.829483533e-39
0.3269203456 -0.017537143 0.9073682064 8.370306052e-39
0.3269203456 -0.017537143 0.9057739664 7.908260113e-39
0.3249203756 -0.017495239 0.9048844264 7.450874893e-39
0.3229203956 -0.017453335 0.9040024864 7.264691373e-39
0.3209203656 -0.017411429 0.9031282364 7.172142616e-39
0.3189203956 -0.017369524 0.9022615564 7.448729505e-39
0.3189203956 -0.017369524 0.9006824764 7.724957662e-39
0.3149203856 -0.017285716 0.9005510464 8.092662583e-39
0.3129203456 -0.01724381 0.8997072564 8.368883734e-39
0.3109203756 -0.017201904 0.8988710964 8.736940381e-39
0.3109203756 -0.017201904 0.8973072764 9.196475193e-39
0.3109203756 -0.017201904 0.8957434564 9.380504918e-39
0.3109203756 -0.017201904 0.8941796664 9.654939413e-39
0.3109203756 -0.017201904 0.8926158564 9.750007704e-39
0.3109203756 -0.017201904 0.8910520064 9.750367838e-39
0.3109203756 -0.017201904 0.8894882164 1.002623586e-38
0.3089204056 -0.017160002 0.8886824864 1.030210669e-38
0.3109203756 -0.017201904 0.8863605864 1.039502539e-38
0.3109203756 -0.017201904 0.8847967964 1.048792727e-38
0.3129203456 -0.01724381 0.8824634564 1.058082916e-38
0.3129203456 -0.01724381 0.8808958464 1.067303179e-38
0.3129203456 -0.01724381 0.8793282464 1.085635386e-38
0.3129203456 -0.01724381 0.8777606164 1.113150442e-38
0.3129203456 -0.01724381 0.8761929864 1.131589708e-38
0.3129203456 -0.01724381 0.8746253564 1.159355737e-38
0.3349203656 -0.017704763 0.8643415564 1.205524737e-38
0.3349203656 -0.017704763 0.8627320164 1.242294669e-38
0.3379203856 -0.017767621 0.8599224964 1.279064601e-38
0.3379203856 -0.017767621 0.8583072664 1.315798379e-38
0.3379203856 -0.017767621 0.8566920164 1.343456367e-38
0.3399203556 -0.017809525 0.8542653564 1.370972264e-38
0.3399203556 -0.017809525 0.8526463164 1.352713905e-38
0.3439203656 -0.017893333 0.8493891964 1.343636854e-38
0.3439203656 -0.017893333 0.8477625264 1.3436e-38
0.3459204056 -0.017935239 0.8453091664 1.343563987e-38
0.3479203756 -0.017977145 0.8428482064 1.361859199e-38
0.3479203756 -0.017977145 0.8412139364 1.389374816e-38
0.3499203456 -0.018019047 0.8387415664 1.343458049e-38
0.3499203456 -0.018019047 0.8371034864 1.306722729e-38
0.3499203456 -0.018019047 0.8354653664 1.205415576e-38
0.3519203856 -0.018060952 0.8329777364 1.104080538e-38
0.3519203856 -0.018060952 0.8313358364 1.197106717e-38
0.3329203856 -0.016057143 0.9630825064 1.160148591e-38
0.3309203556 -0.016019046 0.9620406164 1.068204635e-38
0.3289203856 -0.015980953 0.9610063164 9.847958467e-39
0.3269203456 -0.015942857 0.9599796564 9.750706952e-39
0.3249203756 -0.015904762 0.9589606064 9.750003501e-39
0.3249203756 -0.015904762 0.9573701264 9.2904813e-39
0.3229203956 -0.015866669 0.9563624964 8.923136513e-39
0.3209203656 -0.015828572 0.9553625164 9.198640199e-39
0.3209203656 -0.015828572 0.9537796464 9.567062585e-39
0.3189203956 -0.015790477 0.9527910764 9.660695947e-39
0.3189203956 -0.015790477 0.9512120164 9.844009608e-39
0.3189203956 -0.015790477 0.9496329664 1.0027682e-38
0.3169203556 -0.015752383 0.9486596564 1.030426048e-38
0.3149203856 -0.015714286 0.9476939464 1.049008107e-38
0.3169203556 -0.015752383 0.9455091964 1.076486869e-38
0.3149203856 -0.015714286 0.9445510764 1.103929758e-38
0.3149203856 -0.015714286 0.9429796664 1.131587606e-38
0.3149203856 -0.015714286 0.9414082164 1.150061905e-38
0.3149203856 -0.015714286 0.9398367664 1.177612834e-38
0.3149203856 -0.015714286 0.9382653564 1.195980213e-38
0.3169203556 -0.015752383 0.9360577464 1.223350795e-38
0.3169203556 -0.015752383 0.9344825164 1.168105304e-38
0.3169203556 -0.015752383 0.9329072864 1.12211665e-38
0.3189203956 -0.015790477 0.9306844164 1.094495236e-38
0.3169203556 -0.015752383 0.9297567864 1.067017875e-38
0.3189203956 -0.015790477 0.9275262964 1.131412023e-38
0.3229203956 -0.015866669 0.9246291764 1.195695329e-38
0.3329203856 -0.016057143 0.9197282164 1.149632547e-38
0.3349203656 -0.01609524 0.9174558464 1.112861634e-38
0.3349203656 -0.01609524 0.9158463164 1.094386215e-38
0.3349203656 -0.01609524 0.9142368164 1.085166792e-38
0.3349203656 -0.01609524 0.9126272764 1.04839686e-38
0.3349203656 -0.01609524 0.9110177464 1.020846071e-38
0.3349203656 -0.01609524 0.9094082064 1.002478832e-38
0.3329203856 -0.016057143 0.9084882164 9.840754392e-39
0.3309203556 -0.016019046 0.9075758764 9.38049651e-39
0.3289203856 -0.015980953 0.9066710764 9.011719596e-39
0.3289203856 -0.015980953 0.9050729864 8.458914358e-39
0.3269203456 -0.015942857 0.9041796564 7.90646505e-39
0.3229203956 -0.015866669 0.9040024864 7.537686734e-39
0.3229203956 -0.015866669 0.9024158364 7.172141214e-39
0.3209203656 -0.015828572 0.9015453464 7.540203466e-39
0.3209203656 -0.015828572 0.8999625164 7.907906986e-39
0.3169203556 -0.015752383 0.8998272664 8.091940915e-39
0.3149203856 -0.015714286 0.8989796364 8.368164868e-39
0.3149203856 -0.015714286 0.8974082164 8.644747554e-39
0.3129203456 -0.015676191 0.8965720264 8.920611373e-39
0.3129203456 -0.015676191 0.8950044164 9.104998429e-39
0.3129203456 -0.015676191 0.8934368164 9.288310689e-39
0.3129203456 -0.015676191 0.8918691864 9.383017446e-39
0.3129203456 -0.015676191 0.8903015864 9.474498413e-39
0.3129203456 -0.015676191 0.8887339264 9.565980782e-39
0.3129203456 -0.015676191 0.8871663164 9.658535145e-39
0.3129203456 -0.015676191 0.8855986864 9.751808373e-39
0.3129203456 -0.015676191 0.8840310864 9.845074595e-39
0.3129203456 -0.015676191 0.8824634564 1.002945885e-38
0.3129203456 -0.015676191 0.8808958464 1.021277671e-38
0.3129203456 -0.015676191 0.8793282464 1.048757134e-38
0.3129203456 -0.015676191 0.8777606164 1.085527766e-38
0.3129203456 -0.015676191 0.8761929864 1.122334272e-38
0.3349203656 -0.01609524 0.8659510864 1.159463917e-38
0.3349203656 -0.01609524 0.8643415564 1.205525999e-38
0.3379203856 -0.016152382 0.8615377564 1.260661628e-38
0.3379203856 -0.016152382 0.8599224964 1.288246469e-38
0.3379203856 -0.016152382 0.8583072664 1.325052414e-38
0.3379203856 -0.016152382 0.8566920164 1.352674809e-38
0.3399203556 -0.016190477 0.8542653564 1.389481034e-38
0.3399203556 -0.016190477 0.8526463164 1.362038425e-38
0.3439203656 -0.016266666 0.8493891964 1.334451763e-38
0.3439203656 -0.016266666 0.8477625264 1.33441589e-38
0.3459204056 -0.016304763 0.8453091664 1.33441589e-38
0.3479203756 -0.016342856 0.8428482064 1.352819003e-38
0.3479203756 -0.016342856 0.8412139364 1.371079323e-38
0.3499203456 -0.016380953 0.8387415664 1.361968501e-38
0.3499203456 -0.016380953 0.8371034864 1.352605164e-38
0.3519203856 -0.016419049 0.8346196364 1.297575193e-38
0.3549204056 -0.016476192 0.8317034264 1.251659547e-38
0.3549204056 -0.016476192 0.8300558264 1.178229125e-38
0.3549204056 -0.016476192 0.8284082064 1.105484779e-38
0.3309203556 -0.014417144 0.9636425064 1.105257909e-38
0.3309203556 -0.014417144 0.9620406164 1.030926592e-38
0.3289203856 -0.014382858 0.9610063164 9.658518329e-39
0.3269203456 -0.014348571 0.9599796564 9.566677228e-39
0.3249203756 -0.014314286 0.9589606064 9.473057879e-39
0.3249203756 -0.014314286 0.9573701264 9.290472893e-39
0.3229203956 -0.014280002 0.9563624964 9.106447372e-39
0.3209203656 -0.014245714 0.9553625164 9.2904813e-39
0.3209203656 -0.014245714 0.9537796464 9.566708056e-39
0.3209203656 -0.014245714 0.9521968064 9.660700151e-39
0.3209203656 -0.014245714 0.9506139264 9.843653678e-39
0.3189203956 -0.014211429 0.9496329664 1.011987763e-38
0.3189203956 -0.014211429 0.9480539264 1.039609738e-38
0.3169203556 -0.014177144 0.9470843964 1.067375346e-38
0.3169203556 -0.014177144 0.9455091964 1.085778459e-38
0.3169203556 -0.014177144 0.9439339664 1.122512937e-38
0.3149203856 -0.014142857 0.9429796664 1.150062746e-38
0.3149203856 -0.014142857 0.9414082164 1.177612694e-38
0.3149203856 -0.014142857 0.9398367664 1.196087693e-38
0.3169203556 -0.014177144 0.9376330064 1.232714692e-38
0.3169203556 -0.014177144 0.9360577464 1.278596006e-38
0.3189203956 -0.014211429 0.9338425064 1.205019569e-38
0.3189203956 -0.014211429 0.9322634364 1.140627943e-38
0.3209203656 -0.014245714 0.9300368064 1.113006529e-38
0.3189203956 -0.014211429 0.9291053664 1.094605378e-38
0.3209203656 -0.014245714 0.9268710864 1.131377411e-38
0.3309203556 -0.014417144 0.9219930164 1.168181675e-38
0.3329203856 -0.014451429 0.9197282164 1.140414105e-38
0.3349203656 -0.014485715 0.9174558464 1.112826602e-38
0.3349203656 -0.014485715 0.9158463164 1.103606338e-38
0.3379203856 -0.014537144 0.9132253464 1.094422789e-38
0.3379203856 -0.014537144 0.9116100964 1.066836407e-38
0.3349203656 -0.014485715 0.9110177464 1.039249745e-38
0.3349203656 -0.014485715 0.9094082064 1.039213731e-38
0.3349203656 -0.014485715 0.9077987064 1.029957594e-38
0.3329203856 -0.014451429 0.9068824964 1.002406245e-38
0.3309203556 -0.014417144 0.9059739364 9.745328769e-39
0.3309203556 -0.014417144 0.9043720364 9.101046767e-39
0.3269203456 -0.014348571 0.9041796564 8.549313523e-39
0.3249203756 -0.014314286 0.9032939364 8.090493373e-39
0.3229203956 -0.014280002 0.9024158364 7.631676026e-39
0.3209203656 -0.014245714 0.9015453464 7.72279686e-39
0.3209203656 -0.014245714 0.8999625164 7.906110521e-39
0.3209203656 -0.014245714 0.8983796564 8.182337277e-39
0.3169203556 -0.014177144 0.8982520364 8.458922766e-39
0.3169203556 -0.014177144 0.8966768064 8.551121198e-39
0.3149203856 -0.014142857 0.8958367964 8.735506853e-39
0.3149203856 -0.014142857 0.8942653864 8.736222916e-39
0.3149203856 -0.014142857 0.8926939064 8.830206603e-39
0.3169203556 -0.014177144 0.8903758164 9.014233525e-39
0.3169203556 -0.014177144 0.8888005864 9.290105752e-39
0.3169203556 -0.014177144 0.8872253864 9.381949656e-39
0.3169203556 -0.014177144 0.8856501564 9.473425019e-39
0.3149203856 -0.014142857 0.8848367864 9.658529539e-39
0.3169203556 -0.014177144 0.8824996664 9.936905887e-39
0.3169203556 -0.014177144 0.8809244364 1.021241378e-38
0.3149203856 -0.014142857 0.8801225064 1.05801173e-38
0.3149203856 -0.014142857 0.8785510964 1.085526786e-38
0.3349203656 -0.014485715 0.8691701264 1.122082318e-38
