# .PCD v0.7 - Point Cloud Data file format
VERSION 0.7
FIELDS x y z rgb
SIZE 4 4 4 4
TYPE F F F F
COUNT 1 1 1 1
WIDTH 873
HEIGHT 1
VIEWPOINT 0 0 0 1 0 0 0
POINTS 873
DATA ascii
0.2231135188 -0.078388579 0.8548672123 1.472565001e-38
0.2231135188 -0.078388579 0.8534919723 1.490859373e-38
0.2261134788 -0.078714289 0.8511167623 1.518339116e-38
0.2261134788 -0.078714289 0.8497358123 1.500008871e-38
0.2271134688 -0.078822859 0.8480177223 1.481680027e-38
0.2271134688 -0.078822859 0.8466348723 1.490865959e-38
0.2271134688 -0.078822859 0.8452520223 1.50926753e-38
0.2291134988 -0.079040006 0.8431834223 1.509302002e-38
0.2301134888 -0.079148576 0.8414519823 1.509339136e-38
0.2321134688 -0.079365715 0.8393700823 1.527707637e-38
0.2331135088 -0.079474293 0.8376291223 1.555256604e-38
0.2331135088 -0.079474293 0.8362348523 1.536923697e-38
0.2351134888 -0.079691432 0.8341358123 1.527811473e-38
0.2381135088 -0.080017149 0.8316748223 1.52777532e-38
0.2381135088 -0.080017149 0.8302710123 1.527739306e-38
0.2401134788 -0.080234289 0.8281510323 1.50930032e-38
0.2401134788 -0.080234289 0.8267434323 1.490716721e-38
0.2411134688 -0.080342859 0.8249738923 1.47234836e-38
0.2431134988 -0.080560006 0.8228367423 1.463169015e-38
0.2431134988 -0.080560006 0.8214234223 1.43562257e-38
0.2831135188 -0.08341334 0.9006348523 1.456295225e-38
0.2831135188 -0.08341334 0.8991453123 1.419310615e-38
0.2801134988 -0.08309333 0.8984043823 1.392154431e-38
0.2801134988 -0.08309333 0.8969205723 1.530338014e-38
0.2741135188 -0.082453333 0.8969567523 1.677130474e-38
0.2661135088 -0.08160001 0.8975262723 1.631104266e-38
0.2621134988 -0.081173338 0.8970977023 1.584574851e-38
0.2611135088 -0.081066668 0.8959072323 1.556591902e-38
0.2591134788 -0.080853336 0.8949815323 1.528751324e-38
0.2561135088 -0.080533341 0.8943262623 1.390708291e-38
0.2541134788 -0.080320001 0.8934177223 1.261382876e-38
0.2531134888 -0.080213338 0.8922500823 1.187230506e-38
0.2511135188 -0.080000006 0.8913548523 1.122802165e-38
0.2511135188 -0.080000006 0.8899262823 1.141061785e-38
0.2461135188 -0.079466678 0.8898596023 1.168826412e-38
0.2531134888 -0.080213338 0.8865205723 1.205810602e-38
0.2531134888 -0.080213338 0.8850881823 1.242365294e-38
0.2441134888 -0.079253338 0.8861586723 1.20534397e-38
0.2241135088 -0.077120006 0.8903434223 1.177903323e-38
0.2261134788 -0.077333339 0.8884024723 1.196416297e-38
0.2261134788 -0.077333339 0.8870215223 1.223929812e-38
0.2241135088 -0.077120006 0.8862120023 1.2514792e-38
0.2241135088 -0.077120006 0.8848348523 1.288465071e-38
0.2241135088 -0.077120006 0.8834577023 1.288429758e-38
0.2241135088 -0.077120006 0.8820805523 1.288393885e-38
0.2241135088 -0.077120006 0.8807034123 1.278959223e-38
0.2261134788 -0.077333339 0.8787358223 1.278922929e-38
0.2241135088 -0.077120006 0.8779491323 1.24251117e-38
0.2231135188 -0.077013336 0.8768710323 1.21463542e-38
0.2231135188 -0.077013336 0.8754957923 1.16839271e-38
0.2241135088 -0.077120006 0.8738177123 1.122475663e-38
0.2231135188 -0.077013336 0.8727453123 1.140843603e-38
0.2231135188 -0.077013336 0.8713700723 1.168502012e-38
0.2211134888 -0.076799996 0.8706119923 1.187012744e-38
0.2211134888 -0.076799996 0.8692405623 1.20534383e-38
0.2231135188 -0.077013336 0.8672443623 1.177757308e-38
0.2211134888 -0.076799996 0.8664977223 1.159426082e-38
0.2211134888 -0.076799996 0.8651262823 1.205379703e-38
0.2211134888 -0.076799996 0.8637548523 1.251369758e-38
0.2201134988 -0.076693341 0.8627034223 1.297395546e-38
0.2201134988 -0.076693341 0.8613338923 1.352713204e-38
0.2211134888 -0.076799996 0.8596405823 1.380336581e-38
0.2211134888 -0.076799996 0.8582691523 1.417106232e-38
0.2211134888 -0.076799996 0.8568977123 1.435544657e-38
0.2231135188 -0.077013336 0.8548672123 1.463129918e-38
0.2231135188 -0.077013336 0.8534919723 1.499898869e-38
0.2241135088 -0.077120006 0.8517834223 1.545853471e-38
0.2261134788 -0.077333339 0.8497358123 1.499972717e-38
0.2271134688 -0.077440001 0.8480177223 1.463275934e-38
0.2291134988 -0.077653334 0.8459567423 1.463385235e-38
0.2291134988 -0.077653334 0.8445700823 1.472567944e-38
0.2291134988 -0.077653334 0.8431834223 1.481786526e-38
0.2301134888 -0.077760004 0.8414519823 1.490970916e-38
0.2321134688 -0.077973336 0.8393700823 1.500155447e-38
0.2351134888 -0.078293331 0.8369319823 1.518521705e-38
0.2351134888 -0.078293331 0.8355339023 1.509337315e-38
0.2371135188 -0.078506671 0.8334310423 1.509372487e-38
0.2381135088 -0.078613341 0.8316748223 1.51859135e-38
0.2401134788 -0.078826673 0.8295586523 1.527739166e-38
0.2401134788 -0.078826673 0.8281510323 1.509300461e-38
0.2411134688 -0.078933336 0.8263834223 1.500080477e-38
0.2431134988 -0.079146668 0.8242500823 1.490860634e-38
0.2431134988 -0.079146668 0.8228367423 1.481679887e-38
0.2431134988 -0.079146668 0.8214234223 1.454167914e-38
0.2831135188 -0.081923813 0.9006348523 1.2430623e-38
0.2811134888 -0.081714287 0.8996405723 1.30792168e-38
0.2801134988 -0.081609525 0.8984043823 1.363634084e-38
0.2801134988 -0.081609525 0.8969205723 1.511863716e-38
0.2741135188 -0.080980957 0.8969567523 1.667875459e-38
0.2591134788 -0.079409525 0.8993129523 1.529547402e-38
0.2591134788 -0.079409525 0.8978691523 1.391216122e-38
0.2571134988 -0.0792 0.8969434123 1.381634043e-38
0.2561135088 -0.079095237 0.8957643723 1.362909052e-38
0.2541134788 -0.078885712 0.8948520123 1.298589172e-38
0.2531134888 -0.078780949 0.8936824623 1.234299841e-38
0.2511135188 -0.078571431 0.8927834123 1.1686832e-38
0.2491134888 -0.078361914 0.8918919923 1.104793939e-38
0.2461135188 -0.078047626 0.8912786523 1.113332891e-38
0.2461135188 -0.078047626 0.8898596023 1.122120013e-38
0.2441134888 -0.0778381 0.8889891423 1.094998022e-38
0.2441134888 -0.0778381 0.8875739123 1.077061682e-38
0.2441134888 -0.0778381 0.8861586723 1.094998722e-38
0.2241135088 -0.075742863 0.8903434223 1.122157989e-38
0.2241135088 -0.075742863 0.8889662923 1.168330072e-38
0.2241135088 -0.075742863 0.8875891423 1.223716114e-38
0.2241135088 -0.075742863 0.8862120023 1.269846999e-38
0.2241135088 -0.075742863 0.8848348523 1.316052294e-38
0.2241135088 -0.075742863 0.8834577023 1.334419954e-38
0.2241135088 -0.075742863 0.8820805523 1.352787193e-38
0.2231135188 -0.075638101 0.8809967423 1.352572094e-38
0.2241135088 -0.075742863 0.8793262623 1.352356294e-38
0.2231135188 -0.075638101 0.8782462723 1.353145085e-38
0.2231135188 -0.075638101 0.8768710323 1.353286476e-38
0.2231135188 -0.075638101 0.8754957923 1.316012217e-38
0.2231135188 -0.075638101 0.8741205623 1.287923469e-38
0.2231135188 -0.075638101 0.8727453123 1.223602749e-38
0.2231135188 -0.075638101 0.8713700723 1.159318462e-38
0.2211134888 -0.075428575 0.8706119923 1.186941558e-38
0.2211134888 -0.075428575 0.8692405623 1.223639183e-38
0.2211134888 -0.075428575 0.8678691523 1.214490946e-38
0.2211134888 -0.075428575 0.8664977223 1.205630255e-38
0.2211134888 -0.075428575 0.8651262823 1.223997354e-38
0.2211134888 -0.075428575 0.8637548523 1.251548284e-38
0.2211134888 -0.075428575 0.8623834223 1.297466452e-38
0.2211134888 -0.075428575 0.8610119923 1.343565248e-38
0.2211134888 -0.075428575 0.8596405823 1.361969902e-38
0.2231135188 -0.075638101 0.8576177023 1.38951985e-38
0.2231135188 -0.075638101 0.8562424623 1.407886249e-38
0.2231135188 -0.075638101 0.8548672123 1.426251947e-38
0.2241135088 -0.075742863 0.8531605523 1.417066996e-38
0.2261134788 -0.075952381 0.8511167623 1.417462722e-38
0.2271134688 -0.076057144 0.8494005723 1.408208687e-38
0.2291134988 -0.076266669 0.8473434223 1.398954232e-38
0.2291134988 -0.076266669 0.8459567423 1.417286439e-38
0.2301134888 -0.076371431 0.8442291323 1.435617245e-38
0.2301134888 -0.076371431 0.8428405823 1.45405581e-38
0.2321134688 -0.076580957 0.8407624723 1.472530949e-38
0.2331135088 -0.076685719 0.8390234223 1.481679186e-38
0.2351134888 -0.076895244 0.8369319823 1.490826863e-38
0.2371135188 -0.07710477 0.8348329523 1.490934623e-38
0.2371135188 -0.07710477 0.8334310423 1.490933642e-38
0.2381135088 -0.077209532 0.8316748223 1.490968534e-38
0.2401134788 -0.07741905 0.8295586523 1.500188377e-38
0.2411134688 -0.077523813 0.8277929523 1.500188798e-38
0.2411134688 -0.077523813 0.8263834223 1.509444374e-38
0.2431134988 -0.077733338 0.8242500823 1.518628204e-38
0.2491134888 -0.078361914 0.8206538923 1.536996704e-38
0.2491134888 -0.078361914 0.8192291623 1.491080498e-38
0.2491134888 -0.078361914 0.8178043823 1.445198763e-38
0.2961134788 -0.083285719 0.7974977023 1.298086947e-38
0.2961134788 -0.083285719 0.7959834123 1.326395138e-38
0.2961134788 -0.083285719 0.7944691323 1.354700806e-38
0.2811134888 -0.080228575 0.8996405723 1.187851001e-38
0.2801134988 -0.080125719 0.8984043823 1.345480122e-38
0.2801134988 -0.080125719 0.8969205723 1.502607018e-38
0.2621134988 -0.078274287 0.8985472323 1.427483688e-38
0.2591134788 -0.077965714 0.8978691523 1.206825843e-38
0.2561135088 -0.077657148 0.8972024723 1.206608922e-38
0.2561135088 -0.077657148 0.8957643723 1.206572348e-38
0.2531134888 -0.077348575 0.8951148623 1.206535774e-38
0.2531134888 -0.077348575 0.8936824623 1.206425352e-38
0.2511135188 -0.077142864 0.8927834123 1.140989618e-38
0.2491134888 -0.076937146 0.8918919923 1.085744968e-38
0.2461135188 -0.076628581 0.8912786523 1.085637488e-38
0.2441134888 -0.076422863 0.8904043723 1.085385254e-38
0.2441134888 -0.076422863 0.8889891423 9.934768907e-39
0.2431134988 -0.07632 0.8878500823 9.106821518e-39
0.2431134988 -0.07632 0.8864367523 9.931911659e-39
0.2241135088 -0.07436572 0.8903434223 1.076060454e-38
0.2241135088 -0.07436572 0.8889662923 1.149746052e-38
0.2241135088 -0.07436572 0.8875891423 1.22367926e-38
0.2231135188 -0.074262865 0.8864977023 1.279065862e-38
0.2231135188 -0.074262865 0.8851224623 1.343602102e-38
0.2231135188 -0.074262865 0.8837472123 1.380838806e-38
0.2231135188 -0.074262865 0.8823719923 1.417430493e-38
0.2231135188 -0.074262865 0.8809967423 1.41728798e-38
0.2211134888 -0.074057147 0.8802119923 1.426757955e-38
0.2211134888 -0.074057147 0.8788405623 1.463778439e-38
0.2211134888 -0.074057147 0.8774691523 1.50022425e-38
0.2211134888 -0.074057147 0.8760977223 1.47267234e-38
0.2211134888 -0.074057147 0.8747262923 1.453730989e-38
0.2231135188 -0.074262865 0.8727453123 1.296534168e-38
0.2231135188 -0.074262865 0.8713700723 1.150136314e-38
0.2211134888 -0.074057147 0.8706119923 1.196162662e-38
0.2211134888 -0.074057147 0.8692405623 1.242078869e-38
0.2211134888 -0.074057147 0.8678691523 1.242077468e-38
0.2211134888 -0.074057147 0.8664977223 1.251368777e-38
0.2211134888 -0.074057147 0.8651262823 1.25151227e-38
0.2211134888 -0.074057147 0.8637548523 1.260732394e-38
0.2211134888 -0.074057147 0.8623834223 1.297539039e-38
0.2211134888 -0.074057147 0.8610119923 1.334346946e-38
0.2231135188 -0.074262865 0.8589929323 1.343640077e-38
0.2231135188 -0.074262865 0.8576177023 1.362005074e-38
0.2231135188 -0.074262865 0.8562424623 1.380370212e-38
0.2241135088 -0.07436572 0.8545377023 1.398700317e-38
0.2261134788 -0.074571431 0.8524977223 1.343454405e-38
0.2271134688 -0.074674286 0.8507834323 1.288282622e-38
0.2291134988 -0.074880004 0.8487300823 1.315762786e-38
0.2291134988 -0.074880004 0.8473434223 1.343421755e-38
0.2301134888 -0.074982859 0.8456177123 1.371116737e-38
0.2321134688 -0.07518857 0.8435472523 1.398738993e-38
0.2321134688 -0.07518857 0.8421548723 1.426397121e-38
0.2331135088 -0.075291432 0.8404177223 1.453984064e-38
0.2331135088 -0.075291432 0.8390234223 1.454020497e-38
0.2351134888 -0.075497143 0.8369319823 1.46323978e-38
0.2371135188 -0.075702861 0.8348329523 1.472530949e-38
0.2371135188 -0.075702861 0.8334310423 1.481713658e-38
0.2401134788 -0.076011434 0.8309662723 1.472529408e-38
0.2401134788 -0.076011434 0.8295586523 1.472638849e-38
0.2411134688 -0.076114282 0.8277929523 1.49100777e-38
0.2431134988 -0.07632 0.8256634323 1.518629745e-38
0.2431134988 -0.07632 0.8242500823 1.55543541e-38
0.2491134888 -0.076937146 0.8206538923 1.592134156e-38
0.2491134888 -0.076937146 0.8192291623 1.527885742e-38
0.2491134888 -0.076937146 0.8178043823 1.463565021e-38
0.2941134988 -0.081565715 0.7982405523 1.362296124e-38
0.2961134788 -0.081771426 0.7959834123 1.352790977e-38
0.2941134988 -0.081565715 0.7952196123 1.344293222e-38
0.2941134988 -0.081565715 0.7937091423 1.344979158e-38
0.2941134988 -0.081565715 0.7921986723 1.345480963e-38
0.2621134988 -0.076824762 0.8985472323 1.307842226e-38
0.2591134788 -0.076521903 0.8978691523 1.20614229e-38
0.2541134788 -0.076017141 0.8977205723 1.206573609e-38
0.2541134788 -0.076017141 0.8962862923 1.207037719e-38
0.2531134888 -0.075916193 0.8951148623 1.114339023e-38
0.2511135188 -0.07571429 0.8942119923 1.022466393e-38
0.2491134888 -0.075512379 0.8933167723 1.012277131e-38
0.2461135188 -0.075209528 0.8926977023 1.002841628e-38
0.2441134888 -0.075007625 0.8918196223 9.660707157e-39
0.2441134888 -0.075007625 0.8904043723 9.293002236e-39
0.2431134988 -0.074906677 0.8892634223 9.015340551e-39
0.2411134688 -0.074704766 0.8884024723 8.645854579e-39
0.2411134688 -0.074704766 0.8869929523 9.38090709e-39
0.2231135188 -0.072887622 0.8906234123 1.01159582e-38
0.2231135188 -0.072887622 0.8892481723 1.08531617e-38
0.2231135188 -0.072887622 0.8878729423 1.159357418e-38
0.2231135188 -0.072887622 0.8864977023 1.242474736e-38
0.2231135188 -0.072887622 0.8851224623 1.334453725e-38
0.2211134888 -0.072685711 0.8843262923 1.398882065e-38
0.2211134888 -0.072685711 0.8829548623 1.4633481e-38
0.2211134888 -0.072685711 0.8815834223 1.472605218e-38
0.2211134888 -0.072685711 0.8802119923 1.491043223e-38
0.2211134888 -0.072685711 0.8788405623 1.481858973e-38
0.2211134888 -0.072685711 0.8774691523 1.481858272e-38
0.2211134888 -0.072685711 0.8760977223 1.463454599e-38
0.2231135188 -0.072887622 0.8741205623 1.454234616e-38
0.2231135188 -0.072887622 0.8727453123 1.296858148e-38
0.2231135188 -0.072887622 0.8713700723 1.140954165e-38
0.2231135188 -0.072887622 0.8699948423 1.187052541e-38
0.2211134888 -0.072685711 0.8692405623 1.242151596e-38
0.2211134888 -0.072685711 0.8678691523 1.251189411e-38
0.2211134888 -0.072685711 0.8664977223 1.260265481e-38
0.2211134888 -0.072685711 0.8651262823 1.260301494e-38
0.2211134888 -0.072685711 0.8637548523 1.269557771e-38
0.2211134888 -0.072685711 0.8623834223 1.278814048e-38
0.2211134888 -0.072685711 0.8610119923 1.297255136e-38
0.2231135188 -0.072887622 0.8589929323 1.306692041e-38
0.2231135188 -0.072887622 0.8576177023 1.31612334e-38
0.2231135188 -0.072887622 0.8562424623 1.297717144e-38
0.2241135088 -0.072988577 0.8545377023 1.279313331e-38
0.2271134688 -0.073291428 0.8521662723 1.233107756e-38
0.2271134688 -0.073291428 0.8507834323 1.177720734e-38
0.2301134888 -0.073594287 0.8483948623 1.214456334e-38
0.2301134888 -0.073594287 0.8470062823 1.251191093e-38
0.2321134688 -0.07379619 0.8449396323 1.288105218e-38
0.2331135088 -0.073897146 0.8432062723 1.334238345e-38
0.2331135088 -0.073897146 0.8418119923 1.361860881e-38
0.2351134888 -0.074099049 0.8397281923 1.398667246e-38
0.2351134888 -0.074099049 0.8383301023 1.417214132e-38
0.2371135188 -0.07430096 0.8362348223 1.435688571e-38
0.2381135088 -0.074401908 0.8344824723 1.4449796e-38
0.2381135088 -0.074401908 0.8330786323 1.454341955e-38
0.2401134788 -0.074603811 0.8309662723 1.435938562e-38
0.2411134688 -0.074704766 0.8292024823 1.417538673e-38
0.2431134988 -0.074906677 0.8270767723 1.463495517e-38
0.2461135188 -0.075209528 0.8245834223 1.509484031e-38
0.2461135188 -0.075209528 0.8231643523 1.527814416e-38
0.2941134988 -0.080055244 0.7982405523 1.380623427e-38
0.2941134988 -0.080055244 0.7967300823 1.36207542e-38
0.2941134988 -0.080055244 0.7952196123 1.334388004e-38
0.2941134988 -0.080055244 0.7937091423 1.316637616e-38
0.2941134988 -0.080055244 0.7921986723 1.298880783e-38
0.2941134988 -0.080055244 0.7906882023 1.336368739e-38
0.2591134788 -0.075078093 0.8978691523 1.206572769e-38
0.2541134788 -0.07458286 0.8977205723 1.206573329e-38
0.2531134888 -0.074483812 0.8965472423 1.206211934e-38
0.2511135188 -0.074285723 0.8956405623 1.022179547e-38
0.2491134888 -0.07408762 0.8947415323 8.472607846e-39
0.2461135188 -0.073790476 0.8941167423 8.835996768e-39
0.2441134888 -0.07359238 0.8932348623 9.202614281e-39
0.2441134888 -0.07359238 0.8918196223 8.467205841e-39
0.2431134988 -0.073493339 0.8906767623 7.821840636e-39
0.2431134988 -0.073493339 0.8892634223 8.00048517e-39
0.2401134788 -0.073196195 0.8886786623 8.278146856e-39
0.2381135088 -0.072998099 0.8878272323 8.83131503e-39
0.2231135188 -0.071512386 0.8906234123 9.474173312e-39
0.2231135188 -0.071512386 0.8892481723 1.020886849e-38
0.2231135188 -0.071512386 0.8878729423 1.094605378e-38
0.2231135188 -0.071512386 0.8864977023 1.20588319e-38
0.2231135188 -0.071512386 0.8851224623 1.325270175e-38
0.2211134888 -0.07131429 0.8843262923 1.417214132e-38
0.2211134888 -0.07131429 0.8829548623 1.518522126e-38
0.2211134888 -0.07131429 0.8815834223 1.537752144e-38
0.2211134888 -0.07131429 0.8802119923 1.555328911e-38
0.2211134888 -0.07131429 0.8788405623 1.509158929e-38
0.2211134888 -0.07131429 0.8774691523 1.463383693e-38
0.2211134888 -0.07131429 0.8760977223 1.463633825e-38
0.2231135188 -0.071512386 0.8741205623 1.463454179e-38
0.2231135188 -0.071512386 0.8727453123 1.297181428e-38
0.2231135188 -0.071512386 0.8713700723 1.131733902e-38
0.2231135188 -0.071512386 0.8699948423 1.187122045e-38
0.2231135188 -0.071512386 0.8686196023 1.242078028e-38
0.2231135188 -0.071512386 0.8672443623 1.25097291e-38
0.2211134888 -0.07131429 0.8664977223 1.26934071e-38
0.2211134888 -0.07131429 0.8651262823 1.269341411e-38
0.2211134888 -0.07131429 0.8637548523 1.278597408e-38
0.2211134888 -0.07131429 0.8623834223 1.269486445e-38
0.2211134888 -0.07131429 0.8610119923 1.269451973e-38
0.2231135188 -0.071512386 0.8589929323 1.269417501e-38
0.2231135188 -0.071512386 0.8576177023 1.27849147e-38
0.2231135188 -0.071512386 0.8562424623 1.223316464e-38
0.2261134788 -0.071809523 0.8538786723 1.167891746e-38
0.2291134988 -0.072106674 0.8515034323 1.121650718e-38
0.2301134888 -0.072205715 0.8497834323 1.076092684e-38
0.2321134688 -0.072403811 0.8477243723 1.122370145e-38
0.2331135088 -0.072502859 0.8459948423 1.16836006e-38
0.2331135088 -0.072502859 0.8446005723 1.214565355e-38
0.2351134888 -0.072700955 0.8425243923 1.269702946e-38
0.2351134888 -0.072700955 0.8411262723 1.306509311e-38
0.2371135188 -0.072899051 0.8390386823 1.343387003e-38
0.2381135088 -0.072998099 0.8372900923 1.3804442e-38
0.2401134788 -0.073196195 0.8351891423 1.417285879e-38
0.2401134788 -0.073196195 0.8337815223 1.417429231e-38
0.2401134788 -0.073196195 0.8323739023 1.426792007e-38
0.2411134688 -0.073295236 0.8306120123 1.399277091e-38
0.2431134988 -0.073493339 0.8284900923 1.371692391e-38
0.2431134988 -0.073493339 0.8270767723 1.4359792e-38
0.2431134988 -0.073493339 0.8256634323 1.509518783e-38
0.2481134988 -0.073988572 0.8224405723 1.500406279e-38
0.2531134888 -0.074483812 0.8191986823 1.500369845e-38
0.2531134888 -0.074483812 0.8177662923 1.472818776e-38
0.2531134888 -0.074483812 0.8163339023 1.454415383e-38
0.2941134988 -0.078544766 0.7982405523 1.408245401e-38
0.2941134988 -0.078544766 0.7967300823 1.371402883e-38
0.2941134988 -0.078544766 0.7952196123 1.334457088e-38
0.2941134988 -0.078544766 0.7937091423 1.297762406e-38
0.2941134988 -0.078544766 0.7921986723 1.261315754e-38
0.2941134988 -0.078544766 0.7906882023 1.307557062e-38
0.2541134788 -0.073148571 0.8977205723 1.142073102e-38
0.2531134888 -0.07305143 0.8965472423 1.114303991e-38
0.2511135188 -0.072857149 0.8956405623 9.849061289e-39
0.2481134988 -0.072565712 0.8950062823 8.647304923e-39
0.2461135188 -0.072371431 0.8941167423 8.739856483e-39
0.2441134888 -0.072177142 0.8932348623 8.924239335e-39
0.2441134888 -0.072177142 0.8918196223 8.280309059e-39
0.2431134988 -0.072080001 0.8906767623 7.636736115e-39
0.2431134988 -0.072080001 0.8892634223 7.816454044e-39
0.2401134788 -0.071788579 0.8886786623 8.094468857e-39
0.2401134788 -0.071788579 0.8872710423 8.646913961e-39
0.2381135088 -0.07159429 0.8864234223 9.107178849e-39
0.2231135188 -0.070137143 0.8892481723 9.657845706e-39
0.2231135188 -0.070137143 0.8878729423 1.020705661e-38
0.2231135188 -0.070137143 0.8864977023 1.150673572e-38
0.2211134888 -0.069942862 0.8856977223 1.270169018e-38
0.2211134888 -0.069942862 0.8843262923 1.380552661e-38
0.2211134888 -0.069942862 0.8829548623 1.500227894e-38
0.2211134888 -0.069942862 0.8815834223 1.509413545e-38
0.2211134888 -0.069942862 0.8802119923 1.518631427e-38
0.2211134888 -0.069942862 0.8788405623 1.481644574e-38
0.2211134888 -0.069942862 0.8774691523 1.444944988e-38
0.2211134888 -0.069942862 0.8760977223 1.435831924e-38
0.2231135188 -0.070137143 0.8741205623 1.417572444e-38
0.2231135188 -0.070137143 0.8727453123 1.315513214e-38
0.2231135188 -0.070137143 0.8713700723 1.214385007e-38
0.2231135188 -0.070137143 0.8699948423 1.242077608e-38
0.2231135188 -0.070137143 0.8686196023 1.278774672e-38
0.2231135188 -0.070137143 0.8672443623 1.297068904e-38
0.2231135188 -0.070137143 0.8658691323 1.315401251e-38
0.2211134888 -0.069942862 0.8651262823 1.296963666e-38
0.2231135188 -0.070137143 0.8631186423 1.269162465e-38
0.2231135188 -0.070137143 0.8617434123 1.269234912e-38
0.2231135188 -0.070137143 0.8603681723 1.269307079e-38
0.2231135188 -0.070137143 0.8589929323 1.140594452e-38
0.2241135088 -0.070234284 0.8572919923 1.021099987e-38
0.2241135088 -0.070234284 0.8559148423 1.002086609e-38
0.2271134688 -0.070525713 0.8535491523 9.922930738e-39
0.2301134888 -0.070817143 0.8511719923 1.020381821e-38
0.2321134688 -0.071011432 0.8491167723 1.048363509e-38
0.2331135088 -0.07110858 0.8473891123 1.085313508e-38
0.2371135188 -0.07149715 0.8446462823 1.131482789e-38
0.2371135188 -0.07149715 0.8432443723 1.177472844e-38
0.2371135188 -0.07149715 0.8418424523 1.232682322e-38
0.2371135188 -0.07149715 0.8404405523 1.269524841e-38
0.2381135088 -0.07159429 0.8386939023 1.315549928e-38
0.2401134788 -0.071788579 0.8365967723 1.352786212e-38
0.2401134788 -0.071788579 0.8351891423 1.398883186e-38
0.2411134688 -0.07188572 0.8334310423 1.417393778e-38
0.2411134688 -0.07188572 0.8320215123 1.435976257e-38
0.2431134988 -0.072080001 0.8299034023 1.435976397e-38
0.2441134888 -0.072177142 0.8281338923 1.426793548e-38
0.2461135188 -0.072371431 0.8260024623 1.49111497e-38
0.2481134988 -0.072565712 0.8238634023 1.555758129e-38
0.2491134888 -0.07266286 0.8220786523 1.518700791e-38
0.2541134788 -0.073148571 0.8188348823 1.482001905e-38
0.2541134788 -0.073148571 0.8174005523 1.463598512e-38
0.2541134788 -0.073148571 0.8159662623 1.445230713e-38
0.2541134788 -0.073148571 0.8145319923 1.42671956e-38
0.2921134688 -0.076839998 0.7989834323 1.408352601e-38
0.2941134988 -0.077034287 0.7967300823 1.389734529e-38
0.2941134988 -0.077034287 0.7952196123 1.37126023e-38
0.2941134988 -0.077034287 0.7937091423 1.334490719e-38
0.2941134988 -0.077034287 0.7921986723 1.297721488e-38
0.2921134688 -0.076839998 0.7914500923 1.316232921e-38
0.2921134688 -0.076839998 0.7899434423 1.343969522e-38
0.2531134888 -0.071619049 0.8994120023 1.160186987e-38
0.2511135188 -0.071428575 0.8984977123 1.086754183e-38
0.2511135188 -0.071428575 0.8970691423 1.021892981e-38
0.2511135188 -0.071428575 0.8956405623 9.568164005e-39
0.2481134988 -0.07114286 0.8950062823 8.924591061e-39
0.2461135188 -0.070952386 0.8941167423 8.74055433e-39
0.2441134888 -0.070761904 0.8932348623 8.648355897e-39
0.2441134888 -0.070761904 0.8918196223 8.003352227e-39
0.2431134988 -0.070666671 0.8906767623 7.450897314e-39
0.2411134688 -0.070476189 0.8898120023 7.724243e-39
0.2401134788 -0.070380956 0.8886786623 8.001904686e-39
0.2401134788 -0.070380956 0.8872710423 8.371043135e-39
0.2381135088 -0.070190482 0.8864234223 8.830946488e-39
0.2241135088 -0.068857148 0.8889662923 9.198655613e-39
0.2231135188 -0.068761908 0.8878729423 9.564917197e-39
0.2231135188 -0.068761908 0.8864977023 1.086280684e-38
0.2211134888 -0.068571426 0.8856977223 1.224286582e-38
0.2211134888 -0.068571426 0.8843262923 1.353109071e-38
0.2211134888 -0.068571426 0.8829548623 1.481680167e-38
0.2211134888 -0.068571426 0.8815834223 1.482148061e-38
0.2211134888 -0.068571426 0.8802119923 1.491043924e-38
0.2211134888 -0.068571426 0.8788405623 1.463313348e-38
0.2211134888 -0.068571426 0.8774691523 1.435654099e-38
0.2211134888 -0.068571426 0.8760977223 1.407994989e-38
0.2231135188 -0.068761908 0.8741205623 1.380085188e-38
0.2231135188 -0.068761908 0.8727453123 1.34302785e-38
0.2241135088 -0.068857148 0.8710634223 1.306328123e-38
0.2231135188 -0.068761908 0.8699948423 1.306398609e-38
0.2241135088 -0.068857148 0.8683091323 1.315509571e-38
0.2231135188 -0.068761908 0.8672443623 1.3429519e-38
0.2231135188 -0.068761908 0.8658691323 1.37050395e-38
0.2231135188 -0.068761908 0.8644938923 1.315440067e-38
0.2231135188 -0.068761908 0.8631186423 1.269234632e-38
0.2231135188 -0.068761908 0.8617434123 1.269126452e-38
0.2261134788 -0.069047615 0.8594024723 1.269126872e-38
0.2261134788 -0.069047615 0.8580215123 1.011198692e-38
0.2271134688 -0.069142856 0.8563148523 7.627755193e-39
0.2291134988 -0.069333337 0.8542767423 7.898947084e-39
0.2301134888 -0.069428571 0.8525605723 8.180913558e-39
0.2331135088 -0.069714293 0.8501777023 9.191106818e-39
0.2351134888 -0.06990476 0.8481167523 1.020632514e-38
0.2371135188 -0.070095241 0.8460481723 1.057582512e-38
0.2381135088 -0.070190482 0.8443091323 1.103966892e-38
0.2381135088 -0.070190482 0.8429053223 1.149777301e-38
0.2381135088 -0.070190482 0.8415015123 1.196054622e-38
0.2381135088 -0.070190482 0.8400977023 1.241973351e-38
0.2401134788 -0.070380956 0.8380043923 1.288250112e-38
0.2411134688 -0.070476189 0.8362500823 1.334347507e-38
0.2411134688 -0.070476189 0.8348405723 1.38055196e-38
0.2431134988 -0.070666671 0.8327300623 1.417393498e-38
0.2431134988 -0.070666671 0.8313167523 1.454307343e-38
0.2461135188 -0.070952386 0.8288405623 1.472818216e-38
0.2461135188 -0.070952386 0.8274215023 1.491150002e-38
0.2481134988 -0.07114286 0.8252862823 1.54625172e-38
0.2491134888 -0.071238101 0.8235034123 1.610500414e-38
0.2511135188 -0.071428575 0.8213548423 1.537031737e-38
0.2531134888 -0.071619049 0.8191986823 1.472711016e-38
0.2561135088 -0.071904771 0.8166691523 1.454343917e-38
0.2561135088 -0.071904771 0.8152310323 1.445123794e-38
0.2561135088 -0.071904771 0.8137929223 1.426720261e-38
0.2941134988 -0.075523809 0.7982405523 1.417392938e-38
0.2961134788 -0.075714283 0.7959834123 1.408101628e-38
0.2941134988 -0.075523809 0.7952196123 1.407958556e-38
0.2961134788 -0.075714283 0.7929548423 1.371296664e-38
0.2941134988 -0.075523809 0.7921986723 1.343638256e-38
0.2941134988 -0.075523809 0.7906882023 1.334095833e-38
0.2961134788 -0.075714283 0.7884120123 1.325489619e-38
0.2961134788 -0.075714283 0.7868977323 1.28872291e-38
0.2511135188 -0.070000008 0.8999262723 1.022611287e-38
0.2511135188 -0.070000008 0.8984977123 9.852665429e-39
0.2511135188 -0.070000008 0.8970691423 9.57068354e-39
0.2511135188 -0.070000008 0.8956405623 9.110413046e-39
0.2491134888 -0.069813333 0.8947415323 8.741982253e-39
0.2461135188 -0.069533341 0.8941167423 8.648699215e-39
0.2441134888 -0.069346666 0.8932348623 8.556503585e-39
0.2441134888 -0.069346666 0.8918196223 8.186650474e-39
0.2431134988 -0.069253333 0.8906767623 7.724953459e-39
0.2411134688 -0.069066674 0.8898120023 7.908974775e-39
0.2401134788 -0.06897334 0.8886786623 8.093370239e-39
0.2401134788 -0.06897334 0.8872710423 8.370320065e-39
0.2381135088 -0.068786673 0.8864234223 8.646908356e-39
0.2231135188 -0.067386672 0.8892481723 9.014614678e-39
0.2231135188 -0.067386672 0.8878729423 9.290479899e-39
0.2231135188 -0.067386672 0.8864977023 1.021242218e-38
0.2211134888 -0.067200005 0.8856977223 1.113437848e-38
0.2211134888 -0.067200005 0.8843262923 1.288285565e-38
0.2211134888 -0.067200005 0.8829548623 1.453984904e-38
0.2211134888 -0.067200005 0.8815834223 1.463312788e-38
0.2211134888 -0.067200005 0.8802119923 1.463492434e-38
0.2211134888 -0.067200005 0.8788405623 1.4355476e-38
0.2211134888 -0.067200005 0.8774691523 1.417000434e-38
0.2211134888 -0.067200005 0.8760977223 1.407744577e-38
0.2231135188 -0.067386672 0.8741205623 1.398057962e-38
0.2231135188 -0.067386672 0.8727453123 1.370578359e-38
0.2241135088 -0.067480005 0.8710634223 1.352317758e-38
0.2241135088 -0.067480005 0.8696862723 1.315546565e-38
0.2241135088 -0.067480005 0.8683091323 1.287959763e-38
0.2231135188 -0.067386672 0.8672443623 1.296999539e-38
0.2241135088 -0.067480005 0.8655548523 1.315440067e-38
0.2231135188 -0.067386672 0.8644938923 1.26941638e-38
0.2241135088 -0.067480005 0.8628005623 1.232608474e-38
0.2241135088 -0.067480005 0.8614234323 1.250650892e-38
0.2261134788 -0.067666672 0.8594024723 1.278130075e-38
0.2271134688 -0.067759998 0.8576977223 1.158385618e-38
0.2271134688 -0.067759998 0.8563148523 1.037921874e-38
0.2321134688 -0.068226665 0.8532939023 1.047534641e-38
0.2331135088 -0.068320006 0.8515719923 1.057185104e-38
0.2351134888 -0.068506666 0.8495148523 1.066369354e-38
0.2371135188 -0.06869334 0.8474500723 1.084772887e-38
0.2381135088 -0.068786673 0.8457129423 1.112790448e-38
0.2401134788 -0.06897334 0.8436348423 1.140735703e-38
0.2401134788 -0.06897334 0.8422272323 1.186653591e-38
0.2401134788 -0.06897334 0.8408196123 1.232931333e-38
0.2401134788 -0.06897334 0.8394119823 1.278922089e-38
0.2411134688 -0.069066674 0.8376596123 1.325235143e-38
0.2431134988 -0.069253333 0.8355567523 1.362005915e-38
0.2431134988 -0.069253333 0.8341434123 1.389771383e-38
0.2431134988 -0.069253333 0.8327300623 1.408209808e-38
0.2461135188 -0.069533341 0.8302596023 1.435904371e-38
0.2481134988 -0.06972 0.8281320123 1.445052467e-38
0.2481134988 -0.06972 0.8267091323 1.463419847e-38
0.2491134888 -0.069813333 0.8249281723 1.500190199e-38
0.2511135188 -0.070000008 0.8227833923 1.527776441e-38
0.2531134888 -0.070186675 0.8206310423 1.481786806e-38
0.2541134788 -0.070280001 0.8188348823 1.445017155e-38
0.2561135088 -0.070466675 0.8166691523 1.426614603e-38
0.2571134988 -0.070560001 0.8148634223 1.417394479e-38
0.2571134988 -0.070560001 0.8134234323 1.408138623e-38
0.2571134988 -0.070560001 0.8119834223 1.408066316e-38
0.2941134988 -0.074013337 0.7967300823 1.426396981e-38
0.2941134988 -0.074013337 0.7952196123 1.444692754e-38
0.2941134988 -0.074013337 0.7937091423 1.407959116e-38
0.2921134688 -0.073826663 0.7929567823 1.380407346e-38
0.2941134988 -0.074013337 0.7906882023 1.371258549e-38
0.2961134788 -0.074200004 0.7884120123 1.362146746e-38
0.2991134988 -0.074480005 0.7857433923 1.325412687e-38
0.2991134988 -0.074480005 0.7842234223 1.297903517e-38
0.2991134988 -0.074480005 0.7827034123 1.289407304e-38
0.2991134988 -0.074480005 0.7811834023 1.290091698e-38
0.2531134888 -0.068754286 0.8994120023 8.840686914e-39
0.2531134888 -0.068754286 0.8979796123 8.929642742e-39
0.2511135188 -0.068571433 0.8970691423 9.020029295e-39
0.2511135188 -0.068571433 0.8956405623 8.74522766e-39
0.2491134888 -0.068388566 0.8947415323 8.557598e-39
0.2461135188 -0.068114288 0.8941167423 8.556867923e-39
0.2441134888 -0.067931429 0.8932348623 8.555786121e-39
0.2441134888 -0.067931429 0.8918196223 8.278121633e-39
0.2441134888 -0.067931429 0.8904043723 8.094090507e-39
0.2411134688 -0.067657143 0.8898120023 8.185564468e-39
0.2411134688 -0.067657143 0.8884024723 8.277404168e-39
0.2401134788 -0.067565717 0.8872710423 8.369604001e-39
0.2401134788 -0.067565717 0.8858634323 8.55399386e-39
0.2241135088 -0.066102862 0.8889662923 8.830219215e-39
0.2231135188 -0.066011429 0.8878729423 9.105372576e-39
0.2231135188 -0.066011429 0.8864977023 9.564557063e-39
0.2231135188 -0.066011429 0.8851224623 1.011665605e-38
0.2211134888 -0.065828577 0.8843262923 1.222995846e-38
0.2211134888 -0.065828577 0.8829548623 1.435042572e-38
0.2211134888 -0.065828577 0.8815834223 1.435616404e-38
0.2211134888 -0.065828577 0.8802119923 1.444657021e-38
0.2211134888 -0.065828577 0.8788405623 1.41696344e-38
0.2211134888 -0.065828577 0.8774691523 1.398452427e-38
0.2231135188 -0.066011429 0.8754957923 1.407492204e-38
0.2241135088 -0.066102862 0.8738177123 1.425930068e-38
0.2241135088 -0.066102862 0.8724405623 1.407633875e-38
0.2261134788 -0.066285722 0.8704500923 1.398378158e-38
0.2241135088 -0.066102862 0.8696862723 1.324873468e-38
0.2261134788 -0.066285722 0.8676881923 1.260409254e-38
0.2241135088 -0.066102862 0.8669320023 1.260265901e-38
0.2241135088 -0.066102862 0.8655548523 1.260087796e-38
0.2241135088 -0.066102862 0.8641777123 1.223175493e-38
0.2261134788 -0.066285722 0.8621643723 1.195552117e-38
0.2271134688 -0.066377141 0.8604634323 1.241397137e-38
0.2271134688 -0.066377141 0.8590805823 1.296426408e-38
0.2291134988 -0.06656 0.8570500823 1.305573804e-38
0.2301134888 -0.066651426 0.8553377023 1.324155022e-38
0.2321134688 -0.066834286 0.8532939023 1.306037914e-38
0.2331135088 -0.066925719 0.8515719923 1.296603532e-38
0.2351134888 -0.067108572 0.8495148523 1.222884163e-38
0.2371135188 -0.067291431 0.8474500723 1.149524227e-38
0.2401134788 -0.067565717 0.8450424623 1.167999646e-38
0.2411134688 -0.067657143 0.8432977323 1.186510378e-38
0.2411134688 -0.067657143 0.8418882023 1.232715393e-38
0.2411134688 -0.067657143 0.8404786723 1.279028447e-38
0.2411134688 -0.067657143 0.8390691723 1.325054656e-38
0.2431134988 -0.067840002 0.8369701023 1.371223797e-38
0.2441134888 -0.067931429 0.8352100623 1.389662923e-38
0.2441134888 -0.067931429 0.8337948423 1.408137782e-38
0.2461135188 -0.068114288 0.8316786423 1.408209808e-38
0.2461135188 -0.068114288 0.8302596023 1.417429792e-38
0.2481134988 -0.068297148 0.8281320123 1.426649775e-38
0.2481134988 -0.068297148 0.8267091323 1.445053869e-38
0.2491134888 -0.068388566 0.8249281723 1.445090723e-38
0.2511135188 -0.068571433 0.8227833923 1.454237558e-38
0.2531134888 -0.068754286 0.8206310423 1.435869478e-38
0.2541134788 -0.068845719 0.8188348823 1.417430493e-38
0.2561135088 -0.069028571 0.8166691523 1.408246803e-38
0.2591134788 -0.069302864 0.8141281723 1.39902696e-38
0.2591134788 -0.069302864 0.8126844023 1.398990806e-38
0.2591134788 -0.069302864 0.8112405923 1.398918639e-38
0.2901134888 -0.072137147 0.7982234123 1.444728487e-38
0.2901134888 -0.072137147 0.7967205423 1.490610923e-38
0.2901134888 -0.072137147 0.7952177323 1.453877285e-38
0.2901134888 -0.072137147 0.7937148623 1.417178399e-38
0.2941134988 -0.072502859 0.7906882023 1.408101908e-38
0.2961134788 -0.072685711 0.7884120123 1.408137501e-38
0.2981135088 -0.072868578 0.7861282023 1.371474769e-38
0.2981135088 -0.072868578 0.7846100723 1.34378371e-38
0.2991134988 -0.072960004 0.7827034123 1.343858399e-38
0.3011134688 -0.073142856 0.7804024923 1.344255107e-38
0.3011134688 -0.073142856 0.7788786723 1.280367108e-38
0.2891135088 -0.070544764 0.8946577123 1.104619617e-38
0.2871134688 -0.070365719 0.8936634323 1.058809068e-38
0.2851134988 -0.070186675 0.8926767523 9.573233903e-39
0.2851134988 -0.070186675 0.8911834323 8.650558738e-39
0.2511135188 -0.067142867 0.8984977123 8.559067962e-39
0.2491134888 -0.066963814 0.8975910323 8.467941523e-39
0.2491134888 -0.066963814 0.8961662723 8.190991697e-39
0.2481134988 -0.066874288 0.8950062823 7.914037667e-39
0.2461135188 -0.066695243 0.8941167423 8.188814079e-39
0.2461135188 -0.066695243 0.8926977023 8.463591892e-39
0.2441134888 -0.066516191 0.8918196223 8.371746587e-39
0.2441134888 -0.066516191 0.8904043723 8.280274027e-39
0.2431134988 -0.066426665 0.8892634223 8.371754995e-39
0.2411134688 -0.06624762 0.8884024723 8.46323316e-39
0.2411134688 -0.06624762 0.8869929523 8.645470624e-39
0.2401134788 -0.066158101 0.8858634323 8.735150923e-39
0.2371135188 -0.06588953 0.8853015123 8.826983616e-39
0.2241135088 -0.064725719 0.8875891423 9.01066722e-39
0.2241135088 -0.064725719 0.8862120023 9.195787155e-39
0.2231135188 -0.064636193 0.8851224623 9.379462351e-39
0.2231135188 -0.064636193 0.8837472123 1.121833027e-38
0.2211134888 -0.064457141 0.8829548623 1.305897644e-38
0.2231135188 -0.064636193 0.8809967423 1.324765988e-38
0.2211134888 -0.064457141 0.8802119923 1.343636013e-38
0.2231135188 -0.064636193 0.8782462723 1.343349868e-38
0.2231135188 -0.064636193 0.8768710323 1.352282165e-38
0.2231135188 -0.064636193 0.8754957923 1.315619573e-38
0.2241135088 -0.064725719 0.8738177123 1.278992013e-38
0.2261134788 -0.064904764 0.8718310523 1.260659806e-38
0.2271134688 -0.06499429 0.8701434223 1.233181044e-38
0.2271134688 -0.06499429 0.8687605823 1.223603169e-38
0.2271134688 -0.06499429 0.8673777123 1.214061308e-38
0.2271134688 -0.06499429 0.8659948523 1.241469024e-38
0.2271134688 -0.06499429 0.8646120123 1.259693471e-38
0.2271134688 -0.06499429 0.8632291523 1.278097284e-38
0.2271134688 -0.06499429 0.8618462823 1.287316567e-38
0.2291134988 -0.065173343 0.8598234123 1.296679483e-38
0.2291134988 -0.065173343 0.8584367623 1.296857868e-38
0.2291134988 -0.065173343 0.8570500823 1.278489928e-38
0.2301134888 -0.065262854 0.8553377023 1.250938298e-38
0.2321134688 -0.065441899 0.8532939023 1.287671656e-38
0.2321134688 -0.065441899 0.8519015423 1.315257898e-38
0.2331135088 -0.065531433 0.8501777023 1.306110081e-38
0.2371135188 -0.06588953 0.8474500723 1.306182809e-38
0.2411134688 -0.06624762 0.8447072323 1.296785001e-38
0.2411134688 -0.06624762 0.8432977323 1.296570041e-38
0.2431134988 -0.066426665 0.8412101123 1.297036674e-38
0.2431134988 -0.066426665 0.8397967623 1.297610926e-38
0.2431134988 -0.066426665 0.8383834223 1.325233601e-38
0.2441134888 -0.066516191 0.8366253523 1.352963476e-38
0.2441134888 -0.066516191 0.8352100623 1.371366449e-38
0.2461135188 -0.066695243 0.8330977123 1.389770122e-38
0.2461135188 -0.066695243 0.8316786423 1.389806836e-38
0.2461135188 -0.066695243 0.8302596023 1.389807537e-38
0.2481134988 -0.066874288 0.8281320123 1.398991927e-38
0.2491134888 -0.066963814 0.8263529323 1.408213172e-38
0.2511135188 -0.067142867 0.8242119623 1.40817912e-38
0.2531134888 -0.067321904 0.8220634223 1.417360988e-38
0.2541134788 -0.06741143 0.8202691523 1.408175897e-38
0.2541134788 -0.06741143 0.8188348823 1.39902738e-38
0.2571134988 -0.067680001 0.8163034123 1.380695453e-38
0.2571134988 -0.067680001 0.8148634223 1.371511764e-38
0.2611135088 -0.068038099 0.8119453323 1.37147589e-38
0.2611135088 -0.068038099 0.8104977123 1.380623427e-38
0.2891135088 -0.070544764 0.7985967523 1.398847033e-38
0.2891135088 -0.070544764 0.7970958123 1.426290622e-38
0.2901134888 -0.070634283 0.7952177323 1.41717938e-38
0.2921134688 -0.070813335 0.7929567823 1.417215253e-38
0.2941134988 -0.070992388 0.7906882023 1.417251126e-38
0.2961134788 -0.071171433 0.7884120123 1.426541735e-38
0.2981135088 -0.071350485 0.7861282023 1.38055168e-38
0.2981135088 -0.071350485 0.7846100723 1.343781889e-38
0.2991134988 -0.071440004 0.7827034123 1.353001732e-38
0.3011134688 -0.071619049 0.7804024923 1.352895513e-38
0.3031135088 -0.071798094 0.7780939123 1.29804687e-38
0.3031135088 -0.071798094 0.7765662823 1.252380935e-38
0.2891135088 -0.069043808 0.8946577123 1.114914397e-38
0.2891135088 -0.069043808 0.8931567523 1.068422256e-38
0.2871134688 -0.068868577 0.8921662823 9.566766911e-39
0.2871134688 -0.068868577 0.8906691523 8.555836567e-39
0.2511135188 -0.065714292 0.8984977123 8.279948926e-39
0.2511135188 -0.065714292 0.8970691423 8.009096149e-39
0.2491134888 -0.065539047 0.8961662723 7.638517165e-39
0.2481134988 -0.065451436 0.8950062823 7.27009478e-39
0.2461135188 -0.065276198 0.8941167423 7.820386088e-39
0.2461135188 -0.065276198 0.8926977023 8.372109523e-39
0.2441134888 -0.065100953 0.8918196223 8.372459848e-39
0.2441134888 -0.065100953 0.8904043723 8.463940815e-39
0.2431134988 -0.065013342 0.8892634223 8.557215445e-39
0.2411134688 -0.064838096 0.8884024723 8.73945431e-39
0.2411134688 -0.064838096 0.8869929523 8.82985768e-39
0.2401134788 -0.064750478 0.8858634323 9.013524468e-39
0.2331135088 -0.064137146 0.8864291423 8.921686169e-39
0.2271134688 -0.063611425 0.8867377123 8.920975711e-39
0.2261134788 -0.063523814 0.8856405723 8.828431158e-39
0.2241135088 -0.063348576 0.8848348523 8.73659426e-39
0.2231135188 -0.063260958 0.8837472123 1.029851516e-38
0.2231135188 -0.063260958 0.8823719923 1.186330592e-38
0.2231135188 -0.063260958 0.8809967423 1.21409648e-38
0.2231135188 -0.063260958 0.8796215023 1.241719716e-38
0.2231135188 -0.063260958 0.8782462723 1.278526502e-38
0.2241135088 -0.063348576 0.8765719923 1.314973014e-38
0.2261134788 -0.063523814 0.8745929523 1.222885844e-38
0.2271134688 -0.063611425 0.8729091523 1.140053971e-38
0.2271134688 -0.063611425 0.8715262823 1.103139986e-38
0.2291134988 -0.063786671 0.8695300923 1.075805277e-38
0.2291134988 -0.063786671 0.8681434223 1.121938825e-38
0.2291134988 -0.063786671 0.8667567523 1.17700481e-38
0.2291134988 -0.063786671 0.8653700923 1.222923119e-38
0.2291134988 -0.063786671 0.8639834223 1.2690924e-38
0.2291134988 -0.063786671 0.8625967623 1.324839837e-38
0.2291134988 -0.063786671 0.8612100923 1.389088951e-38
0.2301134888 -0.063874289 0.8595034123 1.34313547e-38
0.2301134888 -0.063874289 0.8581148523 1.306329104e-38
0.2301134888 -0.063874289 0.8567262723 1.242008103e-38
0.2301134888 -0.063874289 0.8553377023 1.186798766e-38
0.2301134888 -0.063874289 0.8539491423 1.260158982e-38
0.2321134688 -0.06404952 0.8519015423 1.342810789e-38
0.2321134688 -0.06404952 0.8505091523 1.397696707e-38
0.2371135188 -0.064487621 0.8474500723 1.462304553e-38
0.2441134888 -0.065100953 0.8437015223 1.435041031e-38
0.2431134988 -0.065013342 0.8426233923 1.416566031e-38
0.2441134888 -0.065100953 0.8408710423 1.370576257e-38
0.2441134888 -0.065100953 0.8394557923 1.324981508e-38
0.2461135188 -0.065276198 0.8373548523 1.334488057e-38
0.2461135188 -0.065276198 0.8359357823 1.343672167e-38
0.2461135188 -0.065276198 0.8345167423 1.362362686e-38
0.2481134988 -0.065451436 0.8324005723 1.380586572e-38
0.2481134988 -0.065451436 0.8309776923 1.371439316e-38
0.2491134888 -0.065539047 0.8292024823 1.362256327e-38
0.2491134888 -0.065539047 0.8277776923 1.371440578e-38
0.2511135188 -0.065714292 0.8256405423 1.380589515e-38
0.2541134788 -0.065977141 0.8231377123 1.380554903e-38
0.2541134788 -0.065977141 0.8217034423 1.380553782e-38
0.2561135088 -0.066152386 0.8195453123 1.380552801e-38
0.2571134988 -0.066239998 0.8177434023 1.380623987e-38
0.2591134788 -0.066415235 0.8155719723 1.362328214e-38
0.2591134788 -0.066415235 0.8141281723 1.343960694e-38
0.2611135088 -0.066590481 0.8119453323 1.353179697e-38
0.2611135088 -0.066590481 0.8104977123 1.362255767e-38
0.2891135088 -0.069043808 0.7985967523 1.36218402e-38
0.2891135088 -0.069043808 0.7970958123 1.371332397e-38
0.2901134888 -0.069131434 0.7952177323 1.389700197e-38
0.2921134688 -0.069306672 0.7929567823 1.41717994e-38
0.2941134988 -0.069481902 0.7906882023 1.426328317e-38
0.2961134788 -0.069657139 0.7884120123 1.444658422e-38
0.2961134788 -0.069657139 0.7868977323 1.398739693e-38
0.2981135088 -0.069832385 0.7846100723 1.352965298e-38
0.2991134988 -0.069919996 0.7827034123 1.362292201e-38
0.3011134688 -0.070095234 0.7804024923 1.371333238e-38
0.3031135088 -0.070270479 0.7780939123 1.325308991e-38
0.3031135088 -0.070270479 0.7765662823 1.279463971e-38
0.2891135088 -0.067542858 0.8946577123 1.188274473e-38
0.2871134688 -0.067371428 0.8936634323 1.142356164e-38
0.2871134688 -0.067371428 0.8921662823 1.068241489e-38
0.2851134988 -0.067200005 0.8911834323 1.00330784e-38
0.2491134888 -0.064114287 0.8990158123 1.003161405e-38
0.2491134888 -0.064114287 0.8975910323 9.93833381e-39
0.2491134888 -0.064114287 0.8961662723 8.833069456e-39
0.2491134888 -0.064114287 0.8947415323 7.727819114e-39
0.2461135188 -0.063857146 0.8941167423 8.004407405e-39
0.2461135188 -0.063857146 0.8926977023 8.280984485e-39
0.2461135188 -0.063857146 0.8912786523 8.280621549e-39
0.2441134888 -0.063685715 0.8904043723 8.188431524e-39
0.2441134888 -0.063685715 0.8889891423 8.280629957e-39
0.2431134988 -0.063600004 0.8878500823 8.464662484e-39
0.2411134688 -0.063428566 0.8869929523 8.83164994e-39
0.2401134788 -0.063342862 0.8858634323 9.290464485e-39
0.2401134788 -0.063342862 0.8844558123 9.107149422e-39
0.2381135088 -0.063171431 0.8836158023 8.923838564e-39
0.2271134688 -0.062228575 0.8853548623 8.830210807e-39
0.2241135088 -0.061971433 0.8848348523 8.828770272e-39
0.2241135088 -0.061971433 0.8834577023 9.380853841e-39
0.2231135188 -0.061885718 0.8823719923 1.002478692e-38
0.2241135088 -0.061971433 0.8807034123 1.029994448e-38
0.2241135088 -0.061971433 0.8793262623 1.057510065e-38
0.2241135088 -0.061971433 0.8779491323 1.084954075e-38
0.2261134788 -0.062142856 0.8759739023 1.112431856e-38
0.2271134688 -0.062228575 0.8742920123 1.094171256e-38
0.2291134988 -0.062400002 0.8723034223 1.0845931e-38
0.2291134988 -0.062400002 0.8709167523 1.09399203e-38
0.2301134888 -0.062485714 0.8692234223 1.09420825e-38
0.2301134888 -0.062485714 0.8678348423 1.140234739e-38
0.2301134888 -0.062485714 0.8664462823 1.18629654e-38
0.2301134888 -0.062485714 0.8650577023 1.222959693e-38
0.2301134888 -0.062485714 0.8636691423 1.260160103e-38
0.2301134888 -0.062485714 0.8622805623 1.306436584e-38
0.2301134888 -0.062485714 0.8608919923 1.361538162e-38
0.2301134888 -0.062485714 0.8595034123 1.324696764e-38
0.2301134888 -0.062485714 0.8581148523 1.288321578e-38
0.2301134888 -0.062485714 0.8567262723 1.260591843e-38
0.2301134888 -0.062485714 0.8553377023 1.232897562e-38
0.2301134888 -0.062485714 0.8539491423 1.287855366e-38
0.2301134888 -0.062485714 0.8525605723 1.352032454e-38
0.2291134988 -0.062400002 0.8515034323 1.425536584e-38
0.2291134988 -0.062400002 0.8501167523 1.499040153e-38
0.2291134988 -0.062400002 0.8487300823 1.462556507e-38
0.2291134988 -0.062400002 0.8473434223 1.43504075e-38
0.2461135188 -0.063857146 0.8401929223 1.361571513e-38
0.2481134988 -0.064028576 0.8380919823 1.288103116e-38
0.2491134888 -0.064114287 0.8363262823 1.297466032e-38
0.2511135188 -0.064285718 0.8342119823 1.306865942e-38
0.2511135188 -0.064285718 0.8327834123 1.306938949e-38
0.2511135188 -0.064285718 0.8313548423 1.316194105e-38
0.2511135188 -0.064285718 0.8299262623 1.316229979e-38
0.2531134888 -0.064457141 0.8277929523 1.307118596e-38
0.2531134888 -0.064457141 0.8263605623 1.325378636e-38
0.2531134888 -0.064457141 0.8249281723 1.343638816e-38
0.2541134788 -0.06454286 0.8231377123 1.34367539e-38
0.2561135088 -0.06471429 0.8209834223 1.352894392e-38
0.2571134988 -0.064800002 0.8191834223 1.343818042e-38
0.2591134788 -0.064971432 0.8170158123 1.343889508e-38
0.2611135088 -0.065142855 0.8148405623 1.334741552e-38
0.2611135088 -0.065142855 0.8133929523 1.334776724e-38
0.2621134988 -0.065228574 0.8115758123 1.3439237e-38
0.2871134688 -0.067371428 0.8008405723 1.353071517e-38
0.2871134688 -0.067371428 0.7993434523 1.362255346e-38
0.2871134688 -0.067371428 0.7978463023 1.371439737e-38
0.2901134888 -0.06762857 0.7952177323 1.398847733e-38
0.2921134688 -0.0678 0.7929567823 1.417072881e-38
0.2941134988 -0.067971431 0.7906882023 1.453808621e-38
0.2961134788 -0.068142861 0.7884120123 1.490469391e-38
0.2961134788 -0.068142861 0.7868977323 1.444657722e-38
0.2981135088 -0.068314292 0.7846100723 1.389699216e-38
0.2991134988 -0.068399996 0.7827034123 1.389806275e-38
0.3011134688 -0.068571426 0.7804024923 1.380623427e-38
0.3031135088 -0.068742864 0.7780939123 1.343710563e-38
0.3051134788 -0.068914287 0.7757777123 1.306870005e-38
0.3051134788 -0.068914287 0.7742462823 1.21525101e-38
0.2891135088 -0.066041909 0.8946577123 1.271000128e-38
0.2851134988 -0.06570667 0.8941701023 1.215897989e-38
0.2831135188 -0.065539055 0.8931872223 1.188382513e-38
0.2811134888 -0.065371424 0.8922120023 1.160616205e-38
0.2491134888 -0.062689528 0.8990158123 1.178767644e-38
0.2491134888 -0.062689528 0.8975910323 1.196846356e-38
0.2481134988 -0.062605716 0.8964291323 1.01292285e-38
0.2491134888 -0.062689528 0.8947415323 8.285676033e-39
0.2481134988 -0.062605716 0.8935834323 8.27703983e-39
0.2461135188 -0.062438101 0.8926977023 8.277399964e-39
0.2481134988 -0.062605716 0.8907377123 8.094089105e-39
0.2461135188 -0.062438101 0.8898596023 8.003332609e-39
0.2441134888 -0.062270477 0.8889891423 8.096248506e-39
0.2441134888 -0.062270477 0.8875739123 8.188451143e-39
0.2441134888 -0.062270477 0.8861586723 8.923862386e-39
0.2431134988 -0.06218667 0.8850234223 9.65781768e-39
0.2411134688 -0.06201905 0.8841738923 9.293334344e-39
0.2401134788 -0.061935242 0.8830482023 8.923839965e-39
0.2401134788 -0.061935242 0.8816405623 8.923839965e-39
