# .PCD v0.7 - Point Cloud Data file format
VERSION 0.7
FIELDS x y z rgb
SIZE 4 4 4 4
TYPE F F F F
COUNT 1 1 1 1
WIDTH 861
HEIGHT 1
VIEWPOINT 0 0 0 1 0 0 0
POINTS 861
DATA ascii
0.33180189 -0.002368325344 0.8130555184 1.463059433e-38
0.33335239 -0.002368325344 0.8130555184 1.509047947e-38
0.33490285 -0.002368325344 0.8130555184 1.453909935e-38
0.33686668 -0.003368375344 0.813063138 1.398918079e-38
0.33841908 -0.003368375344 0.813063138 1.380517068e-38
0.34080571 -0.005368345344 0.8130783759 1.362041228e-38
0.3432 -0.007368385344 0.8130936142 1.334453725e-38
0.34560192 -0.009368355344 0.813108852 1.316086906e-38
0.34801143 -0.01136832534 0.8131240899 1.288536678e-38
0.34957907 -0.01136832534 0.8131240899 1.269990492e-38
0.35200003 -0.01336836534 0.8131393282 1.242224884e-38
0.35357144 -0.01336836534 0.8131393282 1.214496271e-38
0.35514289 -0.01336836534 0.8131393282 1.177620121e-38
0.28422859 -0.01736837534 0.8147488524 9.482752061e-39
0.28580764 -0.01736837534 0.8147488524 9.666434264e-39
0.28738669 -0.01736837534 0.8147488524 9.8504766e-39
0.28896573 -0.01736837534 0.8147488524 1.003487767e-38
0.2898438 -0.01536833534 0.814729805 9.944132383e-39
0.29071432 -0.01336836534 0.8147107566 9.946979822e-39
0.29157713 -0.01136832534 0.8146917092 8.835247073e-39
0.29314476 -0.01136832534 0.8146917092 7.821826623e-39
0.29399621 -0.009368355344 0.8146726609 8.005496214e-39
0.29484004 -0.007368385344 0.814653614 8.281002702e-39
0.29640004 -0.007368385344 0.814653614 8.466110025e-39
0.29723239 -0.005368345344 0.8146345661 8.742338183e-39
0.29805717 -0.003368375344 0.8146155191 9.202596065e-39
0.2992419 -0.002368325344 0.814605995 9.662851144e-39
0.30079237 -0.002368325344 0.814605995 1.021458439e-38
0.30234283 -0.002368325344 0.814605995 1.076632324e-38
0.30314669 -0.0003683553436 0.8145869476 1.10436318e-38
0.30469334 -0.0003683553436 0.8145869476 1.141311637e-38
0.30623999 -0.0003683553436 0.8145869476 1.168933051e-38
0.30778667 -0.0003683553436 0.8145869476 1.196519293e-38
0.30933335 -0.0003683553436 0.8145869476 1.187335463e-38
0.31011429 0.001631624656 0.8145678997 1.178152614e-38
0.31242666 -0.0003683553436 0.8145869476 1.224142809e-38
0.31397337 -0.0003683553436 0.8145869476 1.270133004e-38
0.31396571 0.003631654656 0.8145488518 1.288465071e-38
0.31628576 0.001631624656 0.8145678997 1.306832451e-38
0.3178286 0.001631624656 0.8145678997 1.325235844e-38
0.31937146 0.001631624656 0.8145678997 1.343674409e-38
0.3209143 0.001631624656 0.8145678997 1.362041368e-38
0.32325333 -0.0003683553436 0.8145869476 1.389556004e-38
0.32480001 -0.0003683553436 0.8145869476 1.38962761e-38
0.32634667 -0.0003683553436 0.8145869476 1.38973509e-38
0.32789335 -0.0003683553436 0.8145869476 1.398882766e-38
0.32944003 -0.0003683553436 0.8145869476 1.408173094e-38
0.33180189 -0.002368325344 0.814605995 1.435615423e-38
0.33335239 -0.002368325344 0.814605995 1.463129078e-38
0.3353143 -0.003368375344 0.8146155191 1.426393758e-38
0.33686668 -0.003368375344 0.8146155191 1.398918079e-38
0.33841908 -0.003368375344 0.8146155191 1.371298906e-38
0.34080571 -0.005368345344 0.8146345661 1.352858799e-38
0.3432 -0.007368385344 0.814653614 1.325271156e-38
0.34560192 -0.009368355344 0.8146726609 1.306976084e-38
0.34716573 -0.009368355344 0.8146726609 1.288430039e-38
0.34957907 -0.01136832534 0.8146917092 1.260699743e-38
0.35114667 -0.01136832534 0.8146917092 1.233184688e-38
0.35357144 -0.01336836534 0.8147107566 1.214852761e-38
0.35686478 -0.01736837534 0.8147488524 1.177687383e-38
0.35844383 -0.01736837534 0.8147488524 1.1498199e-38
0.28896573 -0.01736837534 0.8163279005 1.021746546e-38
0.2898438 -0.01536833534 0.8163050421 1.040365458e-38
0.29141906 -0.01536833534 0.8163050421 1.067986593e-38
0.29228574 -0.01336836534 0.8162821856 9.018204805e-39
0.2924324 -0.009368355344 0.8162364707 7.456276899e-39
0.29399621 -0.009368355344 0.8162364707 7.822894412e-39
0.29556 -0.009368355344 0.8162364707 8.280992893e-39
0.29640004 -0.007368385344 0.8162136142 8.37462065e-39
0.29723239 -0.005368345344 0.8161907577 8.557939916e-39
0.29805717 -0.003368375344 0.8161679002 9.016765671e-39
0.29960954 -0.003368375344 0.8161679002 9.477741018e-39
0.30116194 -0.003368375344 0.8161679002 1.00298358e-38
0.30234283 -0.002368325344 0.8161564701 1.058228931e-38
0.30389333 -0.002368325344 0.8161564701 1.095107183e-38
0.30544382 -0.002368325344 0.8161564701 1.141167303e-38
0.30623999 -0.0003683553436 0.8161336136 1.159712507e-38
0.30778667 -0.0003683553436 0.8161336136 1.178079887e-38
0.30933335 -0.0003683553436 0.8161336136 1.150529518e-38
0.31088001 -0.0003683553436 0.8161336136 1.12297929e-38
0.31242666 -0.0003683553436 0.8161336136 1.178045275e-38
0.31397337 -0.0003683553436 0.8161336136 1.242510049e-38
0.31474286 0.001631624656 0.816110758 1.260913722e-38
0.31628576 0.001631624656 0.816110758 1.288428918e-38
0.3178286 0.001631624656 0.816110758 1.315872507e-38
0.31937146 0.001631624656 0.816110758 1.343638816e-38
0.3209143 0.001631624656 0.816110758 1.352858659e-38
0.32245716 0.001631624656 0.816110758 1.361969762e-38
0.32480001 -0.0003683553436 0.8161336136 1.371332117e-38
0.32634667 -0.0003683553436 0.8161336136 1.389698796e-38
0.32789335 -0.0003683553436 0.8161336136 1.389590896e-38
0.32944003 -0.0003683553436 0.8161336136 1.398882486e-38
0.33098668 -0.0003683553436 0.8161336136 1.408102469e-38
0.33335239 -0.002368325344 0.8161564701 1.42639642e-38
0.33490285 -0.002368325344 0.8161564701 1.408063933e-38
0.33645332 -0.002368325344 0.8161564701 1.398882486e-38
0.33841908 -0.003368375344 0.8161679002 1.371298206e-38
0.34080571 -0.005368345344 0.8161907577 1.343674689e-38
0.3423619 -0.005368345344 0.8161907577 1.325270736e-38
0.34476 -0.007368385344 0.8162136142 1.30693993e-38
0.34716573 -0.009368355344 0.8162364707 1.279138589e-38
0.34957907 -0.01136832534 0.8162593282 1.260769948e-38
0.35114667 -0.01136832534 0.8162593282 1.233253772e-38
0.35357144 -0.01336836534 0.8162821856 1.21485192e-38
0.35600382 -0.01536833534 0.8163050421 1.186979393e-38
0.35757905 -0.01536833534 0.8163050421 1.159252601e-38
0.29054478 -0.01736837534 0.8179069477 1.067842959e-38
0.29141906 -0.01536833534 0.8178802797 1.113760287e-38
0.29299429 -0.01536833534 0.8178802797 9.478462687e-39
0.29314476 -0.01136832534 0.8178269467 7.824334947e-39
0.29471236 -0.01136832534 0.8178269467 8.006558398e-39
0.29556 -0.009368355344 0.8178002807 8.281343218e-39
0.29640004 -0.007368385344 0.8177736137 8.373533242e-39
0.29723239 -0.005368345344 0.8177469477 8.465735879e-39
0.29805717 -0.003368375344 0.8177202807 8.925281901e-39
0.29960954 -0.003368375344 0.8177202807 9.292991026e-39
0.30116194 -0.003368375344 0.8177202807 9.753970576e-39
0.30271432 -0.003368375344 0.8177202807 1.030642129e-38
0.30389333 -0.002368325344 0.8177069467 1.067448354e-38
0.30544382 -0.002368325344 0.8177069467 1.113508194e-38
0.30699429 -0.002368325344 0.8177069467 1.141057441e-38
0.30854478 -0.002368325344 0.8177069467 1.168644664e-38
0.30933335 -0.0003683553436 0.8176802807 1.159605448e-38
0.31088001 -0.0003683553436 0.8176802807 1.159749221e-38
0.31242666 -0.0003683553436 0.8176802807 1.187192531e-38
0.31397337 -0.0003683553436 0.8176802807 1.224106516e-38
0.31474286 0.001631624656 0.8176536147 1.251657725e-38
0.31706667 -0.0003683553436 0.8176802807 1.279209074e-38
0.31861335 -0.0003683553436 0.8176802807 1.306796297e-38
0.32016003 -0.0003683553436 0.8176802807 1.334419673e-38
0.32170668 -0.0003683553436 0.8176802807 1.352787754e-38
0.32325333 -0.0003683553436 0.8176802807 1.371153732e-38
0.32480001 -0.0003683553436 0.8176802807 1.398846893e-38
0.32634667 -0.0003683553436 0.8176802807 1.426432714e-38
0.32789335 -0.0003683553436 0.8176802807 1.408029041e-38
0.32944003 -0.0003683553436 0.8176802807 1.389663623e-38
0.33180189 -0.002368325344 0.8177069467 1.398920741e-38
0.33335239 -0.002368325344 0.8177069467 1.40799513e-38
0.33490285 -0.002368325344 0.8177069467 1.398917798e-38
0.33645332 -0.002368325344 0.8177069467 1.398954653e-38
0.33841908 -0.003368375344 0.8177202807 1.371369251e-38
0.33997145 -0.003368375344 0.8177202807 1.343817622e-38
0.3423619 -0.005368345344 0.8177469477 1.334489738e-38
0.34476 -0.007368385344 0.8177736137 1.325306609e-38
0.34632 -0.007368385344 0.8177736137 1.297684774e-38
0.34957907 -0.01136832534 0.8178269467 1.279279139e-38
0.35200003 -0.01336836534 0.8178536147 1.251582475e-38
0.35357144 -0.01336836534 0.8178536147 1.233218179e-38
0.35514289 -0.01336836534 0.8178536147 1.20541922e-38
0.35757905 -0.01536833534 0.8178802797 1.177868851e-38
0.36002287 -0.01736837534 0.8179069477 1.132417735e-38
0.36160195 -0.01736837534 0.8179069477 1.077790637e-38
0.28966284 -0.01936834534 0.8195164717 1.021566759e-38
0.29054478 -0.01736837534 0.8194859957 1.086138312e-38
0.29212382 -0.01736837534 0.8194859957 1.159642302e-38
0.29370287 -0.01736837534 0.8194859957 9.847241002e-39
0.29456952 -0.01536833534 0.8194555187 8.192757333e-39
0.29542857 -0.01336836534 0.8194250427 8.190236397e-39
0.29556 -0.009368355344 0.8193640907 8.280632759e-39
0.29712382 -0.009368355344 0.8193640907 8.372464052e-39
0.29723239 -0.005368345344 0.8193031377 8.465022618e-39
0.29878861 -0.005368345344 0.8193031377 8.833805137e-39
0.29960954 -0.003368375344 0.8192726627 9.201512861e-39
0.30116194 -0.003368375344 0.8192726627 9.570298183e-39
0.30271432 -0.003368375344 0.8192726627 1.003019733e-38
0.30389333 -0.002368325344 0.8192574227 1.039825958e-38
0.30544382 -0.002368325344 0.8192574227 1.08577986e-38
0.30699429 -0.002368325344 0.8192574227 1.122586085e-38
0.30854478 -0.002368325344 0.8192574227 1.159463076e-38
0.30933335 -0.0003683553436 0.8192269477 1.177901361e-38
0.31088001 -0.0003683553436 0.8192269477 1.196304194e-38
0.31242666 -0.0003683553436 0.8192269477 1.205559209e-38
0.31397337 -0.0003683553436 0.8192269477 1.214921985e-38
0.31552002 -0.0003683553436 0.8192269477 1.24243648e-38
0.31706667 -0.0003683553436 0.8192269477 1.270060137e-38
0.31861335 -0.0003683553436 0.8192269477 1.297683653e-38
0.32016003 -0.0003683553436 0.8192269477 1.325234863e-38
0.32170668 -0.0003683553436 0.8192269477 1.352714326e-38
0.32325333 -0.0003683553436 0.8192269477 1.389555863e-38
0.32480001 -0.0003683553436 0.8192269477 1.426361528e-38
0.32634667 -0.0003683553436 0.8192269477 1.463167053e-38
0.32789335 -0.0003683553436 0.8192269477 1.417284757e-38
0.32944003 -0.0003683553436 0.8192269477 1.3805514e-38
0.33180189 -0.002368325344 0.8192574227 1.380552381e-38
0.33335239 -0.002368325344 0.8192574227 1.389733968e-38
0.33490285 -0.002368325344 0.8192574227 1.38976802e-38
0.33645332 -0.002368325344 0.8192574227 1.398953251e-38
0.33841908 -0.003368375344 0.8192726627 1.371476171e-38
0.34080571 -0.005368345344 0.8193031377 1.352964457e-38
0.3423619 -0.005368345344 0.8193031377 1.343744054e-38
0.34476 -0.007368385344 0.8193336147 1.343637275e-38
0.34632 -0.007368385344 0.8193336147 1.31612334e-38
0.34957907 -0.01136832534 0.8193945657 1.297683093e-38
0.35200003 -0.01336836534 0.8194250427 1.279135226e-38
0.35357144 -0.01336836534 0.8194250427 1.260770089e-38
0.35514289 -0.01336836534 0.8194250427 1.233077909e-38
0.35757905 -0.01536833534 0.8194555187 1.205383066e-38
0.35915428 -0.01536833534 0.8194555187 1.158747293e-38
0.36072955 -0.01536833534 0.8194555187 1.122845325e-38
0.28966284 -0.01936834534 0.8210993277 1.012347617e-38
0.29054478 -0.01736837534 0.8210650427 1.040148818e-38
0.29212382 -0.01736837534 0.8210650427 1.076990356e-38
0.29370287 -0.01736837534 0.8210650427 9.572812112e-39
0.29528192 -0.01736837534 0.8210650427 8.469344222e-39
0.29614475 -0.01536833534 0.8210307577 8.373555663e-39
0.29772002 -0.01536833534 0.8210307577 8.188445537e-39
0.29712382 -0.009368355344 0.8209278997 8.005130475e-39
0.29796001 -0.007368385344 0.8208936157 7.72998412e-39
0.29878861 -0.005368345344 0.8208593277 8.281357231e-39
0.30034477 -0.005368345344 0.8208593277 8.834888341e-39
0.30190095 -0.005368345344 0.8208593277 9.202597466e-39
0.30271432 -0.003368375344 0.8208250427 9.662496615e-39
0.30426666 -0.003368375344 0.8208250427 1.0030919e-38
0.30581906 -0.003368375344 0.8208250427 1.039792047e-38
0.30699429 -0.002368325344 0.8208078997 1.085819377e-38
0.30854478 -0.002368325344 0.8208078997 1.122730979e-38
0.30933335 -0.0003683553436 0.8207736147 1.150243793e-38
0.31088001 -0.0003683553436 0.8207736147 1.177793741e-38
0.31242666 -0.0003683553436 0.8207736147 1.187155957e-38
0.31474668 -0.002368325344 0.8208078997 1.205773188e-38
0.31552002 -0.0003683553436 0.8207736147 1.224139446e-38
0.31706667 -0.0003683553436 0.8207736147 1.251799396e-38
0.31861335 -0.0003683553436 0.8207736147 1.279315853e-38
0.32016003 -0.0003683553436 0.8207736147 1.316050052e-38
0.32170668 -0.0003683553436 0.8207736147 1.334453164e-38
0.32325333 -0.0003683553436 0.8207736147 1.362040107e-38
0.32480001 -0.0003683553436 0.8207736147 1.389663063e-38
0.32634667 -0.0003683553436 0.8207736147 1.417357064e-38
0.32789335 -0.0003683553436 0.8207736147 1.380586853e-38
0.32944003 -0.0003683553436 0.8207736147 1.343816781e-38
0.33180189 -0.002368325344 0.8208078997 1.36218402e-38
0.33335239 -0.002368325344 0.8208078997 1.38976816e-38
0.33490285 -0.002368325344 0.8208078997 1.389765918e-38
0.33645332 -0.002368325344 0.8208078997 1.389804314e-38
0.33841908 -0.003368375344 0.8208250427 1.371439737e-38
0.33997145 -0.003368375344 0.8208250427 1.352927883e-38
0.3423619 -0.005368345344 0.8208593277 1.343707199e-38
0.34476 -0.007368385344 0.8208936157 1.325269615e-38
0.34632 -0.007368385344 0.8208936157 1.3161232e-38
0.34957907 -0.01136832534 0.8209621847 1.29775582e-38
0.35114667 -0.01136832534 0.8209621847 1.279209074e-38
0.35357144 -0.01336836534 0.8209964707 1.26077135e-38
0.35600382 -0.01536833534 0.8210307577 1.233042456e-38
0.35757905 -0.01536833534 0.8210307577 1.205382646e-38
0.35915428 -0.01536833534 0.8210307577 1.140737665e-38
0.36160195 -0.01736837534 0.8210650427 1.076100391e-38
0.36318097 -0.01736837534 0.8210650427 1.141934234e-38
0.29054478 -0.01736837534 0.8226440907 1.003342873e-38
0.29212382 -0.01736837534 0.8226440907 9.941241505e-39
0.29370287 -0.01736837534 0.8226440907 9.390234133e-39
0.29528192 -0.01736837534 0.8226440907 8.835618417e-39
0.29614475 -0.01536833534 0.8226059967 8.465032427e-39
0.29772002 -0.01536833534 0.8226059967 8.190239199e-39
0.2978476 -0.01136832534 0.8225298047 7.639940885e-39
0.29868764 -0.009368355344 0.8224917077 7.086776915e-39
0.29952002 -0.007368385344 0.8224536147 7.821103553e-39
0.30108002 -0.007368385344 0.8224536147 8.557586789e-39
0.30190095 -0.005368345344 0.8224155187 8.924934379e-39
0.30345714 -0.005368345344 0.8224155187 9.294791694e-39
0.30389333 -0.002368325344 0.8223583767 9.663931545e-39
0.30581906 -0.003368375344 0.8223774247 1.003128614e-38
0.30699429 -0.002368325344 0.8223583767 1.049047623e-38
0.30854478 -0.002368325344 0.8223583767 1.095036417e-38
0.31009525 -0.002368325344 0.8223583767 1.122658112e-38
0.31164572 -0.002368325344 0.8223583767 1.15939175e-38
0.31319621 -0.002368325344 0.8223583767 1.177937655e-38
0.31474668 -0.002368325344 0.8223583767 1.196482439e-38
0.31552002 -0.0003683553436 0.8223202817 1.214991349e-38
0.31706667 -0.0003683553436 0.8223202817 1.242507807e-38
0.31861335 -0.0003683553436 0.8223202817 1.270060137e-38
0.32016003 -0.0003683553436 0.8223202817 1.306829508e-38
0.32170668 -0.0003683553436 0.8223202817 1.316084103e-38
0.32325333 -0.0003683553436 0.8223202817 1.334488197e-38
0.32480001 -0.0003683553436 0.8223202817 1.352964177e-38
0.32634667 -0.0003683553436 0.8223202817 1.38055112e-38
0.32789335 -0.0003683553436 0.8223202817 1.343888948e-38
0.32944003 -0.0003683553436 0.8223202817 1.316266833e-38
0.33098668 -0.0003683553436 0.8223202817 1.353108791e-38
0.33335239 -0.002368325344 0.8223583767 1.389805855e-38
0.33490285 -0.002368325344 0.8223583767 1.380692651e-38
0.33645332 -0.002368325344 0.8223583767 1.380622165e-38
0.33841908 -0.003368375344 0.8223774247 1.371439737e-38
0.33997145 -0.003368375344 0.8223774247 1.36207612e-38
0.3423619 -0.005368345344 0.8224155187 1.334488898e-38
0.34391811 -0.005368345344 0.8224155187 1.316122079e-38
0.34632 -0.007368385344 0.8224536147 1.306938949e-38
0.34957907 -0.01136832534 0.8225298047 1.306903216e-38
0.35114667 -0.01136832534 0.8225298047 1.288464511e-38
0.35357144 -0.01336836534 0.8225678997 1.269990773e-38
0.35600382 -0.01536833534 0.8226059967 1.233006583e-38
0.35757905 -0.01536833534 0.8226059967 1.205491106e-38
0.36002287 -0.01736837534 0.8226440907 1.113690783e-38
0.36160195 -0.01736837534 0.8226440907 1.030754793e-38
0.36580953 -0.02336835534 0.8227583757 1.067240821e-38
0.36740002 -0.02336835534 0.8227583757 1.115136082e-38
0.29054478 -0.01736837534 0.8242231377 9.852987727e-39
0.29282856 -0.01936834534 0.8242650427 9.762959906e-39
0.29299429 -0.01536833534 0.8241812337 9.30092798e-39
0.29528192 -0.01736837534 0.8242231377 8.834910762e-39
0.29686096 -0.01736837534 0.8242231377 8.464675096e-39
0.29772002 -0.01536833534 0.8241812337 8.190240601e-39
0.29857147 -0.01336836534 0.8241393297 7.822176947e-39
0.29941526 -0.01136832534 0.8240974237 7.454118899e-39
0.30025142 -0.009368355344 0.8240555177 7.913297781e-39
0.30181524 -0.009368355344 0.8240555177 8.282077498e-39
0.30264002 -0.007368385344 0.8240136157 8.649423687e-39
0.30345714 -0.005368345344 0.8239717097 9.019281002e-39
0.30426666 -0.003368375344 0.8239298047 9.386628592e-39
0.30581906 -0.003368375344 0.8239298047 9.754334914e-39
0.30737144 -0.003368375344 0.8239298047 1.02145942e-38
0.30854478 -0.002368325344 0.8239088537 1.067449475e-38
0.31009525 -0.002368325344 0.8239088537 1.094964951e-38
0.31164572 -0.002368325344 0.8239088537 1.12251518e-38
0.31319621 -0.002368325344 0.8239088537 1.141168844e-38
0.31474668 -0.002368325344 0.8239088537 1.168860464e-38
0.31552002 -0.0003683553436 0.8238669477 1.20569976e-38
0.31706667 -0.0003683553436 0.8238669477 1.242471513e-38
0.31861335 -0.0003683553436 0.8238669477 1.260804561e-38
0.32016003 -0.0003683553436 0.8238669477 1.288317795e-38
0.32170668 -0.0003683553436 0.8238669477 1.306826845e-38
0.32325333 -0.0003683553436 0.8238669477 1.325303526e-38
0.32480001 -0.0003683553436 0.8238669477 1.343672587e-38
0.32634667 -0.0003683553436 0.8238669477 1.371224077e-38
0.32870096 -0.002368325344 0.8239088537 1.352929565e-38
0.32944003 -0.0003683553436 0.8238669477 1.343818042e-38
0.33098668 -0.0003683553436 0.8238669477 1.371404985e-38
0.33335239 -0.002368325344 0.8239088537 1.408174636e-38
0.33490285 -0.002368325344 0.8239088537 1.398990806e-38
0.33645332 -0.002368325344 0.8239088537 1.38065944e-38
0.33841908 -0.003368375344 0.8239298047 1.38973523e-38
0.33997145 -0.003368375344 0.8239298047 1.38962733e-38
0.3423619 -0.005368345344 0.8239717097 1.334561765e-38
0.34391811 -0.005368345344 0.8239717097 1.279639273e-38
0.34632 -0.007368385344 0.8240136157 1.307046009e-38
0.34872952 -0.009368355344 0.8240555177 1.334453585e-38
0.35114667 -0.01136832534 0.8240974237 1.30683175e-38
0.35357144 -0.01336836534 0.8241393297 1.288393885e-38
0.35600382 -0.01536833534 0.8241812337 1.251624794e-38
0.35757905 -0.01536833534 0.8241812337 1.214890596e-38
0.36002287 -0.01736837534 0.8242231377 1.150498269e-38
0.36247429 -0.01936834534 0.8242650427 1.095145438e-38
0.36668572 -0.02536832534 0.8243907567 1.104077455e-38
0.36827999 -0.02536832534 0.8243907567 1.123815164e-38
0.3698743 -0.02536832534 0.8243907567 1.198187959e-38
0.29054478 -0.01736837534 0.8258021877 9.761861288e-39
0.29141906 -0.01536833534 0.8257564707 9.578558837e-39
0.29299429 -0.01536833534 0.8257564707 9.211945528e-39
0.29456952 -0.01536833534 0.8257564707 8.929611913e-39
0.29686096 -0.01736837534 0.8258021877 8.556519e-39
0.29844004 -0.01736837534 0.8258021877 8.189887473e-39
0.29929525 -0.01536833534 0.8257564707 8.004414411e-39
0.30014288 -0.01336836534 0.8257107577 7.912933444e-39
0.30025142 -0.009368355344 0.8256193277 8.005483602e-39
0.30181524 -0.009368355344 0.8256193277 8.097683436e-39
0.30264002 -0.007368385344 0.8255736147 8.374271727e-39
0.30420002 -0.007368385344 0.8255736147 8.741980852e-39
0.30426666 -0.003368375344 0.8254821867 9.11005011e-39
0.30581906 -0.003368375344 0.8254821867 9.57066252e-39
0.30737144 -0.003368375344 0.8254821867 9.938723371e-39
0.30854478 -0.002368325344 0.8254593267 1.039862672e-38
0.31009525 -0.002368325344 0.8254593267 1.058302359e-38
0.31164572 -0.002368325344 0.8254593267 1.085780981e-38
0.31319621 -0.002368325344 0.8254593267 1.113618336e-38
0.31474668 -0.002368325344 0.8254593267 1.150423019e-38
0.31552002 -0.0003683553436 0.8254136137 1.196483139e-38
0.31706667 -0.0003683553436 0.8254136137 1.242365715e-38
0.31939811 -0.002368325344 0.8254593267 1.251514232e-38
0.32094857 -0.002368325344 0.8254593267 1.269952097e-38
0.32249904 -0.002368325344 0.8254593267 1.288425975e-38
0.32325333 -0.0003683553436 0.8254136137 1.315977745e-38
0.32480001 -0.0003683553436 0.8254136137 1.343565388e-38
0.32634667 -0.0003683553436 0.8254136137 1.371116737e-38
0.32870096 -0.002368325344 0.8254593267 1.371117578e-38
0.32944003 -0.0003683553436 0.8254136137 1.371226039e-38
0.33098668 -0.0003683553436 0.8254136137 1.398849275e-38
0.33335239 -0.002368325344 0.8254593267 1.435726126e-38
0.33490285 -0.002368325344 0.8254593267 1.40810303e-38
0.33645332 -0.002368325344 0.8254593267 1.389699076e-38
0.33800378 -0.002368325344 0.8254593267 1.408065335e-38
0.33997145 -0.003368375344 0.8254821867 1.426432994e-38
0.34152383 -0.003368375344 0.8254821867 1.334669805e-38
0.3430762 -0.003368375344 0.8254821867 1.252053452e-38
0.3454743 -0.005368345344 0.8255279017 1.307190482e-38
0.34872952 -0.009368355344 0.8256193277 1.362040527e-38
0.35029334 -0.009368355344 0.8256193277 1.334382119e-38
0.35357144 -0.01336836534 0.8257107577 1.306760704e-38
0.35514289 -0.01336836534 0.8257107577 1.2699556e-38
0.35757905 -0.01536833534 0.8257564707 1.233220981e-38
0.36002287 -0.01736837534 0.8258021877 1.196486502e-38
0.36421907 -0.02336835534 0.8259393287 1.159536504e-38
0.36580953 -0.02336835534 0.8259393287 1.140953745e-38
0.36827999 -0.02536832534 0.8259850427 1.132494246e-38
0.3698743 -0.02536832534 0.8259850427 1.078116999e-38
0.29141906 -0.01536833534 0.8273317097 9.66715313e-39
0.29370287 -0.01736837534 0.8273812337 9.299818152e-39
0.29528192 -0.01736837534 0.8273812337 8.932477569e-39
0.29757717 -0.01936834534 0.8274307577 8.650157967e-39
0.29844004 -0.01736837534 0.8273812337 8.281369842e-39
0.29929525 -0.01536833534 0.8273317097 8.004058481e-39
0.30014288 -0.01336836534 0.8272821857 7.728542184e-39
0.30098286 -0.01136832534 0.8272326617 7.821086737e-39
0.30181524 -0.009368355344 0.8271831377 8.005482201e-39
0.30264002 -0.007368385344 0.8271336157 8.190237798e-39
0.30420002 -0.007368385344 0.8271336157 8.466475764e-39
0.30501333 -0.005368345344 0.8270840897 8.834190494e-39
0.30656952 -0.005368345344 0.8270840897 9.295514764e-39
0.30737144 -0.003368375344 0.8270345677 9.755046774e-39
0.30892384 -0.003368375344 0.8270345677 1.01227587e-38
0.31009525 -0.002368325344 0.8270098037 1.03993526e-38
0.31164572 -0.002368325344 0.8270098037 1.067449895e-38
0.31319621 -0.002368325344 0.8270098037 1.104291573e-38
0.31474668 -0.002368325344 0.8270098037 1.150281068e-38
0.31629714 -0.002368325344 0.8270098037 1.18705128e-38
0.31784761 -0.002368325344 0.8270098037 1.223821211e-38
0.31939811 -0.002368325344 0.8270098037 1.24229579e-38
0.32094857 -0.002368325344 0.8270098037 1.260805962e-38
0.32249904 -0.002368325344 0.8270098037 1.288428077e-38
0.32325333 -0.0003683553436 0.8269602817 1.30683133e-38
0.32480001 -0.0003683553436 0.8269602817 1.352785231e-38
0.32634667 -0.0003683553436 0.8269602817 1.389556004e-38
0.32870096 -0.002368325344 0.8270098037 1.371189745e-38
0.32944003 -0.0003683553436 0.8269602817 1.362007457e-38
0.33098668 -0.0003683553436 0.8269602817 1.37133576e-38
0.33335239 -0.002368325344 0.8270098037 1.380625809e-38
0.33490285 -0.002368325344 0.8270098037 1.380517068e-38
0.33645332 -0.002368325344 0.8270098037 1.380515246e-38
0.33841908 -0.003368375344 0.8270345677 1.389697114e-38
0.33997145 -0.003368375344 0.8270345677 1.398881925e-38
0.34152383 -0.003368375344 0.8270345677 1.352965578e-38
0.3430762 -0.003368375344 0.8270345677 1.297864421e-38
0.3454743 -0.005368345344 0.8270840897 1.325379337e-38
0.34788001 -0.007368385344 0.8271336157 1.352893271e-38
0.35029334 -0.009368355344 0.8271831377 1.325126682e-38
0.3527143 -0.01136832534 0.8272326617 1.306581058e-38
0.35514289 -0.01336836534 0.8272821857 1.279174743e-38
0.35757905 -0.01536833534 0.8273317097 1.251730873e-38
0.36002287 -0.01736837534 0.8273812337 1.214995833e-38
0.3633467 -0.02136837534 0.8274802817 1.178261075e-38
0.36580953 -0.02336835534 0.8275298057 1.159391189e-38
0.36827999 -0.02536832534 0.8275793297 1.14052747e-38
0.37075812 -0.02736836534 0.8276288517 1.077396312e-38
0.37324381 -0.02936833534 0.8276783757 1.023948967e-38
0.37484571 -0.02936833534 0.8276783757 1.263514251e-38
0.29141906 -0.01536833534 0.8289069467 9.758259951e-39
0.29582858 -0.02336835534 0.8291202807 9.391283705e-39
0.29670668 -0.02136837534 0.8290669477 9.02322846e-39
0.29757717 -0.01936834534 0.8290136147 8.744140252e-39
0.29916 -0.01936834534 0.8290136147 8.464682102e-39
0.30001906 -0.01736837534 0.8289602817 8.003706756e-39
0.30087048 -0.01536833534 0.8289069467 7.636716497e-39
0.3017143 -0.01336836534 0.8288536157 7.728903719e-39
0.30255049 -0.01136832534 0.8288002807 7.91365231e-39
0.30337906 -0.009368355344 0.8287469477 8.006206672e-39
0.30494285 -0.009368355344 0.8287469477 8.190247607e-39
0.30576003 -0.007368385344 0.8286936147 8.650155164e-39
0.30732003 -0.007368385344 0.8286936147 9.110767575e-39
0.30812573 -0.005368345344 0.8286402807 9.479543088e-39
0.30892384 -0.003368375344 0.8285869477 9.939082104e-39
0.31047621 -0.003368375344 0.8285869477 1.021602492e-38
0.31164572 -0.002368325344 0.8285602807 1.049153562e-38
0.31319621 -0.002368325344 0.8285602807 1.104255139e-38
0.31474668 -0.002368325344 0.8285602807 1.159392451e-38
0.31552002 -0.0003683553436 0.8285069477 1.187014846e-38
0.31784761 -0.002368325344 0.8285602807 1.214601508e-38
0.31939811 -0.002368325344 0.8285602807 1.23311224e-38
0.32094857 -0.002368325344 0.8285602807 1.260770369e-38
0.32249904 -0.002368325344 0.8285602807 1.279244808e-38
0.32325333 -0.0003683553436 0.8285069477 1.30683147e-38
0.32480001 -0.0003683553436 0.8285069477 1.362004794e-38
0.32634667 -0.0003683553436 0.8285069477 1.417106652e-38
0.32870096 -0.002368325344 0.8285602807 1.380373014e-38
0.32944003 -0.0003683553436 0.8285069477 1.352823206e-38
0.33098668 -0.0003683553436 0.8285069477 1.343819724e-38
0.33335239 -0.002368325344 0.8285602807 1.33459946e-38
0.33490285 -0.002368325344 0.8285602807 1.352965859e-38
0.33645332 -0.002368325344 0.8285602807 1.371332117e-38
0.33841908 -0.003368375344 0.8285869477 1.37136715e-38
0.33997145 -0.003368375344 0.8285869477 1.380479653e-38
0.34152383 -0.003368375344 0.8285869477 1.362041648e-38
0.3430762 -0.003368375344 0.8285869477 1.352858519e-38
0.3454743 -0.005368345344 0.8286402807 1.343711263e-38
0.34788001 -0.007368385344 0.8286936147 1.343638536e-38
0.35029334 -0.009368355344 0.8287469477 1.32509123e-38
0.3527143 -0.01136832534 0.8288002807 1.315943833e-38
0.35514289 -0.01336836534 0.8288536157 1.288429338e-38
0.35757905 -0.01536833534 0.8289069467 1.270061538e-38
0.35915428 -0.01536833534 0.8289069467 1.233362512e-38
0.36160195 -0.01736837534 0.8289602817 1.205738716e-38
0.36493334 -0.02136837534 0.8290669477 1.177863947e-38
0.36740002 -0.02336835534 0.8291202807 1.150244354e-38
0.37075812 -0.02736836534 0.8292269477 1.076707153e-38
0.37324381 -0.02936833534 0.8292802807 1.013612989e-38
0.37484571 -0.02936833534 0.8292802807 1.245038131e-38
0.29370287 -0.01736837534 0.8305393277 9.574584755e-39
0.29741904 -0.02336835534 0.8307107567 9.297651745e-39
0.29829335 -0.02136837534 0.8306536147 8.928165773e-39
0.29844004 -0.01736837534 0.8305393277 8.556160267e-39
0.30001906 -0.01736837534 0.8305393277 7.63673051e-39
0.30087048 -0.01536833534 0.8304821857 6.625459651e-39
0.30244571 -0.01536833534 0.8304821857 7.178979551e-39
0.30328572 -0.01336836534 0.8304250437 7.730345655e-39
0.3041181 -0.01136832534 0.8303678997 8.005846538e-39
0.30494285 -0.009368355344 0.8303107567 8.373557064e-39
0.30650666 -0.009368355344 0.8303107567 8.741627724e-39
0.30732003 -0.007368385344 0.8302536147 9.201525472e-39
0.30812573 -0.005368345344 0.8301964707 9.569947858e-39
0.30892384 -0.003368375344 0.8301393287 9.939435231e-39
0.31047621 -0.003368375344 0.8301393287 1.030677021e-38
0.31202862 -0.003368375344 0.8301393287 1.07659561e-38
0.31319621 -0.002368325344 0.8301107557 1.104182973e-38
0.31474668 -0.002368325344 0.8301107557 1.140917171e-38
0.31629714 -0.002368325344 0.8301107557 1.1686832e-38
0.31784761 -0.002368325344 0.8301107557 1.205381945e-38
0.31939811 -0.002368325344 0.8301107557 1.223749465e-38
0.32094857 -0.002368325344 0.8301107557 1.242116424e-38
0.32249904 -0.002368325344 0.8301107557 1.260662889e-38
0.32325333 -0.0003683553436 0.8300536137 1.288213538e-38
0.32480001 -0.0003683553436 0.8300536137 1.325019623e-38
0.32634667 -0.0003683553436 0.8300536137 1.361825989e-38
0.32870096 -0.002368325344 0.8301107557 1.352786352e-38
0.32944003 -0.0003683553436 0.8300536137 1.343638956e-38
0.33180189 -0.002368325344 0.8301107557 1.343710983e-38
0.33335239 -0.002368325344 0.8301107557 1.343782169e-38
0.33490285 -0.002368325344 0.8301107557 1.362077101e-38
0.33645332 -0.002368325344 0.8301107557 1.380372454e-38
0.33841908 -0.003368375344 0.8301393287 1.371153171e-38
0.33997145 -0.003368375344 0.8301393287 1.371153311e-38
0.34152383 -0.003368375344 0.8301393287 1.371153592e-38
0.3430762 -0.003368375344 0.8301393287 1.361970743e-38
0.3454743 -0.005368345344 0.8301964707 1.37111912e-38
0.34703049 -0.005368345344 0.8301964707 1.380301688e-38
0.34944001 -0.007368385344 0.8302536147 1.352714185e-38
0.35185716 -0.009368355344 0.8303107567 1.334346806e-38
0.3542819 -0.01136832534 0.8303678997 1.306795877e-38
0.35671431 -0.01336836534 0.8304250437 1.288284584e-38
0.35915428 -0.01536833534 0.8304821857 1.260769248e-38
0.36160195 -0.01736837534 0.8305393277 1.23325237e-38
0.36405715 -0.01936834534 0.8305964697 1.205556267e-38
0.36652005 -0.02136837534 0.8306536147 1.168857941e-38
0.36810669 -0.02136837534 0.8306536147 1.095246052e-38
0.37058097 -0.02336835534 0.8307107567 1.030863534e-38
0.37217146 -0.02336835534 0.8307107567 1.142080669e-38
0.37376192 -0.02336835534 0.8307107567 1.253325831e-38
0.29370287 -0.01736837534 0.8321183777 9.849732511e-39
0.29813141 -0.02536832534 0.8323621847 9.665709793e-39
0.29900953 -0.02336835534 0.8323012337 9.204028192e-39
0.29988003 -0.02136837534 0.8322402827 8.741982253e-39
0.30001906 -0.01736837534 0.8321183777 7.178270494e-39
0.3015981 -0.01736837534 0.8321183777 5.709615816e-39
0.30244571 -0.01536833534 0.8320574227 6.629042771e-39
0.30402097 -0.01536833534 0.8320574227 7.54667186e-39
0.30485713 -0.01336836534 0.8319964717 8.099470091e-39
0.3056857 -0.01136832534 0.8319355187 8.649059349e-39
0.30650666 -0.009368355344 0.8318745667 8.92493578e-39
0.30732003 -0.007368385344 0.8318136157 9.292640701e-39
0.30812573 -0.005368345344 0.8317526627 9.568867457e-39
0.30968192 -0.005368345344 0.8317526627 9.937281435e-39
0.31047621 -0.003368375344 0.8316917107 1.048972514e-38
0.31202862 -0.003368375344 0.8316917107 1.104109965e-38
0.31358096 -0.003368375344 0.8316917107 1.113401555e-38
0.31513333 -0.003368375344 0.8316917107 1.122621398e-38
0.31629714 -0.002368325344 0.8316612327 1.159571256e-38
0.31784761 -0.002368325344 0.8316612327 1.205381665e-38
0.31939811 -0.002368325344 0.8316612327 1.214565635e-38
0.32094857 -0.002368325344 0.8316612327 1.232896861e-38
0.32249904 -0.002368325344 0.8316612327 1.251514933e-38
0.32325333 -0.0003683553436 0.8316002817 1.269881331e-38
0.32480001 -0.0003683553436 0.8316002817 1.28824787e-38
0.32634667 -0.0003683553436 0.8316002817 1.315942853e-38
0.32870096 -0.002368325344 0.8316612327 1.325235003e-38
0.32944003 -0.0003683553436 0.8316002817 1.343602102e-38
0.33180189 -0.002368325344 0.8316612327 1.352857398e-38
0.33335239 -0.002368325344 0.8316612327 1.362005215e-38
0.33490285 -0.002368325344 0.8316612327 1.371153031e-38
0.33645332 -0.002368325344 0.8316612327 1.389556144e-38
0.33841908 -0.003368375344 0.8316917107 1.380372734e-38
0.33955428 -0.002368325344 0.8316612327 1.371189185e-38
0.34110478 -0.002368325344 0.8316612327 1.371189325e-38
0.3430762 -0.003368375344 0.8316917107 1.380337141e-38
0.34462857 -0.003368375344 0.8316917107 1.398883887e-38
0.34703049 -0.005368345344 0.8317526627 1.417070779e-38
0.34944001 -0.007368385344 0.8318136157 1.380300007e-38
0.35185716 -0.009368355344 0.8318745667 1.352749218e-38
0.35342097 -0.009368355344 0.8318745667 1.334381978e-38
0.35498476 -0.009368355344 0.8318745667 1.315870686e-38
0.35741714 -0.01136832534 0.8319355187 1.28824759e-38
0.36072955 -0.01536833534 0.8320574227 1.269843917e-38
0.36318097 -0.01736837534 0.8321183777 1.233073284e-38
0.36564001 -0.01936834534 0.8321793297 1.196339086e-38
0.36810669 -0.02136837534 0.8322402827 1.123121802e-38
0.36969337 -0.02136837534 0.8322402827 1.04933545e-38
0.37128001 -0.02136837534 0.8322402827 1.040085059e-38
0.37286669 -0.02136837534 0.8322402827 1.032018064e-38
0.37445337 -0.02136837534 0.8322402827 1.27248102e-38
0.29884383 -0.02736836534 0.8340212337 9.666784589e-39
0.29972571 -0.02536832534 0.8339564717 9.297654547e-39
0.30059999 -0.02336835534 0.8338917097 9.019639734e-39
0.30074286 -0.01936834534 0.8337621867 7.915824322e-39
0.3015981 -0.01736837534 0.8336974257 6.812000503e-39
0.30317718 -0.01736837534 0.8336974257 7.087502787e-39
0.30402097 -0.01536833534 0.8336326617 7.455192294e-39
0.30485713 -0.01336836534 0.8335678997 7.914359965e-39
0.30494285 -0.009368355344 0.8334383767 8.373907389e-39
0.30650666 -0.009368355344 0.8334383767 8.741261985e-39
0.30807051 -0.009368355344 0.8334383767 9.016771276e-39
0.30888003 -0.007368385344 0.8333736167 9.476311694e-39
0.30968192 -0.005368345344 0.8333088537 9.844728474e-39
0.31123811 -0.005368345344 0.8333088537 1.030533948e-38
0.3127943 -0.005368345344 0.8333088537 1.076559036e-38
0.31358096 -0.003368375344 0.8332440917 1.095033615e-38
0.31513333 -0.003368375344 0.8332440917 1.104361358e-38
0.31629714 -0.002368325344 0.8332117097 1.141024651e-38
0.31823811 -0.003368375344 0.8332440917 1.177723256e-38
0.31979051 -0.003368375344 0.8332440917 1.196198396e-38
0.32094857 -0.002368325344 0.8332117097 1.214529481e-38
0.32249904 -0.002368325344 0.8332117097 1.22392827e-38
0.32404953 -0.002368325344 0.8332117097 1.242222222e-38
0.32480001 -0.0003683553436 0.8331469487 1.269879089e-38
0.32634667 -0.0003683553436 0.8331469487 1.297610505e-38
0.32870096 -0.002368325344 0.8332117097 1.30683147e-38
0.33025143 -0.002368325344 0.8332117097 1.325234022e-38
0.33180189 -0.002368325344 0.8332117097 1.343636714e-38
0.33335239 -0.002368325344 0.8332117097 1.371188204e-38
0.33490285 -0.002368325344 0.8332117097 1.38952027e-38
0.33645332 -0.002368325344 0.8332117097 1.407959256e-38
0.33800378 -0.002368325344 0.8332117097 1.389592297e-38
0.33955428 -0.002368325344 0.8332117097 1.371225058e-38
0.34110478 -0.002368325344 0.8332117097 1.371189185e-38
0.3430762 -0.003368375344 0.8332440917 1.371188904e-38
0.3454743 -0.005368345344 0.8333088537 1.389555723e-38
0.34703049 -0.005368345344 0.8333088537 1.398738712e-38
0.34944001 -0.007368385344 0.8333736167 1.37115177e-38
0.35100001 -0.007368385344 0.8333736167 1.343565248e-38
0.35342097 -0.009368355344 0.8334383767 1.334381698e-38
0.35498476 -0.009368355344 0.8334383767 1.325125561e-38
0.35741714 -0.01136832534 0.8335031377 1.297538198e-38
0.35985717 -0.01336836534 0.8335678997 1.269773011e-38
0.36230478 -0.01536833534 0.8336326617 1.24218733e-38
0.36476001 -0.01736837534 0.8336974257 1.205453131e-38
0.36722288 -0.01936834534 0.8337621867 1.159679016e-38
0.36969337 -0.02136837534 0.8338269487 1.104577438e-38
0.37128001 -0.02136837534 0.8338269487 1.086210059e-38
0.37465715 -0.02536832534 0.8339564717 1.067849826e-38
0.37625143 -0.02536832534 0.8339564717 1.198220049e-38
0.29776192 -0.03336834534 0.8358250437 1.00355545e-38
0.29937142 -0.03336834534 0.8358250437 9.851171644e-39
0.2995562 -0.02936833534 0.8356879007 9.667148926e-39
0.30044192 -0.02736836534 0.8356193297 9.483127609e-39
0.30132002 -0.02536832534 0.8355507557 9.296951095e-39
0.30219048 -0.02336835534 0.8354821867 8.560120337e-39
0.3015981 -0.01736837534 0.8352764727 7.912601336e-39
0.30244571 -0.01536833534 0.8352079007 7.635654313e-39
0.30402097 -0.01536833534 0.8352079007 7.361214212e-39
0.30485713 -0.01336836534 0.8351393277 7.729981317e-39
0.3056857 -0.01136832534 0.8350707557 8.190600734e-39
0.30650666 -0.009368355344 0.8350021867 8.466833095e-39
0.30807051 -0.009368355344 0.8350021867 8.833459017e-39
0.30888003 -0.007368385344 0.8349336167 9.292279166e-39
0.30968192 -0.005368345344 0.8348650417 9.844725672e-39
0.31200004 -0.007368385344 0.8349336167 1.021314245e-38
0.3127943 -0.005368345344 0.8348650417 1.058156063e-38
0.31435049 -0.005368345344 0.8348650417 1.076702669e-38
0.31590667 -0.005368345344 0.8348650417 1.095177528e-38
0.31668574 -0.003368375344 0.8347964727 1.122692584e-38
0.31823811 -0.003368375344 0.8347964727 1.159463216e-38
0.32057524 -0.005368345344 0.8348650417 1.177866749e-38
0.32134289 -0.003368375344 0.8347964727 1.196269722e-38
0.32289526 -0.003368375344 0.8347964727 1.205525158e-38
0.32404953 -0.002368325344 0.8347621847 1.21474388e-38
0.3256 -0.002368325344 0.8347621847 1.242329701e-38
0.32715046 -0.002368325344 0.8347621847 1.279244527e-38
0.32910478 -0.003368375344 0.8347964727 1.288429338e-38
0.33025143 -0.002368325344 0.8347621847 1.306867483e-38
0.33180189 -0.002368325344 0.8347621847 1.343636854e-38
0.33335239 -0.002368325344 0.8347621847 1.38951943e-38
0.33490285 -0.002368325344 0.8347621847 1.407851356e-38
0.33645332 -0.002368325344 0.8347621847 1.426218596e-38
0.33800378 -0.002368325344 0.8347621847 1.398668227e-38
0.33955428 -0.002368325344 0.8347621847 1.380301268e-38
0.34110478 -0.002368325344 0.8347621847 1.371117999e-38
0.3430762 -0.003368375344 0.8347964727 1.371117298e-38
0.34462857 -0.003368375344 0.8347964727 1.380300147e-38
0.34703049 -0.005368345344 0.8348650417 1.389555163e-38
0.34944001 -0.007368385344 0.8349336167 1.362004374e-38
0.35100001 -0.007368385344 0.8349336167 1.343637975e-38
0.35342097 -0.009368355344 0.8350021867 1.334455266e-38
0.35498476 -0.009368355344 0.8350021867 1.334274359e-38
0.35654858 -0.009368355344 0.8350021867 1.306829928e-38
0.35898477 -0.01136832534 0.8350707557 1.279065722e-38
0.36142859 -0.01336836534 0.8351393277 1.251050542e-38
0.36476001 -0.01736837534 0.8352764727 1.223929391e-38
0.36722288 -0.01936834534 0.8353450417 1.196449648e-38
0.36880571 -0.01936834534 0.8353450417 1.168790959e-38
0.37128001 -0.02136837534 0.8354136167 1.131661595e-38
0.37465715 -0.02536832534 0.8355507557 1.104367243e-38
0.37715051 -0.02736836534 0.8356193297 1.133142907e-38
0.3787486 -0.02736836534 0.8356193297 1.161666758e-38
0.38034669 -0.02736836534 0.8356193297 1.364929304e-38
0.29776192 -0.03336834534 0.8374345667 9.758973212e-39
0.29937142 -0.03336834534 0.8374345667 9.482756265e-39
0.30026859 -0.03136836534 0.8373621857 9.298377617e-39
0.29972571 -0.02536832534 0.8371450427 9.299465025e-39
0.30132002 -0.02536832534 0.8371450427 9.298754566e-39
0.30291429 -0.02536832534 0.8371450427 8.743445208e-39
0.30378094 -0.02336835534 0.8370726617 8.278519601e-39
0.30244571 -0.01536833534 0.8367831377 7.910810476e-39
0.30402097 -0.01536833534 0.8367831377 7.635294179e-39
0.30485713 -0.01336836534 0.8367107597 7.914738316e-39
0.3056857 -0.01136832534 0.8366383747 8.190966473e-39
0.30650666 -0.009368355344 0.8365659967 8.466477166e-39
0.30807051 -0.009368355344 0.8365659967 8.834176481e-39
0.30888003 -0.007368385344 0.8364936157 9.293353962e-39
0.31044003 -0.007368385344 0.8364936157 9.752888774e-39
0.31200004 -0.007368385344 0.8364936157 1.002947006e-38
0.3127943 -0.005368345344 0.8364212337 1.039789104e-38
0.31435049 -0.005368345344 0.8364212337 1.058264104e-38
0.31590667 -0.005368345344 0.8364212337 1.085993698e-38
0.31746286 -0.005368345344 0.8364212337 1.10439639e-38
0.31901905 -0.005368345344 0.8364212337 1.132019486e-38
0.31979051 -0.003368375344 0.8363488527 1.159606849e-38
0.32213143 -0.005368345344 0.8364212337 1.178045975e-38
0.32289526 -0.003368375344 0.8363488527 1.196449228e-38
0.32404953 -0.002368325344 0.8363126617 1.224107356e-38
0.3256 -0.002368325344 0.8363126617 1.242474456e-38
0.32715046 -0.002368325344 0.8363126617 1.260878409e-38
0.32910478 -0.003368375344 0.8363488527 1.27006308e-38
0.33025143 -0.002368325344 0.8363126617 1.288536818e-38
0.33180189 -0.002368325344 0.8363126617 1.325234162e-38
0.33335239 -0.002368325344 0.8363126617 1.352785231e-38
0.33490285 -0.002368325344 0.8363126617 1.371152891e-38
0.33645332 -0.002368325344 0.8363126617 1.39870382e-38
0.33800378 -0.002368325344 0.8363126617 1.389520691e-38
0.33955428 -0.002368325344 0.8363126617 1.389700477e-38
0.34110478 -0.002368325344 0.8363126617 1.380409729e-38
0.34391811 -0.005368345344 0.8364212337 1.371153311e-38
0.3454743 -0.005368345344 0.8364212337 1.361968781e-38
0.34703049 -0.005368345344 0.8364212337 1.352821104e-38
0.34944001 -0.007368385344 0.8364936157 1.316086906e-38
0.35185716 -0.009368355344 0.8365659967 1.270170699e-38
0.35342097 -0.009368355344 0.8365659967 1.297651143e-38
0.35498476 -0.009368355344 0.8365659967 1.32509207e-38
0.35654858 -0.009368355344 0.8365659967 1.306722869e-38
0.35898477 -0.01136832534 0.8366383747 1.288358432e-38
0.36142859 -0.01336836534 0.8367107597 1.260774713e-38
0.36388001 -0.01536833534 0.8367831377 1.233222242e-38
0.36633909 -0.01736837534 0.8368555207 1.205562152e-38
0.36880571 -0.01936834534 0.8369279007 1.187122606e-38
0.37128001 -0.02136837534 0.8370002837 1.159320144e-38
0.37465715 -0.02536832534 0.8371450427 1.131701251e-38
0.37715051 -0.02736836534 0.8372174247 1.123202937e-38
0.37965143 -0.02936833534 0.8372898037 1.123927128e-38
0.38125333 -0.02936833534 0.8372898037 1.299318268e-38
0.29881907 -0.03636836534 0.8391583777 9.574936481e-39
0.29937142 -0.03336834534 0.8390440927 9.206162369e-39
0.30026859 -0.03136836534 0.8389678997 8.931397168e-39
0.29972571 -0.02536832534 0.8387393267 9.115809447e-39
0.30204001 -0.02736836534 0.8388155207 9.297685376e-39
0.30291429 -0.02536832534 0.8387393267 8.926753264e-39
0.30378094 -0.02336835534 0.8386631377 8.649446107e-39
0.30464 -0.02136837534 0.8385869517 8.280303454e-39
0.30475619 -0.01736837534 0.8384345687 7.91330759e-39
0.3055962 -0.01536833534 0.8383583787 8.007643003e-39
0.3056857 -0.01136832534 0.8382059957 8.190959467e-39
0.30725333 -0.01136832534 0.8382059957 8.46647156e-39
0.30807051 -0.009368355344 0.8381298027 8.833454813e-39
0.3096343 -0.009368355344 0.8381298027 9.294784688e-39
0.31044003 -0.007368385344 0.8380536147 9.753964971e-39
0.31200004 -0.007368385344 0.8380536147 9.937638766e-39
0.31356004 -0.007368385344 0.8380536147 1.021350259e-38
0.31512004 -0.007368385344 0.8380536147 1.049008387e-38
0.31590667 -0.005368345344 0.8379774237 1.076738682e-38
0.31746286 -0.005368345344 0.8379774237 1.095249695e-38
0.31901905 -0.005368345344 0.8379774237 1.113581481e-38
0.32057524 -0.005368345344 0.8379774237 1.141312197e-38
0.32213143 -0.005368345344 0.8379774237 1.16889928e-38
0.32289526 -0.003368375344 0.8379012357 1.196486362e-38
0.32444763 -0.003368375344 0.8379012357 1.233291607e-38
0.3256 -0.002368325344 0.8378631387 1.233398526e-38
0.32755241 -0.003368375344 0.8379012357 1.242510609e-38
0.32910478 -0.003368375344 0.8379012357 1.260914002e-38
0.33065718 -0.003368375344 0.8379012357 1.279316554e-38
0.33180189 -0.002368325344 0.8378631387 1.297790853e-38
0.33335239 -0.002368325344 0.8378631387 1.325233882e-38
0.33490285 -0.002368325344 0.8378631387 1.343636714e-38
0.33645332 -0.002368325344 0.8378631387 1.37115233e-38
0.33800378 -0.002368325344 0.8378631387 1.380408467e-38
0.33955428 -0.002368325344 0.8378631387 1.398812421e-38
0.34110478 -0.002368325344 0.8378631387 1.389701598e-38
0.34391811 -0.005368345344 0.8379774237 1.380409168e-38
0.3454743 -0.005368345344 0.8379774237 1.352785371e-38
0.34703049 -0.005368345344 0.8379774237 1.325233882e-38
0.34944001 -0.007368385344 0.8380536147 1.260948194e-38
0.35100001 -0.007368385344 0.8380536147 1.205812564e-38
0.35342097 -0.009368355344 0.8381298027 1.26087939e-38
0.35498476 -0.009368355344 0.8381298027 1.315943273e-38
0.35654858 -0.009368355344 0.8381298027 1.306686576e-38
0.35811239 -0.009368355344 0.8381298027 1.29754002e-38
0.3605524 -0.01136832534 0.8382059957 1.270062379e-38
0.36300001 -0.01336836534 0.8382821857 1.24229593e-38
0.36633909 -0.01736837534 0.8384345687 1.223820651e-38
0.3679181 -0.01736837534 0.8384345687 1.205452851e-38
0.3703886 -0.01936834534 0.8385107577 1.177793882e-38
0.37465715 -0.02536832534 0.8387393267 1.159249238e-38
0.37715051 -0.02736836534 0.8388155207 1.122337495e-38
0.37965143 -0.02936833534 0.8388917067 1.095510757e-38
0.38125333 -0.02936833534 0.8388917067 1.243207475e-38
0.29881907 -0.03636836534 0.8407736147 9.666406238e-39
0.29937142 -0.03336834534 0.8406536157 9.574570742e-39
0.30026859 -0.03136836534 0.8405736157 9.482771679e-39
0.29972571 -0.02536832534 0.8403336137 9.390615286e-39
0.30276 -0.02936833534 0.8404936147 9.296973516e-39
0.30291429 -0.02536832534 0.8403336137 8.928185391e-39
0.30378094 -0.02336835534 0.8402536127 8.559402872e-39
0.30464 -0.02136837534 0.8401736157 8.097708659e-39
0.30475619 -0.01736837534 0.8400136147 7.546321536e-39
0.3055962 -0.01536833534 0.8399336137 7.822171342e-39
0.30642861 -0.01336836534 0.8398536137 8.098400901e-39
0.30725333 -0.01136832534 0.8397736167 8.373914396e-39
0.30882093 -0.01136832534 0.8397736167 8.74125638e-39
0.3096343 -0.009368355344 0.8396936157 9.108958499e-39
0.31119812 -0.009368355344 0.8396936157 9.476664821e-39
0.31200004 -0.007368385344 0.8396136157 9.752895781e-39
0.31356004 -0.007368385344 0.8396136157 1.002911413e-38
0.31512004 -0.007368385344 0.8396136157 1.021493331e-38
0.31668004 -0.007368385344 0.8396136157 1.039933158e-38
0.31746286 -0.005368345344 0.8395336147 1.067556534e-38
0.31901905 -0.005368345344 0.8395336147 1.09517949e-38
0.32057524 -0.005368345344 0.8395336147 1.11354715e-38
0.32213143 -0.005368345344 0.8395336147 1.141134372e-38
0.32289526 -0.003368375344 0.8394536177 1.168865228e-38
0.32444763 -0.003368375344 0.8394536177 1.196557969e-38
0.32600001 -0.003368375344 0.8394536177 1.205740257e-38
0.32755241 -0.003368375344 0.8394536177 1.214923526e-38
0.32910478 -0.003368375344 0.8394536177 1.233326219e-38
0.33065718 -0.003368375344 0.8394536177 1.260912881e-38
0.33180189 -0.002368325344 0.8394136117 1.28846367e-38
0.33335239 -0.002368325344 0.8394136117 1.316049491e-38
0.33490285 -0.002368325344 0.8394136117 1.334380157e-38
0.33645332 -0.002368325344 0.8394136117 1.361932067e-38
0.33841908 -0.003368375344 0.8394536177 1.3987034e-38
0.33997145 -0.003368375344 0.8394536177 1.426327336e-38
0.3423619 -0.005368345344 0.8395336147 1.398850116e-38
0.34391811 -0.005368345344 0.8395336147 1.371297785e-38
0.3454743 -0.005368345344 0.8395336147 1.343781468e-38
0.34788001 -0.007368385344 0.8396136157 1.325448561e-38
0.34944001 -0.007368385344 0.8396136157 1.288533314e-38
0.35100001 -0.007368385344 0.8396136157 1.26091232e-38
0.35342097 -0.009368355344 0.8396936157 1.30683147e-38
0.35498476 -0.009368355344 0.8396936157 1.352748237e-38
0.35654858 -0.009368355344 0.8396936157 1.325196747e-38
0.35898477 -0.01136832534 0.8397736167 1.297681691e-38
0.3605524 -0.01136832534 0.8397736167 1.270023143e-38
0.36300001 -0.01336836534 0.8398536137 1.251369758e-38
0.36633909 -0.01736837534 0.8400136147 1.23300336e-38
0.3679181 -0.01736837534 0.8400136147 1.214599546e-38
0.37128001 -0.02136837534 0.8401736157 1.196231746e-38
0.37465715 -0.02536832534 0.8403336137 1.177649408e-38
0.37715051 -0.02736836534 0.8404136177 1.14080773e-38
0.37965143 -0.02936833534 0.8404936147 1.113155767e-38
0.38125333 -0.02936833534 0.8404936147 1.132103144e-38
0.38285524 -0.02936833534 0.8404936147 1.152699008e-38
