# .PCD v0.7 - Point Cloud Data file format
VERSION 0.7
FIELDS x y z rgb
SIZE 4 4 4 4
TYPE F F F F
COUNT 1 1 1 1
WIDTH 891
HEIGHT 1
VIEWPOINT 0 0 0 1 0 0 0
POINTS 891
DATA ascii
0.2252701711 0.1427122023 0.72600001 1.380225037e-38
0.2252701711 0.1413293423 0.72600001 1.37093583e-38
0.2252701711 0.1399464823 0.72600001 1.352499086e-38
0.2252701711 0.1385636123 0.72600001 1.334166879e-38
0.2255597011 0.1366398123 0.72800004 1.343421194e-38
0.2255597011 0.1352531423 0.72800004 1.361787453e-38
0.2257044611 0.1335921823 0.72900003 1.361786752e-38
0.2259939811 0.1316512423 0.73100001 1.361858639e-38
0.2264282711 0.1294245823 0.73400003 1.343563426e-38
0.2268625711 0.1271864723 0.73700005 1.325016821e-38
0.2271520811 0.1252188623 0.73900002 1.315725651e-38
0.2272968411 0.1235274323 0.74000001 1.315618172e-38
0.2275863711 0.1215464823 0.74200004 1.324730115e-38
0.2280206611 0.1192702723 0.74500006 1.343385601e-38
0.2280206611 0.1178512223 0.74500006 1.306652664e-38
0.2283101811 0.1158493223 0.74700004 1.269773712e-38
0.2283101811 0.1144264723 0.74700004 1.26069638e-38
0.2283101811 0.1130036223 0.74700004 1.251368777e-38
0.2283101811 0.1115807623 0.74700004 1.269627836e-38
0.2283101811 0.1101579023 0.74700004 1.288068223e-38
0.2284549411 0.1084340923 0.74800003 1.269774552e-38
0.2287444611 0.1064036123 0.75000006 1.260590302e-38
0.2287444611 0.1049750423 0.75000006 1.260625334e-38
0.2287444611 0.1035464623 0.75000006 1.260696801e-38
0.2290339911 0.1015007623 0.75200003 1.26080414e-38
0.2290339911 0.1000683823 0.75200003 1.269986849e-38
0.2290339911 0.09863601225 0.75200003 1.269770909e-38
0.2291787411 0.09688934225 0.75300002 1.279062639e-38
0.2291787411 0.09545506225 0.75300002 1.270059016e-38
0.2291787411 0.09402076225 0.75300002 1.27009629e-38
0.2294682811 0.09194646225 0.75500005 1.270169578e-38
0.2296130311 0.09018647225 0.75600004 1.279315713e-38
0.2296130311 0.08874648225 0.75600004 1.279314172e-38
0.2296130311 0.08730648225 0.75600004 1.279135366e-38
0.2301920811 0.08455600225 0.76000005 1.288319476e-38
0.2301920811 0.08310836225 0.76000005 1.297610225e-38
0.2301920811 0.08166077225 0.76000005 1.297645818e-38
0.2301920811 0.08021312225 0.76000005 1.297645118e-38
0.2301920811 0.07876550225 0.76000005 1.279277458e-38
0.2303368511 0.07698076225 0.76100004 1.270060417e-38
0.2303368511 0.07553123225 0.76100004 1.279210336e-38
0.2303368511 0.07408171225 0.76100004 1.297504848e-38
0.2309158911 0.07126074225 0.76500005 1.306795176e-38
0.2312054111 0.06911408225 0.76700002 1.316013618e-38
0.2312054111 0.06765314225 0.76700002 1.316048651e-38
0.2312054111 0.06619217225 0.76700002 1.316048931e-38
0.2312054111 0.06473123225 0.76700002 1.297753858e-38
0.2313501711 0.06291791225 0.76800001 1.288534576e-38
0.2313501711 0.06145503225 0.76800001 1.288534716e-38
0.2313501711 0.05999221225 0.76800001 1.297610646e-38
0.2313501711 0.05852934225 0.76800001 1.306830068e-38
0.2316397111 0.05634647225 0.77000004 1.316049912e-38
0.2319292211 0.05415600225 0.77200001 1.279352007e-38
0.2319292211 0.05268555225 0.77200001 1.24261907e-38
0.2320739911 0.05084931225 0.77300006 1.279354529e-38
0.2320739911 0.04937693225 0.77300006 1.32509221e-38
0.2320739911 0.04790457225 0.77300006 1.315943974e-38
0.2323635111 0.04568933225 0.77500004 1.306795456e-38
0.2323635111 0.04421314225 0.77500004 1.297647079e-38
0.2326530311 0.04198649225 0.77700001 1.297646939e-38
0.2326530311 0.04050647225 0.77700001 1.28846325e-38
0.2329425611 0.03826838225 0.77900004 1.279243827e-38
0.2330873211 0.03640362225 0.78000003 1.270060417e-38
0.2330873211 0.03491791225 0.78000003 1.270024124e-38
0.2330873211 0.03343218225 0.78000003 1.297538479e-38
0.2330873211 0.03194647225 0.78000003 1.325124861e-38
0.2333768511 0.02968361225 0.78200006 1.315977044e-38
0.2336663711 0.02741315225 0.78400004 1.315904457e-38
0.2339558811 0.02513506225 0.78600001 1.269950135e-38
0.2339558811 0.02363791225 0.78600001 1.233181465e-38
0.2342454211 0.02134838225 0.78800005 1.242366415e-38
0.2342454211 0.01984741225 0.78800005 1.260698903e-38
0.2342454211 0.01834645225 0.78800005 1.196415176e-38
0.2342454211 0.01684551225 0.78800005 1.141385065e-38
0.2343901811 0.01494076225 0.78900003 1.196629295e-38
0.2343901811 0.01343789225 0.78900003 1.251549545e-38
0.2343901811 0.01193505225 0.78900003 1.278811386e-38
0.2349692211 0.008794092255 0.79300004 1.315510272e-38
0.2349692211 0.007283622255 0.79300004 1.306327283e-38
0.2349692211 0.005773152255 0.79300004 1.306328264e-38
0.2352587411 0.003432202255 0.79500002 1.278778736e-38
0.2352587411 0.001917892255 0.79500002 1.260661768e-38
0.2352587411 0.0004036022546 0.79500002 1.260732534e-38
0.2352587411 -0.001110677745 0.79500002 1.260769808e-38
0.2352587411 -0.002624967745 0.79500002 1.224072884e-38
0.2355482711 -0.004988797745 0.79700005 1.196414055e-38
0.2355482711 -0.006506867745 0.79700005 1.214780594e-38
0.2355482711 -0.008024967745 0.79700005 1.232968047e-38
0.2355482711 -0.009543067745 0.79700005 1.242043696e-38
0.2356930311 -0.01149353775 0.79800004 1.251228087e-38
0.2359825511 -0.01388210775 0.80000001 1.233148814e-38
0.2359825511 -0.01540589775 0.80000001 1.214672554e-38
0.2359825511 -0.01692969775 0.80000001 1.196088674e-38
0.2362720811 -0.01933351775 0.80200005 1.186977571e-38
0.2362720811 -0.02086115775 0.80200005 1.177938355e-38
0.2365616011 -0.02327636775 0.80400002 1.168753825e-38
0.2368511311 -0.02569926775 0.80600005 1.168752704e-38
0.2368511311 -0.02723449775 0.80600005 1.177901221e-38
0.2371406511 -0.02966875775 0.80800003 1.186978132e-38
0.2374301811 -0.03211069775 0.81000006 1.196053501e-38
0.2374301811 -0.03365353775 0.81000006 1.20545187e-38
0.2374301811 -0.03519639775 0.81000006 1.214419479e-38
0.2377197011 -0.03765351775 0.81200004 1.186796383e-38
0.2377197011 -0.03920019775 0.81200004 1.159245454e-38
0.2377197011 -0.04074687775 0.81200004 1.140913948e-38
0.2380092211 -0.04321924775 0.81400001 1.122475663e-38
0.2380092211 -0.04476970775 0.81400001 1.103965491e-38
0.2381539911 -0.04678687775 0.81500006 1.094997741e-38
0.2381539911 -0.04833925775 0.81500006 1.122620557e-38
0.2381539911 -0.04989162775 0.81500006 1.150064287e-38
0.2384435111 -0.05238876775 0.81700003 1.113294916e-38
0.2387330411 -0.05489352775 0.81900007 1.076739103e-38
0.2387330411 -0.05645353775 0.81900007 1.113508194e-38
0.2387330411 -0.05801353775 0.81900007 1.159248257e-38
0.2390225611 -0.06053352775 0.82100004 1.159070572e-38
0.2390225611 -0.06209734775 0.82100004 1.168253001e-38
0.2393120811 -0.06462875775 0.82300001 1.214169768e-38
0.2393120811 -0.06619638775 0.82300001 1.260085975e-38
0.2396016111 -0.06873923775 0.82500005 1.223314502e-38
0.2396016111 -0.07031065775 0.82500005 1.18665247e-38
0.2396016111 -0.07188210775 0.82500005 1.150062185e-38
0.2396016111 -0.07345355775 0.82500005 1.113329528e-38
0.2398911311 -0.07601541775 0.82700002 1.131805648e-38
0.2396016111 -0.07659638775 0.82500005 1.15928385e-38
0.2396016111 -0.07816780775 0.82500005 1.14999198e-38
0.2396016111 -0.07973924775 0.82500005 1.140771296e-38
0.2396016111 -0.08131069775 0.82500005 1.094852287e-38
0.2396016111 -0.08288211775 0.82500005 1.048970972e-38
0.2396016111 -0.08445352775 0.82500005 1.095068647e-38
0.2396016111 -0.08602494775 0.82500005 1.140987236e-38
0.2396016111 -0.08759639775 0.82500005 1.159355316e-38
0.2396016111 -0.08916783775 0.82500005 1.186871073e-38
0.2396016111 -0.09073925775 0.82500005 1.159213785e-38
0.2396016111 -0.09231067775 0.82500005 1.131626422e-38
0.2396016111 -0.09388208775 0.82500005 1.140701651e-38
0.2393120811 -0.09441352775 0.82300001 1.159140217e-38
0.2393120811 -0.09598112775 0.82300001 1.140844444e-38
0.2190263661 0.2937483863 0.67400002 1.41836698e-38
0.2190263661 0.2924645773 0.67400002 1.288758783e-38
0.2190263661 0.2911807673 0.67400002 1.169259694e-38
0.2190263661 0.2898969583 0.67400002 1.094135803e-38
0.2190263661 0.2886131483 0.67400002 1.020668527e-38
0.2190263661 0.2873293383 0.67400002 9.836484635e-39
0.2187330361 0.2861864793 0.67200005 9.558457211e-39
0.2190263661 0.2847617193 0.67400002 1.001834375e-38
0.2187330361 0.2836264783 0.67200005 1.057043993e-38
0.2187330361 0.2823464803 0.67200005 1.066587116e-38
0.2187330361 0.2810664773 0.67200005 1.08534798e-38
0.2190263661 0.2796264813 0.67400002 1.112969675e-38
0.2190263661 0.2783426723 0.67400002 1.140627943e-38
0.2190263661 0.2770588583 0.67400002 1.131444393e-38
0.2191730381 0.2756893413 0.67500001 1.131444954e-38
0.2191730381 0.2744036243 0.67500001 1.158996303e-38
0.2191730381 0.2731179113 0.67500001 1.186582685e-38
0.2193197101 0.2717407643 0.67600006 1.23246456e-38
0.2193197101 0.2704531403 0.67600006 1.278596987e-38
0.2193197101 0.2691655233 0.67600006 1.260337087e-38
0.2193197101 0.2678779073 0.67600006 1.242114322e-38
0.2196130321 0.2663921943 0.67800003 1.251298712e-38
0.2196130321 0.2651007623 0.67800003 1.269665812e-38
0.2196130321 0.2638093313 0.67800003 1.297180587e-38
0.2197596971 0.2624131443 0.67900002 1.315549088e-38
0.2199063611 0.2610131433 0.68000001 1.352284828e-38
0.2199063611 0.2597179043 0.68000001 1.379869388e-38
0.2199063611 0.2584226733 0.68000001 1.361464454e-38
0.2199063611 0.2571274343 0.68000001 1.333915066e-38
0.2201997011 0.2556036193 0.68200004 1.343171623e-38
0.2201997011 0.2543045733 0.68200004 1.361645361e-38
0.2201997011 0.2530055193 0.68200004 1.343205675e-38
0.2201997011 0.2517064743 0.68200004 1.333949958e-38
0.2201997011 0.2504074283 0.68200004 1.315618312e-38
0.2201997011 0.2491083823 0.68200004 1.297287366e-38
0.2203463711 0.2476836223 0.68300003 1.306435323e-38
0.2203463711 0.2463826693 0.68300003 1.315619433e-38
0.2203463711 0.2450817233 0.68300003 1.333915486e-38
0.2204930311 0.2436493413 0.68400002 1.361394809e-38
0.2204930311 0.2423464803 0.68400002 1.370686399e-38
0.2204930311 0.2410436203 0.68400002 1.389089091e-38
0.2207863611 0.2394664813 0.68600005 1.389017204e-38
0.2207863611 0.2381598133 0.68600005 1.398165161e-38
0.2209330411 0.2367121953 0.68700004 1.407384864e-38
0.2212263611 0.2351179123 0.68900001 1.416603726e-38
0.2215197011 0.2335160023 0.69100004 1.416603166e-38
0.2215197011 0.2321998123 0.69100004 1.416495686e-38
0.2218130311 0.2305864823 0.69300002 1.407312277e-38
0.2219597011 0.2291160123 0.69400001 1.388944757e-38
0.2219597011 0.2277941023 0.69400001 1.389051957e-38
0.2221063711 0.2263179023 0.69500005 1.389087409e-38
0.2221063711 0.2249940923 0.69500005 1.36153648e-38
0.2221063711 0.2236702823 0.69500005 1.334022545e-38
0.2223997011 0.2220264723 0.69700003 1.343242809e-38
0.2223997011 0.2206988523 0.69700003 1.361538162e-38
0.2223997011 0.2193712423 0.69700003 1.315656287e-38
0.2223997011 0.2180436223 0.69700003 1.269736717e-38
0.2223997011 0.2167160023 0.69700003 1.288030388e-38
0.2223997011 0.2153883923 0.69700003 1.315546565e-38
0.2225463711 0.2138893423 0.69800001 1.333879193e-38
0.2225463711 0.2125598123 0.69800001 1.361394389e-38
0.2225463711 0.2112302823 0.69800001 1.361430682e-38
0.2228397111 0.2095464723 0.70000005 1.361502429e-38
0.2228397111 0.2082131423 0.70000005 1.370686118e-38
0.2229863611 0.2066988623 0.70100003 1.389124404e-38
0.2232797011 0.2049979223 0.70300001 1.379832674e-38
0.2232797011 0.2036588523 0.70300001 1.379867426e-38
0.2232797011 0.2023198223 0.70300001 1.379938192e-38
0.2234263711 0.2007921823 0.70400006 1.370791776e-38
0.2234263711 0.1994512323 0.70400006 1.370864924e-38
0.2235730411 0.1979179123 0.70500004 1.36175228e-38
0.2238663711 0.1961864923 0.70700002 1.35256803e-38
0.2240130211 0.1946436223 0.708 1.352712784e-38
0.2240130211 0.1932950523 0.708 1.343530636e-38
0.2243063711 0.1915464823 0.71000004 1.334418693e-38
0.2244530311 0.1899921823 0.71100003 1.325235143e-38
0.2247463711 0.1882302823 0.71300006 1.316230819e-38
0.2247463711 0.1868721923 0.71300006 1.334562045e-38
0.2248930311 0.1853064823 0.71400005 1.353000751e-38
0.2248930311 0.1839464723 0.71400005 1.343817061e-38
0.2248930311 0.1825864723 0.71400005 1.343852794e-38
0.2251863611 0.1807998223 0.71600002 1.334418132e-38
0.2251863611 0.1794360023 0.71600002 1.325233882e-38
0.2251863611 0.1780721923 0.71600002 1.315977885e-38
0.2251863611 0.1767083823 0.71600002 1.315941731e-38
0.2253330311 0.1751236423 0.71700001 1.315941451e-38
0.2253330311 0.1737579223 0.71700001 1.315796977e-38
0.2253330311 0.1723921923 0.71700001 1.334378335e-38
0.2253330311 0.1710264923 0.71700001 1.352854596e-38
0.2253330311 0.1696607723 0.71700001 1.398809758e-38
0.2256263611 0.1678340823 0.71900004 1.444692053e-38
0.2256263611 0.1664645723 0.71900004 1.426289501e-38
0.2257730411 0.1648607623 0.72000003 1.407958275e-38
0.2257730411 0.1634893323 0.72000003 1.407850796e-38
0.2257730411 0.1621179023 0.72000003 1.407743176e-38
0.2260663711 0.1602664623 0.72200006 1.416962599e-38
0.2260663711 0.1588912223 0.72200006 1.426109435e-38
0.2260663711 0.1575159923 0.72200006 1.435292284e-38
0.2260663711 0.1561407523 0.72200006 1.444298289e-38
0.2262130411 0.1545178923 0.72300005 1.416928828e-38
0.2262130411 0.1531407623 0.72300005 1.398631513e-38
0.2262130411 0.1517636223 0.72300005 1.389481875e-38
0.2262130411 0.1503864723 0.72300005 1.380334899e-38
0.2262130411 0.1490093423 0.72300005 1.3803356e-38
0.2262130411 0.1476321923 0.72300005 1.389518309e-38
0.2265063611 0.1457369523 0.72500002 1.398665284e-38
0.2265063611 0.1443560023 0.72500002 1.407811559e-38
0.2266530311 0.1427122023 0.72600001 1.380116016e-38
0.2266530311 0.1413293423 0.72600001 1.361571373e-38
0.2266530311 0.1399464823 0.72600001 1.324982629e-38
0.2266530311 0.1385636123 0.72600001 1.288319336e-38
0.2269463711 0.1366398123 0.72800004 1.315833411e-38
0.2269463711 0.1352531423 0.72800004 1.34338448e-38
0.2270930311 0.1335921823 0.72900003 1.343385041e-38
0.2273863611 0.1316512423 0.73100001 1.343420213e-38
0.2278263611 0.1294245823 0.73400003 1.32501668e-38
0.2282663711 0.1271864723 0.73700005 1.297430439e-38
0.2285597011 0.1252188623 0.73900002 1.278920127e-38
0.2287063611 0.1235274323 0.74000001 1.269485464e-38
0.2289997011 0.1215464823 0.74200004 1.269628957e-38
0.2291463711 0.1198455123 0.74300003 1.279065722e-38
0.2291463711 0.1184302823 0.74300003 1.260629118e-38
0.2294397111 0.1164321823 0.74500006 1.242224184e-38
0.2297330411 0.1144264723 0.74700004 1.232931193e-38
0.2297330411 0.1130036223 0.74700004 1.232859306e-38
0.2297330411 0.1115807623 0.74700004 1.223675756e-38
0.2297330411 0.1101579023 0.74700004 1.205346352e-38
0.2298797011 0.1084340923 0.74800003 1.223930513e-38
0.2298797011 0.1070093323 0.74800003 1.242331944e-38
0.2301730411 0.1049750423 0.75000006 1.242330402e-38
0.2301730411 0.1035464623 0.75000006 1.251514092e-38
0.2304663711 0.1015007623 0.75200003 1.242366556e-38
0.2304663711 0.1000683823 0.75200003 1.242401168e-38
0.2306130311 0.09832362225 0.75300002 1.242364033e-38
0.2306130311 0.09688934225 0.75300002 1.251547863e-38
0.2306130311 0.09545506225 0.75300002 1.251584157e-38
0.2306130311 0.09402076225 0.75300002 1.26080428e-38
0.2309063811 0.09194646225 0.75500005 1.260805121e-38
0.2309063811 0.09050838225 0.75500005 1.260840434e-38
0.2309063811 0.08907028225 0.75500005 1.279135226e-38
0.2310530311 0.08730648225 0.75600004 1.297468414e-38
0.2313463611 0.08521124225 0.75800002 1.288286966e-38
0.2316397111 0.08310836225 0.76000005 1.288428357e-38
0.2316397111 0.08166077225 0.76000005 1.279170959e-38
0.2316397111 0.08021312225 0.76000005 1.279133825e-38
0.2316397111 0.07876550225 0.76000005 1.260837351e-38
0.2316397111 0.07731791225 0.76000005 1.242401868e-38
0.2316397111 0.07587027225 0.76000005 1.26995588e-38
0.2317863711 0.07408171225 0.76100004 1.297504988e-38
0.2320796911 0.07194649225 0.76300001 1.325054095e-38
0.2326663711 0.06911408225 0.76700002 1.352603763e-38
0.2326663711 0.06765314225 0.76700002 1.32512402e-38
0.2326663711 0.06619217225 0.76700002 1.306827826e-38
0.2326663711 0.06473123225 0.76700002 1.297679309e-38
0.2326663711 0.06327029225 0.76700002 1.288533174e-38
0.2328130311 0.06145503225 0.76800001 1.279315433e-38
0.2328130311 0.05999221225 0.76800001 1.279243687e-38
0.2328130311 0.05852934225 0.76800001 1.325197308e-38
0.2331063711 0.05634647225 0.77000004 1.361824727e-38
0.2333997011 0.05415600225 0.77200001 1.325163256e-38
0.2333997011 0.05268555225 0.77200001 1.279318656e-38
0.2333997011 0.05121504225 0.77200001 1.316018383e-38
0.2335463711 0.04937693225 0.77300006 1.352607967e-38
0.2335463711 0.04790457225 0.77300006 1.325056197e-38
0.2335463711 0.04643216225 0.77300006 1.297504988e-38
0.2338397011 0.04421314225 0.77500004 1.297540441e-38
0.2338397011 0.04273697225 0.77500004 1.297611907e-38
0.2341330411 0.04050647225 0.77700001 1.279244527e-38
0.2341330411 0.03902649225 0.77700001 1.270060557e-38
0.2344263611 0.03678458225 0.77900004 1.260876727e-38
0.2344263611 0.03530075225 0.77900004 1.24254438e-38
0.2345730311 0.03343218225 0.78000003 1.279205851e-38
0.2345730311 0.03194647225 0.78000003 1.315976203e-38
0.2345730311 0.03046074225 0.78000003 1.315976624e-38
0.2348663711 0.02819409225 0.78200006 1.315976624e-38
0.2351597011 0.02591979225 0.78400004 1.306685595e-38
0.2351597011 0.02442645225 0.78400004 1.297502465e-38
0.2354530211 0.02214076225 0.78600001 1.288283463e-38
0.2354530211 0.02064361225 0.78600001 1.269881611e-38
0.2357463711 0.01834645225 0.78800005 1.242367957e-38
0.2357463711 0.01684551225 0.78800005 1.214852901e-38
0.2357463711 0.01534455225 0.78800005 1.242367537e-38
0.2357463711 0.01384362225 0.78800005 1.269915943e-38
0.2358930311 0.01193505225 0.78900003 1.278810265e-38
0.2361863611 0.009613152255 0.79100001 1.297285685e-38
0.2364797111 0.007283622255 0.79300004 1.297322258e-38
0.2364797111 0.005773152255 0.79300004 1.297358272e-38
0.2364797111 0.004262652255 0.79300004 1.260767847e-38
0.2367730311 0.001917892255 0.79500002 1.224176581e-38
0.2367730311 0.0004036022546 0.79500002 1.23325195e-38
0.2367730311 -0.001110677745 0.79500002 1.251549124e-38
0.2367730311 -0.002624967745 0.79500002 1.23321986e-38
0.2367730311 -0.004139217745 0.79500002 1.214673535e-38
0.2370663711 -0.006506867745 0.79700005 1.223893098e-38
0.2370663711 -0.008024967745 0.79700005 1.242044397e-38
0.2370663711 -0.009543067745 0.79700005 1.232860287e-38
0.2370663711 -0.01106113775 0.79700005 1.232897842e-38
0.2372130311 -0.01301354775 0.79800004 1.223751847e-38
0.2375063711 -0.01540589775 0.80000001 1.214637802e-38
0.2375063711 -0.01692969775 0.80000001 1.205308657e-38
0.2375063711 -0.01845351775 0.80000001 1.196162102e-38
0.2377997011 -0.02086115775 0.80200005 1.18705142e-38
0.2380930311 -0.02327636775 0.80400002 1.178009822e-38
0.2383863711 -0.02569926775 0.80600005 1.196303633e-38
0.2383863711 -0.02723449775 0.80600005 1.21463598e-38
0.2386797011 -0.02966875775 0.80800003 1.205310199e-38
0.2386797011 -0.03120780775 0.80800003 1.196018189e-38
0.2389730411 -0.03365353775 0.81000006 1.196053361e-38
0.2389730411 -0.03519639775 0.81000006 1.196124127e-38
0.2392663711 -0.03765351775 0.81200004 1.177648567e-38
0.2392663711 -0.03920019775 0.81200004 1.16839243e-38
0.2392663711 -0.04074687775 0.81200004 1.159279786e-38
0.2392663711 -0.04229352775 0.81200004 1.149990018e-38
0.2392663711 -0.04384017775 0.81200004 1.131696067e-38
0.2395597011 -0.04632020775 0.81400001 1.122584684e-38
0.2395597011 -0.04787067775 0.81400001 1.131732781e-38
0.2395597011 -0.04942113775 0.81400001 1.140917171e-38
0.2397063711 -0.05144399775 0.81500006 1.122622659e-38
0.2399997011 -0.05394497775 0.81700003 1.104362059e-38
0.2399997011 -0.05550116775 0.81700003 1.131875853e-38
0.2402930311 -0.05801353775 0.81900007 1.159428184e-38
0.2402930311 -0.05957353775 0.81900007 1.14077592e-38
0.2405863711 -0.06209734775 0.82100004 1.131626702e-38
0.2405863711 -0.06366116775 0.82100004 1.177507036e-38
0.2408797011 -0.06619638775 0.82300001 1.223422962e-38
0.2408797011 -0.06776398775 0.82300001 1.195762872e-38
0.2411730411 -0.07031065775 0.82500005 1.177540247e-38
0.2411730411 -0.07188210775 0.82500005 1.159210142e-38
0.2411730411 -0.07345355775 0.82500005 1.131697328e-38
0.2411730411 -0.07502496775 0.82500005 1.150030516e-38
0.2411730411 -0.07659638775 0.82500005 1.159212664e-38
0.2411730411 -0.07816780775 0.82500005 1.14999198e-38
0.2411730411 -0.07973924775 0.82500005 1.140986115e-38
0.2411730411 -0.08131069775 0.82500005 1.113362038e-38
0.2408797011 -0.08187255775 0.82300001 1.085776217e-38
0.2411730411 -0.08445352775 0.82500005 1.113291833e-38
0.2411730411 -0.08602494775 0.82500005 1.131659913e-38
0.2408797011 -0.08657542775 0.82300001 1.150064007e-38
0.2411730411 -0.08916783775 0.82500005 1.159284971e-38
0.2411730411 -0.09073925775 0.82500005 1.113333031e-38
0.2411730411 -0.09231067775 0.82500005 1.058122853e-38
0.2411730411 -0.09388208775 0.82500005 1.122298819e-38
0.2408797011 -0.09441352775 0.82300001 1.186547373e-38
0.2408797011 -0.09598112775 0.82300001 1.131481528e-38
0.2203101711 0.2937483863 0.67400002 1.657427097e-38
0.2203101711 0.2924645773 0.67400002 1.408143107e-38
0.2203101711 0.2911807673 0.67400002 1.168793902e-38
0.2203101711 0.2898969583 0.67400002 1.140236e-38
0.2203101711 0.2886131483 0.67400002 1.122119593e-38
0.2203101711 0.2873293383 0.67400002 1.104003326e-38
0.2203101711 0.2860455253 0.67400002 1.085671119e-38
0.2203101711 0.2847617193 0.67400002 1.113292674e-38
0.2203101711 0.2834779103 0.67400002 1.14070025e-38
0.2203101711 0.2821941003 0.67400002 1.186510659e-38
0.2203101711 0.2809102913 0.67400002 1.232285054e-38
0.2203101711 0.2796264813 0.67400002 1.223173391e-38
0.2203101711 0.2783426723 0.67400002 1.214061308e-38
0.2204587511 0.2769750543 0.67500001 1.204913351e-38
0.2204587511 0.2756893413 0.67500001 1.195767076e-38
0.2204587511 0.2744036243 0.67500001 1.223390872e-38
0.2206073311 0.2730283813 0.67600006 1.260052203e-38
0.2206073311 0.2717407643 0.67600006 1.31515238e-38
0.2209044611 0.2702664813 0.67800003 1.37947296e-38
0.2206073311 0.2691655233 0.67600006 1.324694522e-38
0.2209044611 0.2676836183 0.67800003 1.269594205e-38
0.2209044611 0.2663921943 0.67800003 1.269631059e-38
0.2209044611 0.2651007623 0.67800003 1.278777895e-38
0.2209044611 0.2638093313 0.67800003 1.297144293e-38
0.2209044611 0.2625179073 0.67800003 1.324624037e-38
0.2210530311 0.2611198133 0.67900002 1.34292023e-38
0.2210530311 0.2598264743 0.67900002 1.361321381e-38
0.2210530311 0.2585331503 0.67900002 1.333804784e-38
0.2210530311 0.2572398113 0.67900002 1.315474679e-38
0.2210530311 0.2559464803 0.67900002 1.315511673e-38
0.2212016011 0.2545369573 0.68000001 1.324909902e-38
0.2212016011 0.2532417183 0.68000001 1.315653905e-38
0.2212016011 0.2519464793 0.68000001 1.306434482e-38
0.2212016011 0.2506512403 0.68000001 1.28792375e-38
0.2212016011 0.2493560023 0.68000001 1.2787402e-38
0.2214987511 0.2478093363 0.68200004 1.28792375e-38
0.2214987511 0.2465102823 0.68200004 1.306220083e-38
0.2214987511 0.2452112363 0.68200004 1.324516417e-38
0.2216473211 0.2437807623 0.68300003 1.343026869e-38
0.2216473211 0.2424798163 0.68300003 1.352282025e-38
0.2216473211 0.2411788553 0.68300003 1.370576677e-38
0.2216473211 0.2398779093 0.68300003 1.37050423e-38
0.2220930411 0.2381598133 0.68600005 1.379832113e-38
0.2222416011 0.2367121953 0.68700004 1.389052377e-38
0.2225387511 0.2351179123 0.68900001 1.398235786e-38
0.2228358911 0.2335160023 0.69100004 1.407455069e-38
0.2228358911 0.2321998123 0.69100004 1.425678956e-38
0.2231330311 0.2305864823 0.69300002 1.398343827e-38
0.2231330311 0.2292664823 0.69300002 1.379761208e-38
0.2232816011 0.2277941023 0.69400001 1.379832674e-38
0.2232816011 0.2264722023 0.69400001 1.379904e-38
0.2234301811 0.2249940923 0.69500005 1.343241128e-38
0.2234301811 0.2236702823 0.69500005 1.30650749e-38
0.2237273211 0.2220264723 0.69700003 1.31569146e-38
0.2237273211 0.2206988523 0.69700003 1.334058419e-38
0.2237273211 0.2193712423 0.69700003 1.30650777e-38
0.2237273211 0.2180436223 0.69700003 1.288103816e-38
0.2237273211 0.2167160023 0.69700003 1.306218962e-38
0.2238758911 0.2152188623 0.69800001 1.324730115e-38
0.2238758911 0.2138893423 0.69800001 1.333878492e-38
0.2238758911 0.2125598123 0.69800001 1.352246152e-38
0.2241730311 0.2108798123 0.70000005 1.32487557e-38
0.2241730311 0.2095464723 0.70000005 1.306472597e-38
0.2241730311 0.2082131423 0.70000005 1.343170922e-38
0.2243216011 0.2066988623 0.70100003 1.389124264e-38
0.2243216011 0.2053636123 0.70100003 1.389052377e-38
0.2246187411 0.2036588523 0.70300001 1.389123142e-38
0.2246187411 0.2023198223 0.70300001 1.380010358e-38
0.2247673211 0.2007921823 0.70400006 1.379974906e-38
0.2247673211 0.1994512323 0.70400006 1.380083086e-38
0.2249158911 0.1979179123 0.70500004 1.389302228e-38
0.2252130311 0.1961864923 0.70700002 1.371006736e-38
0.2253616011 0.1946436223 0.708 1.36186032e-38
0.2256587511 0.1928988623 0.71000004 1.352714045e-38
0.2256587511 0.1915464823 0.71000004 1.343530496e-38
0.2258073211 0.1899921823 0.71100003 1.32519927e-38
0.2261044711 0.1882302823 0.71300006 1.306904477e-38
0.2261044711 0.1868721923 0.71300006 1.325343744e-38
0.2262530411 0.1853064823 0.71400005 1.352894392e-38
0.2262530411 0.1839464723 0.71400005 1.352894252e-38
0.2262530411 0.1825864723 0.71400005 1.352857818e-38
0.2262530411 0.1812264823 0.71400005 1.334454285e-38
0.2265501811 0.1794360023 0.71600002 1.315978025e-38
0.2265501811 0.1780721923 0.71600002 1.306649581e-38
0.2265501811 0.1767083823 0.71600002 1.297502886e-38
0.2266987511 0.1751236423 0.71700001 1.30672329e-38
0.2266987511 0.1737579223 0.71700001 1.325017942e-38
0.2266987511 0.1723921923 0.71700001 1.343527833e-38
0.2266987511 0.1710264923 0.71700001 1.362003113e-38
0.2266987511 0.1696607723 0.71700001 1.42639614e-38
0.2269958911 0.1678340823 0.71900004 1.499757478e-38
0.2269958911 0.1664645723 0.71900004 1.453840431e-38
0.2271444711 0.1648607623 0.72000003 1.417071059e-38
0.2271444711 0.1634893323 0.72000003 1.40788821e-38
0.2271444711 0.1621179023 0.72000003 1.407851777e-38
0.2271444711 0.1607464823 0.72000003 1.407851216e-38
0.2274416111 0.1588912223 0.72200006 1.416962038e-38
0.2274416111 0.1575159923 0.72200006 1.416889311e-38
0.2274416111 0.1561407523 0.72200006 1.416890152e-38
0.2274416111 0.1547655123 0.72200006 1.407707443e-38
0.2274416111 0.1533902823 0.72200006 1.398594799e-38
0.2274416111 0.1520150423 0.72200006 1.398701578e-38
0.2275901811 0.1503864723 0.72300005 1.398702419e-38
0.2275901811 0.1490093423 0.72300005 1.398882766e-38
0.2275901811 0.1476321923 0.72300005 1.398738292e-38
0.2278873211 0.1457369523 0.72500002 1.407884987e-38
0.2278873211 0.1443560023 0.72500002 1.426215933e-38
0.2280358911 0.1427122023 0.72600001 1.389230342e-38
0.2280358911 0.1413293423 0.72600001 1.361715566e-38
0.2280358911 0.1399464823 0.72600001 1.297502606e-38
0.2283330311 0.1380264823 0.72800004 1.242292707e-38
0.2283330311 0.1366398123 0.72800004 1.288101995e-38
0.2283330311 0.1352531423 0.72800004 1.334056737e-38
0.2284816111 0.1335921823 0.72900003 1.334093731e-38
0.2289273211 0.1313750423 0.73200005 1.334058279e-38
0.2292244711 0.1294245823 0.73400003 1.30650805e-38
0.2295216111 0.1274664623 0.73600006 1.278884814e-38
0.2299673211 0.1252188623 0.73900002 1.251297591e-38
0.2301158911 0.1235274323 0.74000001 1.223746382e-38
0.2301158911 0.1221179123 0.74000001 1.223745961e-38
0.2304130311 0.1201331423 0.74200004 1.223783096e-38
0.2308587511 0.1178512223 0.74500006 1.214672694e-38
0.2308587511 0.1164321823 0.74500006 1.214563673e-38
0.2308587511 0.1150131323 0.74500006 1.214490525e-38
0.2311558911 0.1130036223 0.74700004 1.223638482e-38
0.2311558911 0.1115807623 0.74700004 1.177721154e-38
0.2311558911 0.1101579023 0.74700004 1.131804667e-38
0.2313044611 0.1084340923 0.74800003 1.178118282e-38
0.2316016111 0.1064036123 0.75000006 1.233182866e-38
0.2316016111 0.1049750423 0.75000006 1.233182025e-38
0.2316016111 0.1035464623 0.75000006 1.242329982e-38
0.2318987511 0.1015007623 0.75200003 1.223963023e-38
0.2318987511 0.1000683823 0.75200003 1.214778072e-38
0.2320473211 0.09832362225 0.75300002 1.214812404e-38
0.2320473211 0.09688934225 0.75300002 1.223924767e-38
0.2320473211 0.09545506225 0.75300002 1.233037131e-38
0.2320473211 0.09402076225 0.75300002 1.251584437e-38
0.2320473211 0.09258648225 0.75300002 1.251549545e-38
0.2320473211 0.09115220225 0.75300002 1.251476957e-38
0.2323444611 0.08907028225 0.75500005 1.278991032e-38
0.2324930411 0.08730648225 0.75600004 1.315762505e-38
0.2327901711 0.08521124225 0.75800002 1.297468694e-38
0.2330873211 0.08310836225 0.76000005 1.279100754e-38
0.2330873211 0.08166077225 0.76000005 1.269916364e-38
0.2330873211 0.08021312225 0.76000005 1.260767847e-38
0.2330873211 0.07876550225 0.76000005 1.23335999e-38
0.2330873211 0.07731791225 0.76000005 1.214923106e-38
0.2332358911 0.07553123225 0.76100004 1.260807083e-38
0.2335330311 0.07339983225 0.76300001 1.306652104e-38
0.2338301811 0.07126074225 0.76500005 1.352496984e-38
0.2338301811 0.06980362225 0.76500005 1.398521791e-38
0.2341273111 0.06765314225 0.76700002 1.343455806e-38
0.2341273111 0.06619217225 0.76700002 1.297609104e-38
0.2341273111 0.06473123225 0.76700002 1.2884966e-38
0.2341273111 0.06327029225 0.76700002 1.288462549e-38
0.2341273111 0.06180932225 0.76700002 1.279280821e-38
0.2341273111 0.06034838225 0.76700002 1.270096431e-38
0.2342758911 0.05852934225 0.76800001 1.34359986e-38
0.2342758911 0.05706646225 0.76800001 1.416925184e-38
0.2345730311 0.05487980225 0.77000004 1.37082849e-38
0.2345730311 0.05341314225 0.77000004 1.32519913e-38
0.2348701711 0.05121504225 0.77200001 1.352679433e-38
0.2348701711 0.04974457225 0.77200001 1.389305311e-38
0.2348701711 0.04827409225 0.77200001 1.343351129e-38
0.2350187511 0.04643216225 0.77300006 1.297432681e-38
0.2353159011 0.04421314225 0.77500004 1.29743198e-38
0.2353159011 0.04273697225 0.77500004 1.297575753e-38
0.2353159011 0.04126074225 0.77500004 1.279244808e-38
0.2356130311 0.03902649225 0.77700001 1.269989652e-38
0.2356130311 0.03754648225 0.77700001 1.242367396e-38
0.2359101811 0.03530075225 0.77900004 1.224106656e-38
0.2360587511 0.03343218225 0.78000003 1.260767847e-38
0.2360587511 0.03194647225 0.78000003 1.306757621e-38
0.2360587511 0.03046074225 0.78000003 1.315905578e-38
0.2363558911 0.02819409225 0.78200006 1.325124861e-38
0.2363558911 0.02670457225 0.78200006 1.343420213e-38
0.2363558911 0.02521505225 0.78200006 1.370971283e-38
0.2363558911 0.02372553225 0.78200006 1.325089968e-38
0.2369501711 0.02064361225 0.78600001 1.288177244e-38
0.2369501711 0.01914649225 0.78600001 1.288034592e-38
0.2372473311 0.01684551225 0.78800005 1.288069905e-38
0.2372473311 0.01534455225 0.78800005 1.288141091e-38
0.2372473311 0.01384362225 0.78800005 1.288067663e-38
0.2373958911 0.01193505225 0.78900003 1.288030248e-38
0.2376930311 0.009613152255 0.79100001 1.288102415e-38
0.2376930311 0.008106492255 0.79100001 1.288174442e-38
0.2376930311 0.006599802255 0.79100001 1.288138709e-38
0.2379901811 0.004262652255 0.79300004 1.242508087e-38
0.2379901811 0.002752182255 0.79300004 1.196589498e-38
0.2382873211 0.0004036022546 0.79500002 1.214955756e-38
0.2382873211 -0.001110677745 0.79500002 1.242400747e-38
0.2382873211 -0.002624967745 0.79500002 1.242366836e-38
0.2382873211 -0.004139217745 0.79500002 1.24218803e-38
0.2382873211 -0.005653507745 0.79500002 1.242188591e-38
0.2382873211 -0.007167797745 0.79500002 1.251335566e-38
0.2385844711 -0.009543067745 0.79700005 1.232716514e-38
0.2385844711 -0.01106113775 0.79700005 1.223677018e-38
0.2385844711 -0.01257926775 0.79700005 1.214530042e-38
0.2387330411 -0.01453352775 0.79800004 1.214564374e-38
0.2387330411 -0.01605353775 0.79800004 1.214527099e-38
0.2390301811 -0.01845351775 0.80000001 1.214491927e-38
0.2393273211 -0.02086115775 0.80200005 1.205273204e-38
0.2396244611 -0.02327636775 0.80400002 1.196016787e-38
0.2396244611 -0.02480778775 0.80400002 1.223494709e-38
0.2396244611 -0.02633923775 0.80400002 1.260302055e-38
0.2399216111 -0.02876973775 0.80600005 1.223676877e-38
0.2402187411 -0.03120780775 0.80800003 1.196017768e-38
0.2402187411 -0.03274685775 0.80800003 1.186761771e-38
0.2405159011 -0.03519639775 0.81000006 1.177721154e-38
0.2405159011 -0.03673923775 0.81000006 1.17768472e-38
0.2408130311 -0.03920019775 0.81200004 1.177648567e-38
0.2408130311 -0.04074687775 0.81200004 1.177648287e-38
0.2408130311 -0.04229352775 0.81200004 1.177577241e-38
0.2408130311 -0.04384017775 0.81200004 1.168573898e-38
0.2408130311 -0.04538685775 0.81200004 1.159211403e-38
0.2408130311 -0.04693353775 0.81200004 1.149956527e-38
0.2408130311 -0.04848018775 0.81200004 1.140952204e-38
0.2411101811 -0.05097163775 0.81400001 1.141203036e-38
0.2415558911 -0.05394497775 0.81700003 1.141022969e-38
0.2415558911 -0.05550116775 0.81700003 1.150205818e-38
0.2415558911 -0.05705732775 0.81700003 1.168502572e-38
0.2418530411 -0.05957353775 0.81900007 1.131698028e-38
0.2418530411 -0.06113353775 0.81900007 1.094963129e-38
0.2421501711 -0.06366116775 0.82100004 1.140880317e-38
0.2421501711 -0.06522495775 0.82100004 1.186617858e-38
0.2421501711 -0.06678876775 0.82100004 1.177397594e-38
0.2424473211 -0.06933162775 0.82300001 1.177541508e-38
0.2424473211 -0.07089922775 0.82300001 1.168250899e-38
0.2427444711 -0.07345355775 0.82500005 1.159140217e-38
0.2427444711 -0.07502496775 0.82500005 1.159213084e-38
0.2427444711 -0.07659638775 0.82500005 1.168395933e-38
0.2427444711 -0.07816780775 0.82500005 1.150028133e-38
0.2427444711 -0.07973924775 0.82500005 1.140952204e-38
0.2427444711 -0.08131069775 0.82500005 1.131876414e-38
0.2424473211 -0.08187255775 0.82300001 1.131659913e-38
0.2427444711 -0.08445352775 0.82500005 1.131730539e-38
0.2424473211 -0.08500779775 0.82300001 1.131659353e-38
0.2424473211 -0.08657542775 0.82300001 1.131660053e-38
0.2427444711 -0.08916783775 0.82500005 1.140916751e-38
0.2427444711 -0.09073925775 0.82500005 1.067449755e-38
0.2427444711 -0.09231067775 0.82500005 9.938008709e-39
0.2424473211 -0.09284589775 0.82300001 1.103823119e-38
0.2424473211 -0.09441352775 0.82300001 1.214097321e-38
0.2424473211 -0.09598112775 0.82300001 1.131481107e-38
0.2215939811 0.2937483863 0.67400002 1.437309593e-38
0.2215939811 0.2924645773 0.67400002 1.297508351e-38
0.2215939811 0.2911807673 0.67400002 1.168328251e-38
0.2215939811 0.2898969583 0.67400002 1.158570309e-38
0.2215939811 0.2886131483 0.67400002 1.149779543e-38
0.2215939811 0.2873293383 0.67400002 1.140701792e-38
0.2215939811 0.2860455253 0.67400002 1.131517401e-38
0.2215939811 0.2847617193 0.67400002 1.140735983e-38
0.2215939811 0.2834779103 0.67400002 1.159138816e-38
0.2212930411 0.2823464803 0.67200005 1.186510098e-38
0.2212930411 0.2810664773 0.67200005 1.223101785e-38
0.2215939811 0.2796264813 0.67400002 1.232358062e-38
0.2215939811 0.2783426723 0.67400002 1.250760474e-38
0.2215939811 0.2770588583 0.67400002 1.2324647e-38
0.2217444611 0.2756893413 0.67500001 1.214243196e-38
0.2217444611 0.2744036243 0.67500001 1.241760214e-38
0.2217444611 0.2731179113 0.67500001 1.260089198e-38
0.2218949411 0.2717407643 0.67600006 1.287565998e-38
0.2218949411 0.2704531403 0.67600006 1.315045181e-38
0.2218949411 0.2691655233 0.67600006 1.287781798e-38
0.2218949411 0.2678779073 0.67600006 1.251228087e-38
0.2218949411 0.2665902823 0.67600006 1.260484504e-38
0.2218949411 0.2653026663 0.67600006 1.269738259e-38
0.2218949411 0.2640150493 0.67600006 1.287960323e-38
0.2221958911 0.2625179073 0.67800003 1.30607659e-38
0.2221958911 0.2612264753 0.67800003 1.324587463e-38
0.2221958911 0.2599350443 0.67800003 1.333410458e-38
0.2223463711 0.2585331503 0.67900002 1.315328663e-38
0.2223463711 0.2572398113 0.67900002 1.306217841e-38
0.2223463711 0.2559464803 0.67900002 1.306398328e-38
0.2224968411 0.2545369573 0.68000001 1.306577274e-38
0.2223463711 0.2533598173 0.67900002 1.297285825e-38
0.2224968411 0.2519464793 0.68000001 1.297321978e-38
0.2224968411 0.2506512403 0.68000001 1.278704046e-38
0.2224968411 0.2493560023 0.68000001 1.260085554e-38
0.2227978011 0.2478093363 0.68200004 1.26934057e-38
0.2227978011 0.2465102823 0.68200004 1.278346015e-38
0.2229482711 0.2450817233 0.68300003 1.296929615e-38
0.2229482711 0.2437807623 0.68300003 1.324694802e-38
0.2229482711 0.2424798163 0.68300003 1.333913665e-38
0.2229482711 0.2411788553 0.68300003 1.342916587e-38
0.2230987511 0.2397407673 0.68400002 1.343022945e-38
0.2230987511 0.2384379133 0.68400002 1.343239586e-38
0.2233997111 0.2368531453 0.68600005 1.343169381e-38
0.2238511211 0.2351179123 0.68900001 1.343097775e-38
0.2240016111 0.2336607653 0.69000006 1.343133928e-38
0.2241520911 0.2321998123 0.69100004 1.352210278e-38
0.2244530311 0.2305864823 0.69300002 1.3338436e-38
0.2244530311 0.2292664823 0.69300002 1.31547636e-38
0.2244530311 0.2279464723 0.69300002 1.333879333e-38
0.2246035011 0.2264722023 0.69400001 1.342775336e-38
0.2246035011 0.2251502923 0.69400001 1.31526014e-38
0.2247539811 0.2236702823 0.69500005 1.278597828e-38
0.2247539811 0.2223464823 0.69500005 1.297036814e-38
0.2247539811 0.2210226623 0.69500005 1.30629183e-38
0.2250549411 0.2193712423 0.69700003 1.28813983e-38
0.2250549411 0.2180436223 0.69700003 1.26977259e-38
0.2252054111 0.2165483923 0.69800001 1.288067943e-38
0.2252054111 0.2152188623 0.69800001 1.315546705e-38
0.2252054111 0.2138893423 0.69800001 1.333877791e-38
0.2252054111 0.2125598123 0.69800001 1.361465154e-38
0.2255063711 0.2108798123 0.70000005 1.38001246e-38
0.2255063711 0.2095464723 0.70000005 1.398451306e-38
0.2255063711 0.2082131423 0.70000005 1.39827194e-38
0.2256568511 0.2066988623 0.70100003 1.398307813e-38
0.2256568511 0.2053636123 0.70100003 1.38919615e-38
0.2259578011 0.2036588523 0.70300001 1.389266916e-38
0.2259578011 0.2023198223 0.70300001 1.380010779e-38
0.2261082811 0.2007921823 0.70400006 1.361643259e-38
0.2261082811 0.1994512323 0.70400006 1.389157755e-38
0.2262587511 0.1979179123 0.70500004 1.407525274e-38
0.2265597011 0.1961864923 0.70700002 1.370970862e-38
0.2267101711 0.1946436223 0.708 1.334237925e-38
0.2270111311 0.1928988623 0.71000004 1.343350989e-38
0.2270111311 0.1915464823 0.71000004 1.352462933e-38
0.2271616011 0.1899921823 0.71100003 1.343171903e-38
0.2274625611 0.1882302823 0.71300006 1.333917588e-38
0.2274625611 0.1868721923 0.71300006 1.343496864e-38
0.2276130311 0.1853064823 0.71400005 1.361899837e-38
0.2276130311 0.1839464723 0.71400005 1.37122688e-38
0.2276130311 0.1825864723 0.71400005 1.380481055e-38
0.2276130311 0.1812264823 0.71400005 1.361969341e-38
0.2279139811 0.1794360023 0.71600002 1.352640057e-38
0.2279139811 0.1780721923 0.71600002 1.334163096e-38
0.2279139811 0.1767083823 0.71600002 1.324874168e-38
0.2280644611 0.1751236423 0.71700001 1.33405996e-38
0.2280644611 0.1737579223 0.71700001 1.334095413e-38
0.2280644611 0.1723921923 0.71700001 1.343529655e-38
0.2280644611 0.1710264923 0.71700001 1.352784531e-38
0.2283654111 0.1692036123 0.71900004 1.389518309e-38
0.2283654111 0.1678340823 0.71900004 1.435472771e-38
0.2283654111 0.1664645723 0.71900004 1.417034766e-38
0.2283654111 0.1650950523 0.71900004 1.407816744e-38
0.2285158911 0.1634893323 0.72000003 1.398634596e-38
0.2285158911 0.1621179023 0.72000003 1.389485658e-38
0.2285158911 0.1607464823 0.72000003 1.389484537e-38
0.2285158911 0.1593750523 0.72000003 1.389483416e-38
0.2288168511 0.1575159923 0.72200006 1.389410549e-38
0.2288168511 0.1561407523 0.72200006 1.398557945e-38
0.2288168511 0.1547655123 0.72200006 1.398521932e-38
0.2288168511 0.1533902823 0.72200006 1.398235226e-38
0.2289673211 0.1517636223 0.72300005 1.407777788e-38
0.2289673211 0.1503864723 0.72300005 1.417070079e-38
0.2289673211 0.1490093423 0.72300005 1.398739974e-38
0.2292682711 0.1471179023 0.72500002 1.389626909e-38
0.2292682711 0.1457369523 0.72500002 1.380370492e-38
0.2294187411 0.1440950523 0.72600001 1.37115191e-38
0.2294187411 0.1427122023 0.72600001 1.371152891e-38
0.2294187411 0.1413293423 0.72600001 1.362003393e-38
0.2294187411 0.1399464823 0.72600001 1.32501626e-38
0.2297197111 0.1380264823 0.72800004 1.297285124e-38
0.2297197111 0.1366398123 0.72800004 1.315651242e-38
0.2297197111 0.1352531423 0.72800004 1.334020163e-38
0.2298701811 0.1335921823 0.72900003 1.324730816e-38
0.2301711211 0.1316512423 0.73100001 1.324624597e-38
0.2306225611 0.1294245823 0.73400003 1.297111223e-38
0.2309235111 0.1274664623 0.73600006 1.269594626e-38
0.2313749311 0.1252188623 0.73900002 1.232750986e-38
0.2313749311 0.1238112523 0.73900002 1.205127609e-38
0.2315254111 0.1221179123 0.74000001 1.196122445e-38
0.2318263711 0.1201331423 0.74200004 1.196194752e-38
0.2322778011 0.1178512223 0.74500006 1.19605182e-38
0.2322778011 0.1164321823 0.74500006 1.195907346e-38
0.2325787511 0.1144264723 0.74700004 1.196085731e-38
0.2325787511 0.1130036223 0.74700004 1.196014685e-38
0.2325787511 0.1115807623 0.74700004 1.177720173e-38
0.2327292311 0.1098588623 0.74800003 1.150134352e-38
0.2327292311 0.1084340923 0.74800003 1.186977011e-38
0.2330301811 0.1064036123 0.75000006 1.223818689e-38
0.2333311311 0.1043655223 0.75200003 1.214634999e-38
0.2330301811 0.1035464623 0.75000006 1.214671153e-38
0.2333311311 0.1015007623 0.75200003 1.205595503e-38
0.2333311311 0.1000683823 0.75200003 1.205557948e-38
0.2333311311 0.09863601225 0.75200003 1.20548452e-38
0.2334816111 0.09688934225 0.75300002 1.205449348e-38
0.2334816111 0.09545506225 0.75300002 1.214705344e-38
0.2334816111 0.09402076225 0.75300002 1.223997495e-38
0.2334816111 0.09258648225 0.75300002 1.223926869e-38
0.2337825611 0.09050838225 0.75500005 1.223782395e-38
0.2337825611 0.08907028225 0.75500005 1.242148514e-38
0.2339330311 0.08730648225 0.75600004 1.260552467e-38
0.2345349411 0.08455600225 0.76000005 1.260661068e-38
0.2345349411 0.08310836225 0.76000005 1.260769108e-38
0.2345349411 0.08166077225 0.76000005 1.251585978e-38
0.2345349411 0.08021312225 0.76000005 1.251585558e-38
0.2345349411 0.07876550225 0.76000005 1.242545081e-38
0.2346854111 0.07698076225 0.76100004 1.233362232e-38
0.2346854111 0.07553123225 0.76100004 1.260841975e-38
0.2349863711 0.07339983225 0.76300001 1.288248571e-38
0.2349863711 0.07194649225 0.76300001 1.306615109e-38
0.2352873211 0.06980362225 0.76500005 1.334273098e-38
0.2352873211 0.06834646225 0.76500005 1.306722309e-38
0.2352873211 0.06688931225 0.76500005 1.279242846e-38
0.2352873211 0.06543218225 0.76500005 1.270058736e-38
0.2355882711 0.06327029225 0.76700002 1.260913021e-38
0.2355882711 0.06180932225 0.76700002 1.251731573e-38
0.2355882711 0.06034838225 0.76700002 1.251837371e-38
0.2357387511 0.05852934225 0.76800001 1.297645818e-38
0.2360397011 0.05634647225 0.77000004 1.343455806e-38
0.2360397011 0.05487980225 0.77000004 1.32512458e-38
0.2360397011 0.05341314225 0.77000004 1.315978305e-38
0.2360397011 0.05194645225 0.77000004 1.325127523e-38
0.2363406511 0.04974457225 0.77200001 1.343350849e-38
0.2363406511 0.04827409225 0.77200001 1.315728314e-38
0.2364911411 0.04643216225 0.77300006 1.288140811e-38
0.2367920811 0.04421314225 0.77500004 1.306686435e-38
0.2367920811 0.04273697225 0.77500004 1.325090249e-38
0.2367920811 0.04126074225 0.77500004 1.306688117e-38
0.2367920811 0.03978457225 0.77500004 1.288321578e-38
0.2370930211 0.03754648225 0.77700001 1.270026926e-38
0.2373939911 0.03530075225 0.77900004 1.251765905e-38
0.2373939911 0.03381695225 0.77900004 1.27927928e-38
0.2375444611 0.03194647225 0.78000003 1.306830068e-38
0.2375444611 0.03046074225 0.78000003 1.306830349e-38
0.2375444611 0.02897503225 0.78000003 1.316013618e-38
0.2378454111 0.02670457225 0.78200006 1.325125281e-38
0.2378454111 0.02521505225 0.78200006 1.325089968e-38
0.2381463711 0.02293315225 0.78400004 1.306651823e-38
0.2381463711 0.02143981225 0.78400004 1.278922229e-38
0.2384473211 0.01914649225 0.78600001 1.297254015e-38
0.2387482811 0.01684551225 0.78800005 1.31558426e-38
0.2387482811 0.01534455225 0.78800005 1.29732394e-38
0.2387482811 0.01384362225 0.78800005 1.269736437e-38
0.2388987511 0.01193505225 0.78900003 1.278919146e-38
0.2388987511 0.01043217225 0.78900003 1.278955019e-38
0.2391997011 0.008106492255 0.79100001 1.297322118e-38
0.2391997011 0.006599802255 0.79100001 1.315689218e-38
0.2391997011 0.005093152255 0.79100001 1.269843356e-38
0.2395006611 0.002752182255 0.79300004 1.223996233e-38
0.2395006611 0.001241702255 0.79300004 1.242469831e-38
0.2395006611 -0.0002687677454 0.79300004 1.251655343e-38
0.2398016011 -0.002624967745 0.79500002 1.260697361e-38
0.2398016011 -0.004139217745 0.79500002 1.269702526e-38
0.2398016011 -0.005653507745 0.79500002 1.26055597e-38
0.2398016011 -0.007167797745 0.79500002 1.260626736e-38
0.2398016011 -0.008682077745 0.79500002 1.251155219e-38
0.2401025611 -0.01106113775 0.79700005 1.242006982e-38
0.2401025611 -0.01257926775 0.79700005 1.232858886e-38
0.2402530411 -0.01453352775 0.79800004 1.223817988e-38
0.2402530411 -0.01605353775 0.79800004 1.223673795e-38
0.2405539811 -0.01845351775 0.80000001 1.223674075e-38
0.2405539811 -0.01997733775 0.80000001 1.205271523e-38
0.2408549311 -0.02238876775 0.80200005 1.195907906e-38
0.2411558911 -0.02480778775 0.80400002 1.195907346e-38
0.2411558911 -0.02633923775 0.80400002 1.205092437e-38
0.2411558911 -0.02787065775 0.80400002 1.196018189e-38
0.2411558911 -0.02940208775 0.80400002 1.186833938e-38
0.2417578011 -0.03274685775 0.80800003 1.168573758e-38
0.2417578011 -0.03428587775 0.80800003 1.150313998e-38
0.2420587511 -0.03673923775 0.81000006 1.159282028e-38
0.2420587511 -0.03828213775 0.81000006 1.177721154e-38
0.2420587511 -0.03982496775 0.81000006 1.19605266e-38
0.2420587511 -0.04136783775 0.81000006 1.223531703e-38
0.2423597011 -0.04384017775 0.81200004 1.195909448e-38
0.2423597011 -0.04538685775 0.81200004 1.168323346e-38
0.2423597011 -0.04693353775 0.81200004 1.15917623e-38
0.2423597011 -0.04848018775 0.81200004 1.150170786e-38
0.2426606511 -0.05097163775 0.81400001 1.131802425e-38
0.2428111311 -0.05299640775 0.81500006 1.122618455e-38
0.2428111311 -0.05454877775 0.81500006 1.159352373e-38
0.2431120711 -0.05705732775 0.81700003 1.205163483e-38
0.2431120711 -0.05861351775 0.81700003 1.159139096e-38
0.2434130411 -0.06113353775 0.81900007 1.122189938e-38
0.2434130411 -0.06269354775 0.81900007 1.149776881e-38
0.2434130411 -0.06425354775 0.81900007 1.177399276e-38
0.2437139811 -0.06678876775 0.82100004 1.159104063e-38
0.2440149311 -0.06933162775 0.82300001 1.14999226e-38
0.2440149311 -0.07089922775 0.82300001 1.149956387e-38
0.2440149311 -0.07246682775 0.82300001 1.149920654e-38
0.2443158911 -0.07502496775 0.82500005 1.16835978e-38
0.2440149311 -0.07560208775 0.82300001 1.186798626e-38
0.2443158911 -0.07816780775 0.82500005 1.168431526e-38
0.2443158911 -0.07973924775 0.82500005 1.150101982e-38
0.2440149311 -0.08030495775 0.82300001 1.15925148e-38
0.2440149311 -0.08187255775 0.82300001 1.168395933e-38
0.2440149311 -0.08344018775 0.82300001 1.140806328e-38
0.2440149311 -0.08500779775 0.82300001 1.113220087e-38
0.2440149311 -0.08657542775 0.82300001 1.122475663e-38
0.2443158911 -0.08916783775 0.82500005 1.131767953e-38
0.2443158911 -0.09073925775 0.82500005 1.08577972e-38
0.2440149311 -0.09127828775 0.82300001 1.048865174e-38
0.2440149311 -0.09284589775 0.82300001 1.113113308e-38
0.2440149311 -0.09441352775 0.82300001 1.177398295e-38
0.2440149311 -0.09598112775 0.82300001 1.1315167e-38
0.2228777911 0.2950321963 0.67400002 1.315373225e-38
0.2228777911 0.2937483863 0.67400002 1.223572901e-38
0.2228777911 0.2924645773 0.67400002 1.196093298e-38
0.2228777911 0.2911807673 0.67400002 1.168040284e-38
0.2228777911 0.2898969583 0.67400002 1.167753158e-38
0.2228777911 0.2886131483 0.67400002 1.177222152e-38
0.2228777911 0.2873293383 0.67400002 1.177400117e-38
0.2228777911 0.2860455253 0.67400002 1.177399276e-38
0.2228777911 0.2847617193 0.67400002 1.177398575e-38
0.2228777911 0.2834779103 0.67400002 1.177362842e-38
0.2225730311 0.2823464803 0.67200005 1.195694068e-38
0.2228777911 0.2809102913 0.67400002 1.214027256e-38
0.2228777911 0.2796264813 0.67400002 1.250727683e-38
0.2228777911 0.2783426723 0.67400002 1.296608017e-38
0.2228777911 0.2770588583 0.67400002 1.269235333e-38
0.2230301711 0.2756893413 0.67500001 1.241757271e-38
0.2230301711 0.2744036243 0.67500001 1.250941802e-38
0.2230301711 0.2731179113 0.67500001 1.26920002e-38
0.2231825711 0.2717407643 0.67600006 1.259979476e-38
0.2231825711 0.2704531403 0.67600006 1.260015489e-38
0.2231825711 0.2691655233 0.67600006 1.250903826e-38
0.2231825711 0.2678779073 0.67600006 1.242007683e-38
