# .PCD v0.7 - Point Cloud Data file format
VERSION 0.7
FIELDS x y z rgb
SIZE 4 4 4 4
TYPE F F F F
COUNT 1 1 1 1
WIDTH 891
HEIGHT 1
VIEWPOINT 0 0 0 1 0 0 0
POINTS 891
DATA ascii
0.2827057104 -0.064784765 0.856874955 1.25104802e-38
0.2847056904 -0.064952381 0.854747365 1.214671153e-38
0.2847056904 -0.064952381 0.853271165 1.186977291e-38
0.2847056904 -0.064952381 0.851794965 1.159104063e-38
0.2867056604 -0.065119997 0.849652125 1.140665358e-38
0.2867056604 -0.065119997 0.848172135 1.122154906e-38
0.2867056604 -0.065119997 0.846692125 1.103715359e-38
0.2847056904 -0.064952381 0.845890205 1.103678785e-38
0.2827057104 -0.064784765 0.845095945 1.10382368e-38
0.2407056604 -0.061264765 0.858023565 1.113187997e-38
0.2407056604 -0.061264765 0.856631165 1.131590409e-38
0.2387056804 -0.061097141 0.855932095 1.140809411e-38
0.2387056804 -0.061097141 0.854543515 1.14999254e-38
0.2387056804 -0.061097141 0.853154965 1.177578782e-38
0.2387056804 -0.061097141 0.851766415 1.205165725e-38
0.2387056804 -0.061097141 0.850377835 1.241936357e-38
0.2377056904 -0.061013337 0.849345455 1.288248711e-38
0.2377056904 -0.061013337 0.847958755 1.334381698e-38
0.2387056804 -0.061097141 0.846212125 1.38022798e-38
0.2377056904 -0.061013337 0.845185435 1.425859023e-38
0.2377056904 -0.061013337 0.843798795 1.481176821e-38
0.2377056904 -0.061013337 0.842412125 1.472174039e-38
0.2377056904 -0.061013337 0.841025425 1.462989648e-38
0.2377056904 -0.061013337 0.839638775 1.453733511e-38
0.2357056604 -0.060845714 0.838994965 1.444549962e-38
0.2357056604 -0.060845714 0.837612135 1.444549962e-38
0.2347056704 -0.060761906 0.836604485 1.453733091e-38
0.2347056704 -0.060761906 0.835223535 1.453732811e-38
0.2347056704 -0.060761906 0.833842585 1.453626172e-38
0.2347056704 -0.060761906 0.832461665 1.462810843e-38
0.2727056604 -0.063946664 0.816532115 1.472100611e-38
0.2707056904 -0.063779049 0.815848335 1.481354646e-38
0.2707056904 -0.063779049 0.814398805 1.499757618e-38
0.2707056904 -0.063779049 0.812949255 1.518196604e-38
0.2707056904 -0.063779049 0.811499725 1.536564124e-38
0.2727056604 -0.063946664 0.809265445 1.500009712e-38
0.2727056604 -0.063946664 0.807812105 1.472388157e-38
0.2727056604 -0.063946664 0.806358765 1.454344758e-38
0.2727056604 -0.063946664 0.804905485 1.445090863e-38
0.2727056604 -0.063946664 0.803452145 1.307303287e-38
0.2387056804 -0.059708573 0.928137835 1.030890579e-38
0.2387056804 -0.059708573 0.926749265 1.021527663e-38
0.2387056804 -0.059708573 0.925360685 1.012272507e-38
0.2387056804 -0.059708573 0.923972125 9.93870095e-39
0.2387056804 -0.059708573 0.922583545 1.002946726e-38
0.2387056804 -0.059708573 0.921194985 1.011986782e-38
0.2407056604 -0.059872381 0.919288315 1.094925715e-38
0.2417057004 -0.059954289 0.917634975 1.177900941e-38
0.2417057004 -0.059954289 0.916240685 1.269701124e-38
0.2417057004 -0.059954289 0.914846405 1.352354332e-38
0.2437056804 -0.060118094 0.912918785 1.398488581e-38
0.2437056804 -0.060118094 0.911520685 1.435688711e-38
0.2437056804 -0.060118094 0.910122595 1.453912037e-38
0.2437056804 -0.060118094 0.908724495 1.472171797e-38
0.2457057104 -0.06028191 0.906777825 1.508906415e-38
0.2457057104 -0.06028191 0.905375925 1.545677468e-38
0.2467057004 -0.060363814 0.903695925 1.499760841e-38
0.2487056704 -0.060527619 0.901732125 1.463061395e-38
0.2497056604 -0.060609523 0.900042585 1.47220795e-38
0.2517056904 -0.060773335 0.898065445 1.481356888e-38
0.2527056804 -0.06085524 0.896366395 1.518128361e-38
0.2527056804 -0.06085524 0.894951155 1.564080721e-38
0.2547057104 -0.061019056 0.892956865 1.536528811e-38
0.2547057104 -0.061019056 0.891537825 1.518054092e-38
0.2547057104 -0.061019056 0.890118775 1.490503443e-38
0.2707056904 -0.062329531 0.883975915 1.472136484e-38
0.2707056904 -0.062329531 0.882526405 1.481320174e-38
0.2727056604 -0.062493335 0.880478795 1.490540998e-38
0.2727056604 -0.062493335 0.879025455 1.472211173e-38
0.2727056604 -0.062493335 0.877572125 1.462955176e-38
0.2747057004 -0.06265714 0.875509255 1.453735193e-38
0.2747057004 -0.06265714 0.874052115 1.435187607e-38
0.2747057004 -0.06265714 0.872594965 1.416783513e-38
0.2747057004 -0.06265714 0.871137825 1.38919587e-38
0.2767056704 -0.062820949 0.869055935 1.352532437e-38
0.2767056704 -0.062820949 0.867594985 1.325090249e-38
0.2797056904 -0.063066669 0.865185445 1.315835933e-38
0.2797056904 -0.063066669 0.863718775 1.306293231e-38
0.2817056604 -0.063230477 0.861612135 1.297001641e-38
0.2817056604 -0.063230477 0.860141645 1.278347416e-38
0.2827057104 -0.063312382 0.858347365 1.250976133e-38
0.2847056904 -0.06347619 0.856223535 1.214277248e-38
0.2847056904 -0.06347619 0.854747365 1.168430686e-38
0.2847056904 -0.06347619 0.853271165 1.131804107e-38
0.2867056604 -0.063639998 0.851132135 1.131696487e-38
0.2867056604 -0.063639998 0.849652125 1.140772977e-38
0.2847056904 -0.06347619 0.848842605 1.131661875e-38
0.2847056904 -0.06347619 0.847366405 1.131733902e-38
0.2847056904 -0.06347619 0.845890205 1.131841802e-38
0.2407056604 -0.059872381 0.859415945 1.131985295e-38
0.2407056604 -0.059872381 0.858023565 1.141097238e-38
0.2407056604 -0.059872381 0.856631165 1.150245054e-38
0.2387056804 -0.059708573 0.855932095 1.159070012e-38
0.2387056804 -0.059708573 0.854543515 1.168288874e-38
0.2387056804 -0.059708573 0.853154965 1.186763033e-38
0.2387056804 -0.059708573 0.851766415 1.214278509e-38
0.2387056804 -0.059708573 0.850377835 1.260412197e-38
0.2377056904 -0.059626672 0.849345455 1.306544904e-38
0.2377056904 -0.059626672 0.847958755 1.352606005e-38
0.2387056804 -0.059708573 0.846212125 1.398559907e-38
0.2387056804 -0.059708573 0.844823545 1.435258652e-38
0.2377056904 -0.059626672 0.843798795 1.471994672e-38
0.2377056904 -0.059626672 0.842412125 1.481395423e-38
0.2377056904 -0.059626672 0.841025425 1.490541979e-38
0.2377056904 -0.059626672 0.839638775 1.462918462e-38
0.2357056604 -0.059462857 0.838994965 1.42603993e-38
0.2347056704 -0.059380952 0.837985435 1.416891553e-38
0.2347056704 -0.059380952 0.836604485 1.416927146e-38
0.2347056704 -0.059380952 0.835223535 1.416927006e-38
0.2347056704 -0.059380952 0.833842585 1.426112097e-38
0.2707056904 -0.062329531 0.818747355 1.435333201e-38
0.2727056604 -0.062493335 0.816532115 1.444587236e-38
0.2727056604 -0.062493335 0.815078775 1.463024961e-38
0.2707056904 -0.062329531 0.814398805 1.481427233e-38
0.2707056904 -0.062329531 0.812949255 1.490574349e-38
0.2727056604 -0.062493335 0.810718785 1.490502602e-38
0.2727056604 -0.062493335 0.809265445 1.463059713e-38
0.2727056604 -0.062493335 0.807812105 1.435617385e-38
0.2727056604 -0.062493335 0.806358765 1.408139323e-38
0.2727056604 -0.062493335 0.804905485 1.380662242e-38
0.2727056604 -0.062493335 0.803452145 1.270533215e-38
0.2387056804 -0.058320004 0.928137835 1.086100477e-38
0.2387056804 -0.058320004 0.926749265 1.113399313e-38
0.2387056804 -0.058320004 0.925360685 1.058297314e-38
0.2387056804 -0.058320004 0.923972125 1.012272227e-38
0.2387056804 -0.058320004 0.922583545 9.386606171e-39
0.2407056604 -0.058479998 0.920680695 8.741971042e-39
0.2417057004 -0.058560003 0.919029245 9.565629056e-39
0.2437056804 -0.05872 0.917113065 1.048901328e-38
0.2437056804 -0.05872 0.915714975 1.177974089e-38
0.2437056804 -0.05872 0.914316885 1.315656007e-38
0.2437056804 -0.05872 0.912918785 1.361610048e-38
0.2437056804 -0.05872 0.911520685 1.416998472e-38
0.2437056804 -0.05872 0.910122595 1.426469008e-38
0.2437056804 -0.05872 0.908724495 1.435472771e-38
0.2457057104 -0.058880005 0.906777825 1.472278435e-38
0.2457057104 -0.058880005 0.905375925 1.518125278e-38
0.2467057004 -0.058960006 0.903695925 1.472172637e-38
0.2487056704 -0.059119999 0.901732125 1.426218596e-38
0.2497056604 -0.0592 0.900042585 1.444585415e-38
0.2497056604 -0.0592 0.898633075 1.462953074e-38
0.2517056904 -0.059360001 0.896652125 1.490612044e-38
0.2517056904 -0.059360001 0.895238785 1.527309808e-38
0.2527056804 -0.059440002 0.893535925 1.518125698e-38
0.2547057104 -0.059600003 0.891537825 1.508799356e-38
0.2547057104 -0.059600003 0.890118775 1.481177662e-38
0.2577056804 -0.059840001 0.887814025 1.462953775e-38
0.2577056804 -0.059840001 0.886389265 1.453769805e-38
0.2727056604 -0.061040003 0.880478795 1.444658562e-38
0.2727056604 -0.061040003 0.879025455 1.435583193e-38
0.2747057004 -0.0612 0.876966395 1.435475293e-38
0.2747057004 -0.0612 0.875509255 1.426219717e-38
0.2747057004 -0.0612 0.874052115 1.426002515e-38
0.2747057004 -0.0612 0.872594965 1.398234805e-38
0.2767056704 -0.061360002 0.870516875 1.370684157e-38
0.2767056704 -0.061360002 0.869055935 1.333950098e-38
0.2777056604 -0.061440002 0.867280705 1.306436023e-38
0.2797056904 -0.0616 0.865185445 1.297324921e-38
0.2797056904 -0.0616 0.863718775 1.287961445e-38
0.2817056604 -0.061759997 0.861612135 1.278598108e-38
0.2827057104 -0.061840005 0.859819735 1.269342812e-38
0.2827057104 -0.061840005 0.858347365 1.223389191e-38
0.2847056904 -0.062000006 0.856223535 1.186654292e-38
0.2847056904 -0.062000006 0.854747365 1.131588307e-38
0.2847056904 -0.062000006 0.853271165 1.076594208e-38
0.2867056604 -0.062159996 0.851132135 1.104359536e-38
0.2867056604 -0.062159996 0.849652125 1.141059123e-38
0.2867056604 -0.062159996 0.848172135 1.150243933e-38
0.2407056604 -0.058479998 0.862200685 1.159428604e-38
0.2407056604 -0.058479998 0.860808325 1.15993181e-38
0.2417057004 -0.058560003 0.859074965 1.168720194e-38
0.2407056604 -0.058479998 0.858023565 1.168719633e-38
0.2407056604 -0.058479998 0.856631165 1.177723256e-38
0.2387056804 -0.058320004 0.855932095 1.17732823e-38
0.2387056804 -0.058320004 0.854543515 1.186690165e-38
0.2387056804 -0.058320004 0.853154965 1.20512803e-38
0.2387056804 -0.058320004 0.851766415 1.223639603e-38
0.2377056904 -0.058240004 0.850732125 1.269737838e-38
0.2377056904 -0.058240004 0.849345455 1.32487557e-38
0.2377056904 -0.058240004 0.847958755 1.370937371e-38
0.2377056904 -0.058240004 0.846572115 1.416962879e-38
0.2377056904 -0.058240004 0.845185435 1.435509625e-38
0.2357056604 -0.058079999 0.844526425 1.463061535e-38
0.2357056604 -0.058079999 0.843143565 1.490649318e-38
0.2357056604 -0.058079999 0.841760705 1.527310789e-38
0.2357056604 -0.058079999 0.840377815 1.472136904e-38
0.2347056704 -0.058000002 0.839366415 1.416783513e-38
0.2347056704 -0.058000002 0.837985435 1.398451446e-38
0.2347056704 -0.058000002 0.836604485 1.380048614e-38
0.2347056704 -0.058000002 0.835223535 1.38919643e-38
0.2727056604 -0.061040003 0.819438795 1.398488721e-38
0.2727056604 -0.061040003 0.817985455 1.407852898e-38
0.2727056604 -0.061040003 0.816532115 1.417035747e-38
0.2727056604 -0.061040003 0.815078775 1.444693455e-38
0.2727056604 -0.061040003 0.813625435 1.47220753e-38
0.2727056604 -0.061040003 0.812172125 1.462987546e-38
0.2727056604 -0.061040003 0.810718785 1.453804277e-38
0.2727056604 -0.061040003 0.809265445 1.426289782e-38
0.2727056604 -0.061040003 0.807812105 1.398738853e-38
0.2727056604 -0.061040003 0.806358765 1.352820824e-38
0.2707056904 -0.060880002 0.805701625 1.316303967e-38
0.2707056904 -0.060880002 0.804252095 1.242945432e-38
0.2387056804 -0.056931432 0.923972125 1.030710232e-38
0.2387056804 -0.056931432 0.922583545 9.84720597e-39
0.2387056804 -0.056931432 0.921194985 9.384456579e-39
0.2417057004 -0.05716572 0.919029245 9.750737781e-39
0.2457057104 -0.0574781 0.916591165 1.011450365e-38
0.2457057104 -0.0574781 0.915189245 1.094785024e-38
0.2457057104 -0.0574781 0.913787345 1.177902903e-38
0.2457057104 -0.0574781 0.912385445 1.242043837e-38
0.2457057104 -0.0574781 0.910983545 1.306185611e-38
0.2457057104 -0.0574781 0.909581645 1.343207356e-38
0.2457057104 -0.0574781 0.908179725 1.389410969e-38
0.2457057104 -0.0574781 0.906777825 1.389625088e-38
0.2467057004 -0.057556197 0.905099725 1.389877041e-38
0.2467057004 -0.057556197 0.903695925 1.380299727e-38
0.2497056604 -0.057790477 0.901452135 1.361681795e-38
0.2517056904 -0.057946667 0.899478775 1.389304611e-38
0.2517056904 -0.057946667 0.898065445 1.426146429e-38
0.2527056804 -0.058024764 0.896366395 1.453804697e-38
0.2527056804 -0.058024764 0.894951155 1.481534853e-38
0.2547057104 -0.058180954 0.892956865 1.47220795e-38
0.2567056904 -0.058337145 0.890954965 1.462738816e-38
0.2567056904 -0.058337145 0.889532115 1.444516611e-38
0.2577056804 -0.058415242 0.887814025 1.43543984e-38
0.2697057004 -0.059352383 0.882823555 1.435438999e-38
0.2707056904 -0.05943048 0.881076885 1.435653959e-38
0.2707056904 -0.05943048 0.879627355 1.426434256e-38
0.2727056604 -0.059586667 0.877572125 1.417178959e-38
0.2727056604 -0.059586667 0.876118785 1.41707148e-38
0.2727056604 -0.059586667 0.874665445 1.416853438e-38
0.2727056604 -0.059586667 0.873212125 1.398376056e-38
0.2747057004 -0.05974286 0.871137825 1.379938472e-38
0.2747057004 -0.05974286 0.869680685 1.343133788e-38
0.2767056704 -0.059899047 0.867594985 1.306364137e-38
0.2797056904 -0.060133334 0.865185445 1.287997598e-38
0.2797056904 -0.060133334 0.863718775 1.278813348e-38
0.2817056604 -0.060289524 0.861612135 1.251154519e-38
0.2817056604 -0.060289524 0.860141645 1.232715673e-38
0.2827057104 -0.060367625 0.858347365 1.205165164e-38
0.2847056904 -0.060523812 0.856223535 1.168466138e-38
0.2847056904 -0.060523812 0.854747365 1.131659633e-38
0.2847056904 -0.060523812 0.853271165 1.094745087e-38
0.2867056604 -0.060679998 0.851132135 1.113469938e-38
0.2407056604 -0.057087619 0.864985465 1.132018225e-38
0.2437056804 -0.057321906 0.862587355 1.132020187e-38
0.2407056604 -0.057087619 0.862200685 1.141241432e-38
0.2407056604 -0.057087619 0.860808325 1.15039093e-38
0.2407056604 -0.057087619 0.859415945 1.159537345e-38
0.2407056604 -0.057087619 0.858023565 1.177795563e-38
0.2407056604 -0.057087619 0.856631165 1.186870372e-38
0.2387056804 -0.056931432 0.855932095 1.196052941e-38
0.2387056804 -0.056931432 0.854543515 1.214454372e-38
0.2387056804 -0.056931432 0.853154965 1.232927689e-38
0.2387056804 -0.056931432 0.851766415 1.25140381e-38
0.2377056904 -0.056853335 0.850732125 1.297287226e-38
0.2377056904 -0.056853335 0.849345455 1.334022686e-38
0.2377056904 -0.056853335 0.847958755 1.370901778e-38
0.2377056904 -0.056853335 0.846572115 1.407815343e-38
0.2377056904 -0.056853335 0.845185435 1.426290062e-38
0.2357056604 -0.056697145 0.844526425 1.453841411e-38
0.2357056604 -0.056697145 0.843143565 1.453877985e-38
0.2357056604 -0.056697145 0.841760705 1.46324006e-38
0.2357056604 -0.056697145 0.840377815 1.407599963e-38
0.2347056704 -0.056619048 0.839366415 1.361609348e-38
0.2347056704 -0.056619048 0.837985435 1.352353071e-38
0.2327057004 -0.056462858 0.837354965 1.343098195e-38
0.2327057004 -0.056462858 0.835977835 1.352389925e-38
0.2707056904 -0.05943048 0.820196875 1.370865345e-38
0.2707056904 -0.05943048 0.818747355 1.371045552e-38
0.2707056904 -0.05943048 0.817297825 1.371153031e-38
0.2727056604 -0.059586667 0.815078775 1.407851356e-38
0.2727056604 -0.059586667 0.813625435 1.444584994e-38
0.2727056604 -0.059586667 0.812172125 1.435400884e-38
0.2727056604 -0.059586667 0.810718785 1.435508924e-38
0.2747057004 -0.05974286 0.808480695 1.407887089e-38
0.2747057004 -0.05974286 0.807023535 1.380263293e-38
0.2767056704 -0.059899047 0.804774025 1.362002552e-38
0.2767056704 -0.059899047 0.803313055 1.334633652e-38
0.2777056604 -0.059977144 0.801452145 1.224397705e-38
0.2777056604 -0.059977144 0.799989265 1.11416302e-38
0.2387056804 -0.05554286 0.922583545 1.030817851e-38
0.2387056804 -0.05554286 0.921194985 1.01220048e-38
0.2417057004 -0.055771433 0.919029245 9.936191225e-39
0.2457057104 -0.056076195 0.916591165 9.842206137e-39
0.2487056704 -0.056304764 0.914400695 1.011592317e-38
0.2467057004 -0.056152385 0.913522585 1.039896584e-38
0.2467057004 -0.056152385 0.912118775 1.113293655e-38
0.2467057004 -0.056152385 0.910714965 1.195910289e-38
0.2467057004 -0.056152385 0.909311155 1.269343373e-38
0.2467057004 -0.056152385 0.907907345 1.342990996e-38
0.2487056704 -0.056304764 0.905954985 1.306472037e-38
0.2487056704 -0.056304764 0.904547355 1.269881752e-38
0.2487056704 -0.056304764 0.903139735 1.288428778e-38
0.2497056604 -0.056380954 0.901452135 1.306437144e-38
0.2517056904 -0.056533337 0.899478775 1.34302799e-38
0.2517056904 -0.056533337 0.898065445 1.389160978e-38
0.2527056804 -0.056609526 0.896366395 1.407815063e-38
0.2527056804 -0.056609526 0.894951155 1.435401585e-38
0.2547057104 -0.056761909 0.892956865 1.426289922e-38
0.2567056904 -0.056914289 0.890954965 1.426290903e-38
0.2567056904 -0.056914289 0.889532115 1.417144207e-38
0.2597057104 -0.057142861 0.887223535 1.407924224e-38
0.2647057004 -0.057523813 0.884309255 1.417143086e-38
0.2677056704 -0.057752378 0.881974025 1.435582072e-38
0.2697057004 -0.057904765 0.879928305 1.417286719e-38
0.2707056904 -0.057980955 0.878177835 1.407924644e-38
0.2707056904 -0.057980955 0.876728305 1.407925485e-38
0.2707056904 -0.057980955 0.875278785 1.416891273e-38
0.2707056904 -0.057980955 0.873829255 1.398450045e-38
0.2727056604 -0.058133334 0.871758785 1.389159296e-38
0.2747057004 -0.058285717 0.869680685 1.352318038e-38
0.2767056704 -0.058438096 0.867594985 1.315727333e-38
0.2777056604 -0.058514286 0.865817845 1.288320177e-38
0.2797056904 -0.058666669 0.863718775 1.269593925e-38
0.2817056604 -0.058819048 0.861612135 1.232931193e-38
0.2817056604 -0.058819048 0.860141645 1.205379983e-38
0.2827057104 -0.058895241 0.858347365 1.177828914e-38
0.2847056904 -0.059047621 0.856223535 1.159246295e-38
0.2847056904 -0.059047621 0.854747365 1.141022549e-38
0.2867056604 -0.0592 0.852612115 1.122618876e-38
0.2457057104 -0.056076195 0.864720685 1.122618315e-38
0.2457057104 -0.056076195 0.863318765 1.122835096e-38
0.2437056804 -0.055923808 0.862587355 1.122765031e-38
0.2437056804 -0.055923808 0.861189275 1.131877815e-38
0.2407056604 -0.055695236 0.860808325 1.141026472e-38
0.2417057004 -0.055771433 0.859074965 1.159500491e-38
0.2407056604 -0.055695236 0.858023565 1.177687523e-38
0.2407056604 -0.055695236 0.856631165 1.205273204e-38
0.2387056804 -0.05554286 0.855932095 1.223675336e-38
0.2387056804 -0.05554286 0.854543515 1.242077328e-38
0.2387056804 -0.05554286 0.853154965 1.260479459e-38
0.2387056804 -0.05554286 0.851766415 1.288031089e-38
0.2377056904 -0.055466671 0.850732125 1.315582719e-38
0.2377056904 -0.055466671 0.849345455 1.352353912e-38
0.2377056904 -0.055466671 0.847958755 1.380085048e-38
0.2377056904 -0.055466671 0.846572115 1.407814642e-38
0.2377056904 -0.055466671 0.845185435 1.426288941e-38
0.2357056604 -0.055314288 0.844526425 1.44465632e-38
0.2357056604 -0.055314288 0.843143565 1.417141825e-38
0.2357056604 -0.055314288 0.841760705 1.398451446e-38
0.2357056604 -0.055314288 0.840377815 1.352246432e-38
0.2347056704 -0.055238094 0.839366415 1.306256377e-38
0.2347056704 -0.055238094 0.837985435 1.30618407e-38
0.2347056704 -0.055238094 0.836604485 1.306220223e-38
0.2707056904 -0.057980955 0.821646405 1.324659489e-38
0.2727056604 -0.058133334 0.819438795 1.352390345e-38
0.2727056604 -0.058133334 0.817985455 1.343423016e-38
0.2727056604 -0.058133334 0.816532115 1.33427534e-38
0.2727056604 -0.058133334 0.815078775 1.380264834e-38
0.2727056604 -0.058133334 0.813625435 1.426182162e-38
0.2727056604 -0.058133334 0.812172125 1.417033925e-38
0.2727056604 -0.058133334 0.810718785 1.417034205e-38
0.2747057004 -0.058285717 0.808480695 1.38951971e-38
0.2747057004 -0.058285717 0.807023535 1.371116317e-38
0.2777056604 -0.058514286 0.804377835 1.362004234e-38
0.2767056704 -0.058438096 0.803313055 1.362256608e-38
0.2797056904 -0.058666669 0.800652095 1.205707046e-38
0.2797056904 -0.058666669 0.799185465 1.058989976e-38
0.2487056704 -0.054897144 0.914400695 1.002980217e-38
0.2467057004 -0.054748576 0.913522585 1.030495973e-38
0.2467057004 -0.054748576 0.912118775 1.067159546e-38
0.2467057004 -0.054748576 0.910714965 1.094639009e-38
0.2467057004 -0.054748576 0.909311155 1.140665077e-38
0.2467057004 -0.054748576 0.907907345 1.177687243e-38
0.2487056704 -0.054897144 0.905954985 1.205167126e-38
0.2487056704 -0.054897144 0.904547355 1.232682042e-38
0.2497056604 -0.05497143 0.902861645 1.241937478e-38
0.2517056904 -0.055120002 0.900892115 1.251192494e-38
0.2517056904 -0.055120002 0.899478775 1.297074229e-38
0.2527056804 -0.055194288 0.897781655 1.352175526e-38
0.2527056804 -0.055194288 0.896366395 1.370686118e-38
0.2547057104 -0.055342861 0.894375915 1.389196711e-38
0.2567056904 -0.055491429 0.892377835 1.3802284e-38
0.2567056904 -0.055491429 0.890954965 1.362005355e-38
0.2577056804 -0.055565715 0.889238785 1.362005915e-38
0.2597057104 -0.055714291 0.887223535 1.361969762e-38
0.2647057004 -0.056085717 0.884309255 1.39870382e-38
0.2657056904 -0.056160003 0.882572105 1.444621989e-38
0.2677056704 -0.056308571 0.880530215 1.40788821e-38
0.2697057004 -0.056457143 0.878480685 1.380339103e-38
0.2697057004 -0.056457143 0.877033065 1.380340644e-38
0.2707056904 -0.056531429 0.875278785 1.389378459e-38
0.2707056904 -0.056531429 0.873829255 1.380192808e-38
0.2707056904 -0.056531429 0.872379735 1.3802284e-38
0.2727056604 -0.056679998 0.870305455 1.352641738e-38
0.2747057004 -0.056828573 0.868223545 1.315906979e-38
0.2777056604 -0.057051428 0.865817845 1.297575193e-38
0.2797056904 -0.0572 0.863718775 1.287961164e-38
0.2797056904 -0.0572 0.862252125 1.232859867e-38
0.2817056604 -0.057348572 0.860141645 1.177757448e-38
0.2827057104 -0.057422861 0.858347365 1.150133931e-38
0.2847056904 -0.057571433 0.856223535 1.122511676e-38
0.2867056604 -0.057719998 0.854092135 1.113543646e-38
0.2467057004 -0.054748576 0.865793055 1.104575056e-38
0.2457057104 -0.05467429 0.864720685 1.104503169e-38
0.2457057104 -0.05467429 0.863318765 1.104468557e-38
0.2437056804 -0.054525718 0.862587355 1.113545748e-38
0.2437056804 -0.054525718 0.861189275 1.122585945e-38
0.2407056604 -0.054302856 0.860808325 1.141060804e-38
0.2417057004 -0.054377146 0.859074965 1.168683059e-38
0.2407056604 -0.054302856 0.858023565 1.196197835e-38
0.2407056604 -0.054302856 0.856631165 1.22371191e-38
0.2407056604 -0.054302856 0.855238775 1.242114322e-38
0.2387056804 -0.054154288 0.854543515 1.269736297e-38
0.2387056804 -0.054154288 0.853154965 1.287959483e-38
0.2387056804 -0.054154288 0.851766415 1.306219383e-38
0.2377056904 -0.054080002 0.850732125 1.324766409e-38
0.2377056904 -0.054080002 0.849345455 1.342990996e-38
0.2377056904 -0.054080002 0.847958755 1.352426639e-38
0.2377056904 -0.054080002 0.846572115 1.361932067e-38
0.2377056904 -0.054080002 0.845185435 1.334308831e-38
0.2357056604 -0.05393143 0.844526425 1.315905718e-38
0.2347056704 -0.053857144 0.843509235 1.287960323e-38
0.2347056704 -0.053857144 0.842128315 1.260015209e-38
0.2327057004 -0.053708576 0.841486405 1.259943603e-38
0.2347056704 -0.053857144 0.839366415 1.269091139e-38
0.2347056704 -0.053857144 0.837985435 1.287529845e-38
0.2747057004 -0.056828573 0.821594995 1.296785421e-38
0.2727056604 -0.056679998 0.820892105 1.352173985e-38
0.2727056604 -0.056679998 0.819438795 1.407419756e-38
0.2727056604 -0.056679998 0.817985455 1.380013581e-38
0.2747057004 -0.056828573 0.815766375 1.361825989e-38
0.2747057004 -0.056828573 0.814309245 1.380193228e-38
0.2727056604 -0.056679998 0.813625435 1.407599963e-38
0.2727056604 -0.056679998 0.812172125 1.39859536e-38
0.2747057004 -0.056828573 0.809937815 1.389447683e-38
0.2767056704 -0.056977142 0.807695935 1.361861301e-38
0.2767056704 -0.056977142 0.806234995 1.343494763e-38
0.2777056604 -0.057051428 0.804377835 1.343710563e-38
0.2777056604 -0.057051428 0.802914955 1.343961815e-38
0.2797056904 -0.0572 0.800652095 1.178084091e-38
0.2797056904 -0.0572 0.799185465 1.003817072e-38
0.2497056604 -0.053561907 0.914137835 1.00333951e-38
0.2487056704 -0.053489525 0.912993085 1.030675479e-38
0.2487056704 -0.053489525 0.911585445 1.012022095e-38
0.2487056704 -0.053489525 0.910177835 1.002839246e-38
0.2487056704 -0.053489525 0.908770215 1.012023496e-38
0.2487056704 -0.053489525 0.907362605 1.021243199e-38
0.2487056704 -0.053489525 0.905954985 1.113150722e-38
0.2497056604 -0.053561907 0.904271165 1.205022372e-38
0.2517056904 -0.053706668 0.902305445 1.205094399e-38
0.2527056804 -0.053779051 0.900612115 1.205129992e-38
0.2527056804 -0.053779051 0.899196875 1.260302756e-38
0.2547057104 -0.053923815 0.897214005 1.315404053e-38
0.2547057104 -0.053923815 0.895794965 1.334022125e-38
0.2547057104 -0.053923815 0.894375915 1.35246055e-38
0.2567056904 -0.054068573 0.892377835 1.325017101e-38
0.2577056804 -0.054140955 0.890663555 1.306794195e-38
0.2577056804 -0.054140955 0.889238785 1.316086065e-38
0.2617056804 -0.054430481 0.886633065 1.325233742e-38
0.2627056704 -0.054502856 0.884903545 1.389482716e-38
0.2647057004 -0.054647624 0.882871145 1.453803436e-38
0.2657056904 -0.054719999 0.881132125 1.407921561e-38
0.2657056904 -0.054719999 0.879692105 1.361969201e-38
0.2677056704 -0.054864764 0.877642615 1.361970603e-38
0.2697057004 -0.055009525 0.875585445 1.362005495e-38
0.2697057004 -0.055009525 0.874137825 1.371224077e-38
0.2697057004 -0.055009525 0.872690215 1.380372314e-38
0.2697057004 -0.055009525 0.871242595 1.352786492e-38
0.2727056604 -0.055226665 0.868852115 1.325235003e-38
0.2767056704 -0.055516191 0.866134025 1.316050612e-38
0.2777056604 -0.055588569 0.864354995 1.306687136e-38
0.2797056904 -0.055733338 0.862252125 1.223855123e-38
0.2817056604 -0.055878095 0.860141645 1.150242532e-38
0.2827057104 -0.055950481 0.858347365 1.12254755e-38
0.2847056904 -0.056095239 0.856223535 1.094961168e-38
0.2487056704 -0.053489525 0.866541645 1.086064884e-38
0.2487056704 -0.053489525 0.865134025 1.08613579e-38
0.2457057104 -0.053272385 0.864720685 1.086206836e-38
0.2457057104 -0.053272385 0.863318765 1.095248294e-38
0.2457057104 -0.053272385 0.861916865 1.104325485e-38
0.2437056804 -0.05312762 0.861189275 1.122693144e-38
0.2437056804 -0.05312762 0.859791155 1.150280087e-38
0.2417057004 -0.052982859 0.859074965 1.177866609e-38
0.2407056604 -0.052910477 0.858023565 1.214636681e-38
0.2407056604 -0.052910477 0.856631165 1.251370319e-38
0.2407056604 -0.052910477 0.855238775 1.269772871e-38
0.2387056804 -0.052765716 0.854543515 1.297323099e-38
0.2387056804 -0.052765716 0.853154965 1.306290849e-38
0.2387056804 -0.052765716 0.851766415 1.324694102e-38
0.2387056804 -0.052765716 0.850377835 1.333949678e-38
0.2377056904 -0.052693337 0.849345455 1.343133508e-38
0.2377056904 -0.052693337 0.847958755 1.324766689e-38
0.2377056904 -0.052693337 0.846572115 1.315654605e-38
0.2377056904 -0.052693337 0.845185435 1.251441224e-38
0.2357056604 -0.052548572 0.844526425 1.196124267e-38
0.2347056704 -0.052476194 0.843509235 1.158815816e-38
0.2347056704 -0.052476194 0.842128315 1.122225671e-38
0.2347056704 -0.052476194 0.840747335 1.177291656e-38
0.2347056704 -0.052476194 0.839366415 1.241576504e-38
0.2797056904 -0.055733338 0.821185445 1.269198759e-38
0.2747057004 -0.05537143 0.821594995 1.296821154e-38
0.2727056604 -0.055226665 0.820892105 1.37968834e-38
0.2747057004 -0.05537143 0.818680685 1.462556507e-38
0.2747057004 -0.05537143 0.817223525 1.425787416e-38
0.2747057004 -0.05537143 0.815766375 1.389196571e-38
0.2767056704 -0.055516191 0.813539725 1.389339923e-38
0.2747057004 -0.05537143 0.812852095 1.389232164e-38
0.2747057004 -0.05537143 0.811394965 1.371008417e-38
0.2767056704 -0.055516191 0.809156875 1.361861582e-38
0.2767056704 -0.055516191 0.807695935 1.34345931e-38
0.2777056604 -0.055588569 0.805840715 1.325164237e-38
0.2777056604 -0.055588569 0.804377835 1.32541563e-38
0.2847056904 -0.056095239 0.800128325 1.334957632e-38
0.2847056904 -0.056095239 0.798652125 1.141313598e-38
0.2497056604 -0.052152384 0.914137835 1.040146015e-38
0.2487056704 -0.052081905 0.912993085 1.067589324e-38
0.2487056704 -0.052081905 0.911585445 1.039931336e-38
0.2487056704 -0.052081905 0.910177835 1.011699796e-38
0.2487056704 -0.052081905 0.908770215 9.660340017e-39
0.2497056604 -0.052152384 0.907090225 9.29191623e-39
0.2497056604 -0.052152384 0.905680695 9.935477964e-39
0.2517056904 -0.052293338 0.903718775 1.067124233e-38
0.2517056904 -0.052293338 0.902305445 1.0855635e-38
0.2547057104 -0.052504767 0.900052115 1.113185615e-38
0.2547057104 -0.052504767 0.898633055 1.140879476e-38
0.2547057104 -0.052504767 0.897214005 1.168429985e-38
0.2567056904 -0.052645717 0.895223555 1.186796944e-38
0.2567056904 -0.052645717 0.893800685 1.205199076e-38
0.2577056804 -0.052716192 0.892088305 1.214632897e-38
0.2577056804 -0.052716192 0.890663555 1.2240684e-38
0.2597057104 -0.052857146 0.888652115 1.233252791e-38
0.2627056704 -0.053068571 0.886337825 1.25162003e-38
0.2647057004 -0.053209525 0.884309255 1.278991593e-38
0.2647057004 -0.053209525 0.882871145 1.306398188e-38
0.2647057004 -0.053209525 0.881433065 1.306613007e-38
0.2657056904 -0.053280003 0.879692105 1.316012917e-38
0.2677056704 -0.053420953 0.877642615 1.325305208e-38
0.2677056704 -0.053420953 0.876198795 1.334596657e-38
0.2697057004 -0.053561911 0.874137825 1.334597078e-38
0.2697057004 -0.053561911 0.872690215 1.343782029e-38
0.2697057004 -0.053561911 0.871242595 1.306690639e-38
0.2707056904 -0.053632382 0.869480695 1.278995376e-38
0.2747057004 -0.05391429 0.866766405 1.214996534e-38
0.2777056604 -0.054125715 0.864354995 1.150710426e-38
0.2797056904 -0.054266669 0.862252125 1.103966332e-38
0.2797056904 -0.054266669 0.860785445 1.057797051e-38
0.2517056904 -0.052293338 0.868385445 1.057868377e-38
0.2517056904 -0.052293338 0.866972115 1.057976137e-38
0.2487056704 -0.052081905 0.866541645 1.058155643e-38
0.2487056704 -0.052081905 0.865134025 1.067517298e-38
0.2467057004 -0.051940955 0.864389255 1.07662784e-38
0.2457057104 -0.05187048 0.863318765 1.094960467e-38
0.2457057104 -0.05187048 0.861916865 1.113508334e-38
0.2457057104 -0.05187048 0.860514975 1.131983893e-38
0.2437056804 -0.051729526 0.859791155 1.15949951e-38
0.2417057004 -0.051588573 0.859074965 1.196305455e-38
0.2407056604 -0.051518098 0.858023565 1.22382023e-38
0.2407056604 -0.051518098 0.856631165 1.251514092e-38
0.2407056604 -0.051518098 0.855238775 1.279028587e-38
0.2387056804 -0.051377144 0.854543515 1.306578676e-38
0.2387056804 -0.051377144 0.853154965 1.306542242e-38
0.2387056804 -0.051377144 0.851766415 1.306542242e-38
0.2387056804 -0.051377144 0.850377835 1.306470635e-38
0.2387056804 -0.051377144 0.848989255 1.306290709e-38
0.2377056904 -0.051306669 0.847958755 1.287994936e-38
0.2377056904 -0.051306669 0.846572115 1.269735736e-38
0.2357056604 -0.051165711 0.845909275 1.223567296e-38
0.2347056704 -0.05109524 0.844890215 1.177397875e-38
0.2347056704 -0.05109524 0.843509235 1.103677805e-38
0.2327057004 -0.050954286 0.842863515 1.039537431e-38
0.2327057004 -0.050954286 0.841486405 1.113006949e-38
0.2777056604 -0.054125715 0.823394995 1.186511219e-38
0.2777056604 -0.054125715 0.821932115 1.223245418e-38
0.2767056704 -0.05405524 0.820844515 1.250939279e-38
0.2767056704 -0.05405524 0.819383575 1.315367339e-38
0.2747057004 -0.05391429 0.818680685 1.370792477e-38
0.2767056704 -0.05405524 0.816461635 1.361358796e-38
0.2767056704 -0.05405524 0.815000695 1.352067066e-38
0.2767056704 -0.05405524 0.813539725 1.36175242e-38
0.2767056704 -0.05405524 0.812078785 1.370864364e-38
0.2767056704 -0.05405524 0.810617845 1.361788714e-38
0.2777056604 -0.054125715 0.808766405 1.343530636e-38
0.2797056904 -0.054266669 0.806518775 1.325129205e-38
0.2817056604 -0.054407619 0.804263545 1.306833712e-38
0.2847056904 -0.054619048 0.801604485 1.288717725e-38
0.2867056604 -0.054760002 0.799332125 1.280071574e-38
0.2867056604 -0.054760002 0.797852135 1.086140274e-38
0.2497056604 -0.050742857 0.914137835 1.076989375e-38
0.2487056704 -0.050674286 0.912993085 1.104575336e-38
0.2497056604 -0.050742857 0.911318805 1.058692901e-38
0.2497056604 -0.050742857 0.909909255 1.021528924e-38
0.2497056604 -0.050742857 0.908499745 9.292636497e-39
0.2517056904 -0.050880004 0.906545455 8.46574849e-39
0.2517056904 -0.050880004 0.905132115 8.832721934e-39
0.2527056804 -0.050948571 0.903442605 9.292270758e-39
0.2547057104 -0.051085718 0.901471145 9.751819583e-39
0.2567056904 -0.051222861 0.899492115 1.030391016e-38
0.2567056904 -0.051222861 0.898069255 1.021494592e-38
0.2567056904 -0.051222861 0.896646395 1.021422005e-38
0.2577056804 -0.051291432 0.894937835 1.03975239e-38
0.2577056804 -0.051291432 0.893513065 1.058226969e-38
0.2577056804 -0.051291432 0.892088305 1.10428807e-38
0.2597057104 -0.051428575 0.890080685 1.150278125e-38
0.2617056804 -0.051565714 0.888065455 1.159569855e-38
0.2627056704 -0.051634289 0.886337825 1.177865488e-38
0.2647057004 -0.051771432 0.884309255 1.168646345e-38
0.2647057004 -0.051771432 0.882871145 1.159283149e-38
0.2647057004 -0.051771432 0.881433065 1.214240814e-38
0.2657056904 -0.051840004 0.879692105 1.269342672e-38
0.2677056704 -0.051977143 0.877642615 1.287746205e-38
0.2677056704 -0.051977143 0.876198795 1.306579516e-38
0.2677056704 -0.051977143 0.874754975 1.306830629e-38
0.2677056704 -0.051977143 0.873311175 1.306580357e-38
0.2677056704 -0.051977143 0.871867355 1.26963176e-38
0.2697057004 -0.052114289 0.869794965 1.24218789e-38
0.2707056904 -0.052182861 0.868031165 1.113940214e-38
0.2697057004 -0.052114289 0.866899735 9.939079301e-39
0.2697057004 -0.052114289 0.865452105 9.749304253e-39
0.2517056904 -0.050880004 0.869798775 9.658542151e-39
0.2517056904 -0.050880004 0.868385445 9.9358409e-39
0.2517056904 -0.050880004 0.866972115 1.021170612e-38
0.2487056704 -0.050674286 0.866541645 1.030497655e-38
0.2487056704 -0.050674286 0.865134025 1.049151179e-38
0.2467057004 -0.050537147 0.864389255 1.067517858e-38
0.2467057004 -0.050537147 0.862985445 1.095105221e-38
0.2457057104 -0.050468575 0.861916865 1.113544767e-38
0.2457057104 -0.050468575 0.860514975 1.141167863e-38
0.2437056804 -0.050331432 0.859791155 1.177866889e-38
0.2417057004 -0.050194286 0.859074965 1.214601228e-38
0.2407056604 -0.050125714 0.858023565 1.233004481e-38
0.2407056604 -0.050125714 0.856631165 1.260626596e-38
0.2407056604 -0.050125714 0.855238775 1.288284584e-38
0.2387056804 -0.049988575 0.854543515 1.325054656e-38
0.2387056804 -0.049988575 0.853154965 1.306795316e-38
0.2387056804 -0.049988575 0.851766415 1.28824815e-38
0.2387056804 -0.049988575 0.850377835 1.279028167e-38
0.2377056904 -0.049920004 0.849345455 1.269700704e-38
0.2377056904 -0.049920004 0.847958755 1.251225565e-38
0.2357056604 -0.049782857 0.847292105 1.23257176e-38
0.2357056604 -0.049782857 0.845909275 1.195550996e-38
0.2847056904 -0.053142861 0.826699745 1.158779523e-38
0.2817056604 -0.052937143 0.826320685 1.057759216e-38
0.2797056904 -0.052800003 0.825585465 9.660684736e-39
0.2797056904 -0.052800003 0.824118775 1.048721681e-38
0.2777056604 -0.052662857 0.823394995 1.140557318e-38
0.2777056604 -0.052662857 0.821932115 1.177327529e-38
0.2767056704 -0.052594289 0.820844515 1.214132774e-38
0.2777056604 -0.052662857 0.819006425 1.251045498e-38
0.2777056604 -0.052662857 0.817543545 1.287746065e-38
0.2777056604 -0.052662857 0.816080695 1.296931717e-38
0.2777056604 -0.052662857 0.814617855 1.315512794e-38
0.2777056604 -0.052662857 0.813154975 1.334165478e-38
0.2777056604 -0.052662857 0.811692125 1.361680814e-38
0.2777056604 -0.052662857 0.810229285 1.343099036e-38
0.2797056904 -0.052800003 0.807985435 1.334276321e-38
0.2817056604 -0.052937143 0.805734045 1.31587545e-38
0.2827057104 -0.053005718 0.803869225 1.297651143e-38
0.2887056904 -0.053417146 0.800019725 1.26120323e-38
0.2917057104 -0.05362286 0.797341625 1.224145752e-38
0.2937056904 -0.05376 0.795052095 1.03096779e-38
0.2937056904 -0.05376 0.793558785 8.46762623e-39
0.2497056604 -0.04933333 0.911318805 1.049509211e-38
0.2497056604 -0.04933333 0.909909255 1.021994996e-38
0.2497056604 -0.04933333 0.908499745 9.663204271e-39
0.2517056904 -0.04946667 0.906545455 9.109307422e-39
0.2527056804 -0.049533334 0.904857835 9.200770173e-39
0.2547057104 -0.049666673 0.902890205 9.382308389e-39
0.2577056804 -0.049866665 0.900636895 9.290852644e-39
0.2577056804 -0.049866665 0.899212135 9.199381486e-39
0.2597057104 -0.050000004 0.897223545 9.385570612e-39
0.2597057104 -0.050000004 0.895794965 9.662496615e-39
0.2597057104 -0.050000004 0.894366395 9.93798769e-39
0.2597057104 -0.050000004 0.892937835 1.021242359e-38
0.2597057104 -0.050000004 0.891509255 1.058084737e-38
0.2597057104 -0.050000004 0.890080685 1.104110245e-38
0.2617056804 -0.050133336 0.888065455 1.122334132e-38
0.2647057004 -0.050333336 0.885747355 1.140593892e-38
0.2647057004 -0.050333336 0.884309255 1.131446636e-38
0.2657056904 -0.0504 0.882572105 1.122334832e-38
0.2657056904 -0.0504 0.881132125 1.103896127e-38
0.2677056704 -0.050533336 0.879086405 1.094640831e-38
0.2677056704 -0.050533336 0.877642615 1.085672521e-38
0.2697057004 -0.050666671 0.875585445 1.076739663e-38
0.2697057004 -0.050666671 0.874137825 1.076667496e-38
0.2677056704 -0.050533336 0.873311175 1.07659589e-38
0.2677056704 -0.050533336 0.871867355 1.058336551e-38
0.2677056704 -0.050533336 0.870423555 1.04926006e-38
0.2697057004 -0.050666671 0.868347345 9.84472427e-39
0.2657056904 -0.0504 0.868172115 9.288691842e-39
0.2617056804 -0.050133336 0.868012115 9.105741117e-39
0.2517056904 -0.04946667 0.869798775 9.014621685e-39
0.2517056904 -0.04946667 0.868385445 9.383398599e-39
0.2497056604 -0.04933333 0.867623545 9.752174112e-39
0.2497056604 -0.04933333 0.866214035 1.002983159e-38
0.2487056704 -0.04926667 0.865134025 1.030785201e-38
0.2467057004 -0.049133338 0.864389255 1.058372144e-38
0.2467057004 -0.049133338 0.862985445 1.095142355e-38
0.2457057104 -0.04906667 0.861916865 1.131876694e-38
0.2457057104 -0.04906667 0.860514975 1.168718933e-38
0.2437056804 -0.048933335 0.859791155 1.196270142e-38
0.2417057004 -0.048800007 0.859074965 1.233184127e-38
0.2407056604 -0.048733335 0.858023565 1.251444167e-38
0.2407056604 -0.048733335 0.856631165 1.269739099e-38
0.2407056604 -0.048733335 0.855238775 1.315835933e-38
0.2387056804 -0.048600003 0.854543515 1.361826129e-38
0.2387056804 -0.048600003 0.853154965 1.306725532e-38
0.2387056804 -0.048600003 0.851766415 1.260806382e-38
0.2387056804 -0.048600003 0.850377835 1.23278812e-38
0.2387056804 -0.048600003 0.848989255 1.204950205e-38
0.2387056804 -0.048600003 0.847600705 1.204878178e-38
0.2897056804 -0.052000001 0.827852115 1.214026135e-38
0.2867056604 -0.051799998 0.827452135 1.186368147e-38
0.2827057104 -0.051533338 0.827427365 1.167927199e-38
0.2817056604 -0.051466666 0.826320685 1.103676263e-38
0.2817056604 -0.051466666 0.824850215 1.04871986e-38
0.2817056604 -0.051466666 0.823379735 1.085419586e-38
0.2817056604 -0.051466666 0.821909255 1.131337615e-38
0.2797056904 -0.051333334 0.821185445 1.158924557e-38
0.2797056904 -0.051333334 0.819718785 1.195729241e-38
0.2797056904 -0.051333334 0.818252125 1.232462178e-38
0.2797056904 -0.051333334 0.816785435 1.26001619e-38
0.2797056904 -0.051333334 0.815318775 1.278601892e-38
0.2797056904 -0.051333334 0.813852115 1.306544904e-38
0.2797056904 -0.051333334 0.812385455 1.324945775e-38
0.2797056904 -0.051333334 0.810918755 1.352533138e-38
0.2797056904 -0.051333334 0.809452125 1.352534119e-38
0.2817056604 -0.051466666 0.807204495 1.352572654e-38
0.2827057104 -0.051533338 0.805341645 1.343320161e-38
0.2847056904 -0.05166667 0.803080685 1.334422196e-38
0.2867056604 -0.051799998 0.800812135 1.224254212e-38
0.2897056804 -0.052000001 0.798137825 1.11408707e-38
0.2937056904 -0.052266669 0.795052095 1.003274349e-38
0.2937056904 -0.052266669 0.793558785 8.833177356e-39
0.2517056904 -0.048053335 0.906545455 9.755385888e-39
0.2527056804 -0.048118096 0.904857835 9.661029456e-39
0.2547057104 -0.04824762 0.902890205 9.568134578e-39
0.2577056804 -0.048441906 0.900636895 8.832391227e-39
0.2597057104 -0.04857143 0.898652115 8.098064589e-39
0.2597057104 -0.04857143 0.897223545 8.557959535e-39
0.2597057104 -0.04857143 0.895794965 9.110037498e-39
0.2597057104 -0.04857143 0.894366395 9.47844447e-39
0.2617056804 -0.048700955 0.892362605 9.936549957e-39
0.2617056804 -0.048700955 0.890930205 1.021206205e-38
0.2617056804 -0.048700955 0.889497825 1.058048444e-38
0.2627056704 -0.048765715 0.887772125 1.07648757e-38
0.2647057004 -0.04889524 0.885747355 1.103895286e-38
0.2657056904 -0.048960004 0.884012115 1.094604817e-38
0.2657056904 -0.048960004 0.882572105 1.085420987e-38
0.2677056704 -0.049089525 0.880530215 1.002768901e-38
0.2677056704 -0.049089525 0.879086405 9.291928842e-39
0.2677056704 -0.049089525 0.877642615 8.830598966e-39
0.2697057004 -0.04921905 0.875585445 8.461457715e-39
0.2677056704 -0.049089525 0.874754975 8.459659849e-39
0.2677056704 -0.049089525 0.873311175 8.460375912e-39
0.2677056704 -0.049089525 0.871867355 8.461093377e-39
0.2677056704 -0.049089525 0.870423555 8.555078465e-39
0.2677056704 -0.049089525 0.868979745 8.55758819e-39
0.2617056804 -0.048700955 0.869444495 8.645473426e-39
0.2617056804 -0.048700955 0.868012115 8.460723434e-39
0.2527056804 -0.048118096 0.869476875 8.369971142e-39
0.2517056904 -0.048053335 0.868385445 8.830231826e-39
0.2497056604 -0.047923807 0.867623545 9.293352561e-39
0.2487056704 -0.04785905 0.866541645 9.663204271e-39
0.2487056704 -0.04785905 0.865134025 1.012274749e-38
0.2467057004 -0.047729529 0.864389255 1.049045521e-38
0.2467057004 -0.047729529 0.862985445 1.095035016e-38
0.2457057104 -0.047664765 0.861916865 1.141024511e-38
0.2457057104 -0.047664765 0.860514975 1.196197835e-38
0.2437056804 -0.047535241 0.859791155 1.223856524e-38
0.2437056804 -0.047535241 0.858393085 1.260735196e-38
0.2417057004 -0.04740572 0.857680685 1.26995574e-38
0.2407056604 -0.047340952 0.856631165 1.288106479e-38
0.2407056604 -0.047340952 0.855238775 1.343386022e-38
0.2387056804 -0.047211431 0.854543515 1.398451306e-38
0.2387056804 -0.047211431 0.853154965 1.315799219e-38
0.2387056804 -0.047211431 0.851766415 1.242115023e-38
0.2377056904 -0.047146667 0.850732125 1.195622742e-38
0.2377056904 -0.047146667 0.849345455 1.149812333e-38
0.2897056804 -0.050514285 0.829337845 1.16792818e-38
0.2867056604 -0.050320003 0.828932145 1.195515963e-38
0.2847056904 -0.050190475 0.828175945 1.186369548e-38
0.2827057104 -0.050060954 0.827427365 1.186367166e-38
0.2817056604 -0.049996193 0.826320685 1.158814135e-38
0.2827057104 -0.050060954 0.824482575 1.13130034e-38
0.2827057104 -0.050060954 0.823010215 1.121974418e-38
0.2817056604 -0.049996193 0.821909255 1.122225952e-38
0.2817056604 -0.049996193 0.820438815 1.149741288e-38
0.2817056604 -0.049996193 0.818968305 1.186618138e-38
0.2797056904 -0.049866669 0.818252125 1.214239833e-38
0.2817056604 -0.049996193 0.816027355 1.24186405e-38
0.2797056904 -0.049866669 0.815318775 1.269488267e-38
0.2797056904 -0.049866669 0.813852115 1.297360654e-38
0.2817056604 -0.049996193 0.811615925 1.315906139e-38
0.2817056604 -0.049996193 0.810145445 1.343492661e-38
0.2817056604 -0.049996193 0.808674975 1.361895773e-38
0.2827057104 -0.050060954 0.806814025 1.380193648e-38
0.2847056904 -0.050190475 0.804556885 1.370797522e-38
0.2867056604 -0.050320003 0.802292115 1.370975907e-38
0.2887056904 -0.050449528 0.800019725 1.18748344e-38
0.2917057104 -0.050643813 0.797341625 1.012817332e-38
0.2937056904 -0.050773337 0.795052095 9.66398059e-39
0.2937056904 -0.050773337 0.793558785 9.292712167e-39
0.2577056804 -0.047017142 0.900636895 9.47990182e-39
0.2597057104 -0.04714286 0.898652115 9.019281002e-39
0.2627056704 -0.04733143 0.896377845 9.10931583e-39
0.2617056804 -0.047268573 0.895227355 9.292262351e-39
0.2627056704 -0.04733143 0.893509265 9.384449573e-39
0.2627056704 -0.04733143 0.892074985 9.568842234e-39
0.2627056704 -0.04733143 0.890640705 9.84471306e-39
0.2627056704 -0.04733143 0.889206415 1.021277671e-38
0.2647057004 -0.047457144 0.887185435 1.048828881e-38
0.2657056904 -0.047520004 0.885452115 1.07638037e-38
0.2677056704 -0.047645714 0.883417845 1.058014112e-38
0.2677056704 -0.047645714 0.881974025 1.048830002e-38
0.2677056704 -0.047645714 0.880530215 9.752535647e-39
0.2677056704 -0.047645714 0.879086405 9.106817314e-39
0.2677056704 -0.047645714 0.877642615 8.554369408e-39
0.2677056704 -0.047645714 0.876198795 8.093751392e-39
0.2677056704 -0.047645714 0.874754975 7.81680577e-39
0.2677056704 -0.047645714 0.873311175 7.54452367e-39
0.2647057004 -0.047457144 0.872804485 7.911145387e-39
0.2647057004 -0.047457144 0.871366395 8.27813004e-39
0.2647057004 -0.047457144 0.869928295 8.278132843e-39
0.2617056804 -0.047268573 0.869444495 8.369957129e-39
0.2577056804 -0.047017142 0.869292125 8.18520013e-39
0.2527056804 -0.046702858 0.869476875 8.001543151e-39
0.2517056904 -0.046640005 0.868385445 8.463247173e-39
0.2497056604 -0.046514284 0.867623545 9.018203404e-39
0.2487056704 -0.046451431 0.866541645 9.478096948e-39
0.2467057004 -0.046325717 0.865793055 9.938360435e-39
0.2467057004 -0.046325717 0.864389255 1.039826519e-38
0.2457057104 -0.04626286 0.863318765 1.085815873e-38
0.2457057104 -0.04626286 0.861916865 1.131697748e-38
0.2457057104 -0.04626286 0.860514975 1.177615636e-38
0.2457057104 -0.04626286 0.859113065 1.214708707e-38
0.2437056804 -0.046137143 0.858393085 1.251552067e-38
0.2437056804 -0.046137143 0.856994965 1.260629679e-38
0.2417057004 -0.046011433 0.856286415 1.26973952e-38
0.2407056604 -0.045948572 0.855238775 1.306364277e-38
0.2407056604 -0.045948572 0.853846415 1.352209298e-38
0.2387056804 -0.045822859 0.853154965 1.306183089e-38
0.2387056804 -0.045822859 0.851766415 1.269341411e-38
0.2387056804 -0.045822859 0.850377835 1.241683282e-38
0.2377056904 -0.045760002 0.849345455 1.204877197e-38
0.2887056904 -0.048965715 0.829695925 1.21409662e-38
0.2867056604 -0.048840001 0.828932145 1.223318145e-38
0.2847056904 -0.048714288 0.828175945 1.204989161e-38
0.2847056904 -0.048714288 0.826699745 1.186655133e-38
0.2827057104 -0.048588578 0.825954955 1.168249498e-38
0.2827057104 -0.048588578 0.824482575 1.149847226e-38
0.2847056904 -0.048714288 0.822271175 1.149847926e-38
0.2827057104 -0.048588578 0.821537805 1.149848627e-38
0.2817056604 -0.048525713 0.820438815 1.168288173e-38
0.2817056604 -0.048525713 0.818968305 1.186726599e-38
0.2817056604 -0.048525713 0.817497825 1.205057545e-38
0.2817056604 -0.048525713 0.816027355 1.232716093e-38
0.2817056604 -0.048525713 0.814556875 1.251155219e-38
0.2817056604 -0.048525713 0.813086435 1.278992994e-38
0.2817056604 -0.048525713 0.811615925 1.297503727e-38
0.2817056604 -0.048525713 0.810145445 1.316049351e-38
0.2827057104 -0.048588578 0.808286375 1.334343863e-38
0.2847056904 -0.048714288 0.806033085 1.352749358e-38
0.2867056604 -0.048840001 0.803772135 1.343101979e-38
0.2867056604 -0.048840001 0.802292115 1.343101418e-38
0.2887056904 -0.048965715 0.800019725 1.13191509e-38
0.2917057104 -0.049154289 0.797341625 9.207670166e-39
0.2937056904 -0.049280003 0.795052095 8.653446815e-39
0.2937056904 -0.049280003 0.793558785 8.099568182e-39
0.2647057004 -0.046019051 0.895814025 9.660681934e-39
0.2647057004 -0.046019051 0.894375915 9.474492808e-39
0.2657056904 -0.046080001 0.892652105 9.381934242e-39
0.2657056904 -0.046080001 0.891212115 9.290820415e-39
0.2677056704 -0.046201907 0.889193065 9.567407304e-39
0.2677056704 -0.046201907 0.887749265 9.843998398e-39
0.2697057004 -0.046323813 0.885718775 1.012094822e-38
0.2697057004 -0.046323813 0.884271155 1.048830422e-38
0.2707056904 -0.046384763 0.882526405 1.030464724e-38
0.2697057004 -0.046323813 0.881375915 1.02124362e-38
0.2697057004 -0.046323813 0.879928305 9.569213578e-39
0.2697057004 -0.046323813 0.878480685 8.924214112e-39
0.2697057004 -0.046323813 0.877033065 8.366027888e-39
0.2697057004 -0.046323813 0.875585445 7.815730974e-39
0.2677056704 -0.046201907 0.874754975 7.173958698e-39
0.2657056904 -0.046080001 0.873932115 6.624373645e-39
0.2647057004 -0.046019051 0.872804485 7.269010175e-39
0.2627056704 -0.045897145 0.871994985 8.004770341e-39
0.2617056804 -0.045836192 0.870876875 8.006206672e-39
0.2577056804 -0.045592383 0.870716875 8.095169506e-39
0.2567056904 -0.045531429 0.869612105 7.908625852e-39
0.2527056804 -0.04528762 0.869476875 7.725319197e-39
0.2517056904 -0.045226667 0.868385445 8.188449741e-39
0.2497056604 -0.045104761 0.867623545 8.740182986e-39
0.2487056704 -0.045043811 0.866541645 9.200082135e-39
0.2467057004 -0.044921909 0.865793055 9.752535647e-39
0.2467057004 -0.044921909 0.864389255 1.021315366e-38
0.2467057004 -0.044921909 0.862985445 1.07659575e-38
0.2457057104 -0.044860955 0.861916865 1.122548951e-38
0.2457057104 -0.044860955 0.860514975 1.168538586e-38
0.2457057104 -0.044860955 0.859113065 1.20555991e-38
