# .PCD v0.7 - Point Cloud Data file format
VERSION 0.7
FIELDS x y z rgb
SIZE 4 4 4 4
TYPE F F F F
COUNT 1 1 1 1
WIDTH 889
HEIGHT 1
VIEWPOINT 0 0 0 1 0 0 0
POINTS 889
DATA ascii
0.26680002 0.06449170619 0.6942613426 1.38933642e-38
0.2681143 0.06449170619 0.6942613426 1.380081264e-38
0.26942858 0.06449170619 0.6942613426 1.380009658e-38
0.27074289 0.06449170619 0.6942613426 1.389121741e-38
0.27245143 0.06349172619 0.6943451506 1.407309474e-38
0.27456 0.06149174619 0.6945127666 1.388870629e-38
0.27588001 0.06149174619 0.6945127666 1.370359896e-38
0.27760002 0.06049175619 0.6945965746 1.342701347e-38
0.2789219 0.06049175619 0.6945965746 1.315437684e-38
0.28024381 0.06049175619 0.6945965746 1.288066402e-38
0.28156573 0.06049175619 0.6945965746 1.269735036e-38
0.28329524 0.05949171619 0.6946803896 1.269914262e-38
0.28584763 0.05649175619 0.6949318136 1.269699162e-38
0.28717715 0.05649175619 0.6949318136 1.25129647e-38
0.28933334 0.05449171619 0.6950994406 1.241934535e-38
0.29066667 0.05449171619 0.6950994406 1.22349667e-38
0.29241717 0.05349173619 0.6951832476 1.214061448e-38
0.29500952 0.05049170619 0.6954346756 1.186438352e-38
0.29592952 0.05149175619 0.6953508636 1.158851409e-38
0.29769143 0.05049170619 0.6954346756 1.140448156e-38
0.29903242 0.05049170619 0.6954346756 1.131227893e-38
0.30080003 0.04949172619 0.6955184866 1.094492994e-38
0.303 0.04749174619 0.6956861026 1.057687329e-38
0.30477715 0.04649176619 0.6957699106 1.030065214e-38
0.3069905 0.04449172619 0.6959375336 1.011698255e-38
0.30877715 0.04349173619 0.6960213376 9.931519296e-39
0.31013143 0.04349173619 0.6960213376 9.747842698e-39
0.31367621 0.03849174619 0.6964403886 8.275240563e-39
0.31547999 0.03749175619 0.6965241956 6.803745453e-39
0.31772953 0.03549172619 0.6966918196 6.985289275e-39
0.32043049 0.03249170619 0.6969432506 7.276603811e-39
0.32225144 0.03149171619 0.6970270576 1.004747674e-38
0.32497144 0.02849175619 0.6972784816 1.281083872e-38
0.32500571 0.03149171619 0.6970270576 1.438069657e-38
0.32593146 0.03249170619 0.6969432506 1.594406641e-38
0.32730669 0.03249170619 0.6969432506 1.55785307e-38
0.32777143 0.03449173619 0.6967756236 1.521047265e-38
0.12598856 0.06549175619 0.6954899106 9.01460627e-39
0.12693143 0.06749172619 0.6953184836 9.014963601e-39
0.12824 0.06749172619 0.6953184836 9.107156429e-39
0.12954856 0.06749172619 0.6953184836 9.199700982e-39
0.13066667 0.06849171619 0.6952327716 9.384799897e-39
0.13197334 0.06849171619 0.6952327716 9.478430457e-39
0.13328001 0.06849171619 0.6952327716 9.569192558e-39
0.13458668 0.06849171619 0.6952327716 9.751792959e-39
0.13589333 0.06849171619 0.6952327716 9.567410107e-39
0.13679999 0.07049174619 0.6950613376 9.383017446e-39
0.13810284 0.07049174619 0.6950613376 9.842550856e-39
0.13940571 0.07049174619 0.6950613376 1.03024472e-38
0.14070857 0.07049174619 0.6950613376 1.011662522e-38
0.14201143 0.07049174619 0.6950613376 9.930796226e-39
0.1433143 0.07049174619 0.6950613376 9.564166101e-39
0.14461716 0.07049174619 0.6950613376 9.200061116e-39
0.14592001 0.07049174619 0.6950613376 9.383381783e-39
0.14722286 0.07049174619 0.6950613376 9.566347922e-39
0.14852571 0.07049174619 0.6950613376 9.65963096e-39
0.14982858 0.07049174619 0.6950613376 9.753255914e-39
0.15113144 0.07049174619 0.6950613376 1.01205951e-38
0.15221143 0.07149173619 0.6949756266 1.05801257e-38
0.15328763 0.07249172619 0.6948899146 1.067303179e-38
0.15458667 0.07249172619 0.6948899146 1.076594208e-38
0.15588573 0.07249172619 0.6948899146 1.049115306e-38
0.15672381 0.07449175619 0.6947184806 1.030856807e-38
0.15801905 0.07449175619 0.6947184806 1.058480184e-38
0.15908001 0.07549174619 0.6946327696 1.095325085e-38
0.16037333 0.07549174619 0.6946327696 1.168689085e-38
0.16142859 0.07649173619 0.6945470576 1.251266903e-38
0.16224001 0.07849170619 0.6943756276 1.223713872e-38
0.16352762 0.07849170619 0.6943756276 1.205381525e-38
0.16481525 0.07849170619 0.6943756276 1.223890996e-38
0.16610287 0.07849170619 0.6943756276 1.251585418e-38
0.16739048 0.07849170619 0.6943756276 1.251442205e-38
0.1686781 0.07849170619 0.6943756276 1.251298852e-38
0.16971429 0.07949175619 0.6942899086 1.260482542e-38
0.171 0.07949175619 0.6942899086 1.278886075e-38
0.17228572 0.07949175619 0.6942899086 1.278886636e-38
0.17357142 0.07949175619 0.6942899086 1.270025805e-38
0.17485714 0.07949175619 0.6942899086 1.279280961e-38
0.17614286 0.07949175619 0.6942899086 1.288535837e-38
0.17742857 0.07949175619 0.6942899086 1.325269615e-38
0.17871429 0.07949175619 0.6942899086 1.371188064e-38
0.17999999 0.07949175619 0.6942899086 1.352785792e-38
0.18128572 0.07949175619 0.6942899086 1.334527153e-38
0.18257143 0.07949175619 0.6942899086 1.316125021e-38
0.18385714 0.07949175619 0.6942899086 1.297792674e-38
0.18541716 0.07849170619 0.6943756276 1.334489878e-38
0.18670478 0.07849170619 0.6943756276 1.380407206e-38
0.18799239 0.07849170619 0.6943756276 1.371187503e-38
0.18928002 0.07849170619 0.6943756276 1.352925922e-38
0.19113143 0.07649173619 0.6945470576 1.343704397e-38
0.19242287 0.07649173619 0.6945470576 1.334451483e-38
0.19371429 0.07649173619 0.6945470576 1.334454005e-38
0.19500573 0.07649173619 0.6945470576 1.3343838e-38
0.19629715 0.07649173619 0.6945470576 1.316054116e-38
0.19700573 0.07849170619 0.6943756276 1.297792955e-38
0.19829336 0.07849170619 0.6943756276 1.307010836e-38
0.19958097 0.07849170619 0.6943756276 1.316230399e-38
0.20086859 0.07849170619 0.6943756276 1.297791693e-38
0.20215622 0.07849170619 0.6943756276 1.288500524e-38
0.20344383 0.07849170619 0.6943756276 1.325270596e-38
0.20473145 0.07849170619 0.6943756276 1.362040107e-38
0.20601907 0.07849170619 0.6943756276 1.362003813e-38
0.20730668 0.07849170619 0.6943756276 1.36196752e-38
0.20921144 0.07649173619 0.6945470576 1.362002973e-38
0.21050286 0.07649173619 0.6945470576 1.362039406e-38
0.2117943 0.07649173619 0.6945470576 1.36207584e-38
0.21245715 0.07849170619 0.6943756276 1.362147867e-38
0.21437715 0.07649173619 0.6945470576 1.371331697e-38
0.21566857 0.07649173619 0.6945470576 1.380516788e-38
0.21696001 0.07649173619 0.6945470576 1.398921302e-38
0.21825144 0.07649173619 0.6945470576 1.417214552e-38
0.21954286 0.07649173619 0.6945470576 1.444763239e-38
0.22083429 0.07649173619 0.6945470576 1.463167053e-38
0.22245334 0.07549174619 0.6946327696 1.454020217e-38
0.22374667 0.07549174619 0.6946327696 1.444869878e-38
0.22504 0.07549174619 0.6946327696 1.435647933e-38
0.22666666 0.07449175619 0.6947184806 1.426466065e-38
0.2279619 0.07449175619 0.6947184806 1.408064774e-38
0.22925714 0.07449175619 0.6947184806 1.389663063e-38
0.23123048 0.07249172619 0.6948899146 1.41717924e-38
0.23252954 0.07249172619 0.6948899146 1.444693034e-38
0.23382859 0.07249172619 0.6948899146 1.453875743e-38
0.23512763 0.07249172619 0.6948899146 1.472098929e-38
0.23642668 0.07249172619 0.6948899146 1.472098649e-38
0.23772572 0.07249172619 0.6948899146 1.472098228e-38
0.23902477 0.07249172619 0.6948899146 1.462914399e-38
0.24032381 0.07249172619 0.6948899146 1.462986285e-38
0.24162287 0.07249172619 0.6948899146 1.444619326e-38
0.2429219 0.07249172619 0.6948899146 1.435328437e-38
0.24457906 0.07149173619 0.6949756266 1.435400604e-38
0.24588001 0.07149173619 0.6949756266 1.435577728e-38
0.24718095 0.07149173619 0.6949756266 1.407953091e-38
0.24848191 0.07149173619 0.6949756266 1.380369932e-38
0.25014856 0.07049174619 0.6950613376 1.426291043e-38
0.25145143 0.07049174619 0.6950613376 1.472315009e-38
0.25349337 0.06849171619 0.6952327716 1.453767283e-38
0.25479999 0.06849171619 0.6952327716 1.43536403e-38
0.25610667 0.06849171619 0.6952327716 1.435292003e-38
0.25778857 0.06749172619 0.6953184836 1.435257251e-38
0.25909713 0.06749172619 0.6953184836 1.417034766e-38
0.26040575 0.06749172619 0.6953184836 1.407849114e-38
0.26171431 0.06749172619 0.6953184836 1.398484096e-38
0.26302287 0.06749172619 0.6953184836 1.389300967e-38
0.26510096 0.06549175619 0.6954899106 1.380046092e-38
0.26641333 0.06549175619 0.6954899106 1.380009658e-38
0.2681143 0.06449170619 0.6955756296 1.379973364e-38
0.26942858 0.06449170619 0.6955756296 1.379866305e-38
0.27074289 0.06449170619 0.6955756296 1.398162358e-38
0.27245143 0.06349172619 0.6956613406 1.425604967e-38
0.27456 0.06149174619 0.6958327706 1.388870348e-38
0.27588001 0.06149174619 0.6958327706 1.361032573e-38
0.27760002 0.06049175619 0.6959184786 1.333517658e-38
0.2789219 0.06049175619 0.6959184786 1.315329504e-38
0.28024381 0.06049175619 0.6959184786 1.287922068e-38
0.28156573 0.06049175619 0.6959184786 1.260478899e-38
0.28411049 0.05749173619 0.6961756276 1.251295349e-38
0.28584763 0.05649175619 0.6962613396 1.23292839e-38
0.28717715 0.05649175619 0.6962613396 1.214489825e-38
0.28933334 0.05449171619 0.6964327696 1.205270682e-38
0.29066667 0.05449171619 0.6964327696 1.177469341e-38
0.29241717 0.05349173619 0.6965184856 1.158958328e-38
0.29459047 0.05149175619 0.6966899116 1.140555076e-38
0.29635051 0.05049170619 0.6967756266 1.131335653e-38
0.29769143 0.05049170619 0.6967756266 1.103713398e-38
0.29945716 0.04949172619 0.6968613426 1.085202105e-38
0.30080003 0.04949172619 0.6968613426 1.039391416e-38
0.30342856 0.04649176619 0.6971184846 1.002585611e-38
0.3056381 0.04449172619 0.6972899106 9.842546652e-39
0.30742285 0.04349173619 0.6973756256 9.659600131e-39
0.30964574 0.04149170619 0.6975470566 9.288319097e-39
0.31100383 0.04149170619 0.6975470566 9.012444067e-39
0.31367621 0.03849174619 0.6978041986 9.107141014e-39
0.31547999 0.03749175619 0.6978899096 9.293726708e-39
0.31684569 0.03749175619 0.6978899096 1.013607664e-38
0.32176191 0.02949174619 0.6985756236 1.097842377e-38
0.32358858 0.02849175619 0.6986613426 1.235958838e-38
0.32497144 0.02849175619 0.6986613426 1.364888947e-38
0.32635427 0.02849175619 0.6986613426 1.447183842e-38
0.32773712 0.02849175619 0.6986613426 1.530050888e-38
0.32730669 0.03249170619 0.6983184856 1.511755536e-38
0.12954856 0.06749172619 0.6966270546 1.086673468e-38
0.13066667 0.06849171619 0.6965394366 1.059194846e-38
0.13197334 0.06849171619 0.6965394366 1.031392664e-38
0.13328001 0.06849171619 0.6965394366 1.04032454e-38
0.13458668 0.06849171619 0.6965394366 1.058835413e-38
0.13589333 0.06849171619 0.6965394366 1.077382159e-38
0.13679999 0.07049174619 0.6963641986 1.095641778e-38
0.13850667 0.06849171619 0.6965394366 1.095534439e-38
0.14001715 0.06749172619 0.6966270546 1.104502329e-38
0.14132573 0.06749172619 0.6966270546 1.058369061e-38
0.14242667 0.06849171619 0.6965394366 1.021132637e-38
0.14373334 0.06849171619 0.6965394366 9.838963532e-39
0.14504001 0.06849171619 0.6965394366 9.569200966e-39
0.14634669 0.06849171619 0.6965394366 9.567411508e-39
0.14765334 0.06849171619 0.6965394366 9.661770743e-39
0.14896001 0.06849171619 0.6965394366 9.66429308e-39
0.15026668 0.06849171619 0.6965394366 9.75505378e-39
0.15113144 0.07049174619 0.6963641986 1.030535069e-38
0.15243429 0.07049174619 0.6963641986 1.094926415e-38
0.15328763 0.07249172619 0.6961889606 1.095068927e-38
0.15458667 0.07249172619 0.6961889606 1.104324224e-38
0.15588573 0.07249172619 0.6961889606 1.104431843e-38
0.15672381 0.07449175619 0.6960137196 1.11368798e-38
0.15801905 0.07449175619 0.6960137196 1.122944257e-38
0.15908001 0.07549174619 0.6959261006 1.141241712e-38
0.16013715 0.07649173619 0.6958384856 1.242191113e-38
0.16142859 0.07649173619 0.6958384856 1.352284407e-38
0.16224001 0.07849170619 0.6956632476 1.288033892e-38
0.16352762 0.07849170619 0.6956632476 1.233039373e-38
0.16481525 0.07849170619 0.6956632476 1.251585138e-38
0.16610287 0.07849170619 0.6956632476 1.279099913e-38
0.16739048 0.07849170619 0.6956632476 1.27906418e-38
0.16842857 0.07949175619 0.6955756256 1.279100334e-38
0.16971429 0.07949175619 0.6955756256 1.269952938e-38
0.171 0.07949175619 0.6955756256 1.269882032e-38
0.17228572 0.07949175619 0.6955756256 1.260627717e-38
0.17357142 0.07949175619 0.6955756256 1.260914282e-38
0.17485714 0.07949175619 0.6955756256 1.270133145e-38
0.17614286 0.07949175619 0.6955756256 1.288535557e-38
0.17742857 0.07949175619 0.6955756256 1.343564547e-38
0.17871429 0.07949175619 0.6955756256 1.398630672e-38
0.17999999 0.07949175619 0.6955756256 1.371080864e-38
0.18128572 0.07949175619 0.6955756256 1.343602382e-38
0.18257143 0.07949175619 0.6955756256 1.33449114e-38
0.18385714 0.07949175619 0.6955756256 1.325305768e-38
0.18514286 0.07949175619 0.6955756256 1.343814679e-38
0.18670478 0.07849170619 0.6956632476 1.362004094e-38
0.18799239 0.07849170619 0.6956632476 1.362005775e-38
0.18928002 0.07849170619 0.6956632476 1.362003813e-38
0.19056764 0.07849170619 0.6956632476 1.316119837e-38
0.19185525 0.07849170619 0.6956632476 1.279350886e-38
0.19314288 0.07849170619 0.6956632476 1.306902656e-38
0.1944305 0.07849170619 0.6956632476 1.343601822e-38
0.19571811 0.07849170619 0.6956632476 1.33438338e-38
0.19700573 0.07849170619 0.6956632476 1.325305488e-38
0.19829336 0.07849170619 0.6956632476 1.325411286e-38
0.19958097 0.07849170619 0.6956632476 1.325376394e-38
0.20086859 0.07849170619 0.6956632476 1.28857157e-38
0.20215622 0.07849170619 0.6956632476 1.260985468e-38
0.20344383 0.07849170619 0.6956632476 1.306903637e-38
0.20473145 0.07849170619 0.6956632476 1.362004514e-38
0.20601907 0.07849170619 0.6956632476 1.362040107e-38
0.20730668 0.07849170619 0.6956632476 1.361967239e-38
0.20859431 0.07849170619 0.6956632476 1.362001992e-38
0.20988192 0.07849170619 0.6956632476 1.362038986e-38
0.21116953 0.07849170619 0.6956632476 1.3621836e-38
0.21245715 0.07849170619 0.6956632476 1.371295403e-38
0.21437715 0.07649173619 0.6958384856 1.371510783e-38
0.2150324 0.07849170619 0.6956632476 1.371296104e-38
0.21696001 0.07649173619 0.6958384856 1.38973565e-38
0.21825144 0.07649173619 0.6958384856 1.408101208e-38
0.21954286 0.07649173619 0.6958384856 1.444834005e-38
0.22083429 0.07649173619 0.6958384856 1.481497298e-38
0.22212572 0.07649173619 0.6958384856 1.463095166e-38
0.22341715 0.07649173619 0.6958384856 1.444762539e-38
0.22504 0.07549174619 0.6959261006 1.435649474e-38
0.22666666 0.07449175619 0.6960137196 1.435614162e-38
0.2279619 0.07449175619 0.6960137196 1.426431173e-38
0.22925714 0.07449175619 0.6960137196 1.42639614e-38
0.23123048 0.07249172619 0.6961889606 1.435580531e-38
0.23252954 0.07249172619 0.6961889606 1.44465576e-38
0.23382859 0.07249172619 0.6961889606 1.453838609e-38
0.23512763 0.07249172619 0.6961889606 1.462914399e-38
0.23642668 0.07249172619 0.6961889606 1.453730709e-38
0.23772572 0.07249172619 0.6961889606 1.444546879e-38
0.23902477 0.07249172619 0.6961889606 1.444582472e-38
0.24032381 0.07249172619 0.6961889606 1.453766302e-38
0.24162287 0.07249172619 0.6961889606 1.435435356e-38
0.2429219 0.07249172619 0.6961889606 1.416997772e-38
0.24457906 0.07149173619 0.6962765796 1.40788723e-38
0.24588001 0.07149173619 0.6962765796 1.407957014e-38
0.24718095 0.07149173619 0.6962765796 1.38047629e-38
0.24848191 0.07149173619 0.6962765796 1.35278411e-38
0.25014856 0.07049174619 0.6963641986 1.426290342e-38
0.25145143 0.07049174619 0.6963641986 1.508941308e-38
0.25349337 0.06849171619 0.6965394366 1.463022579e-38
0.25479999 0.06849171619 0.6965394366 1.42617964e-38
0.25648001 0.06749172619 0.6966270546 1.417030842e-38
0.25778857 0.06749172619 0.6966270546 1.41699595e-38
0.25909713 0.06749172619 0.6966270546 1.398629832e-38
0.26040575 0.06749172619 0.6966270546 1.389373695e-38
0.26171431 0.06749172619 0.6966270546 1.389300967e-38
0.26302287 0.06749172619 0.6966270546 1.389302228e-38
0.26510096 0.06549175619 0.6968022926 1.38011994e-38
0.26641333 0.06549175619 0.6968022926 1.370791636e-38
0.26772571 0.06549175619 0.6968022926 1.379938051e-38
0.26903808 0.06549175619 0.6968022926 1.388978248e-38
0.27074289 0.06449170619 0.6968899116 1.416493304e-38
0.27245143 0.06349172619 0.6969775306 1.443971646e-38
0.27456 0.06149174619 0.6971527676 1.398089351e-38
0.27588001 0.06149174619 0.6971527676 1.361068166e-38
0.27760002 0.06049175619 0.6972403866 1.333553251e-38
0.2789219 0.06049175619 0.6972403866 1.315329504e-38
0.28024381 0.06049175619 0.6972403866 1.287814729e-38
0.28156573 0.06049175619 0.6972403866 1.260371699e-38
0.28411049 0.05749173619 0.6975032436 1.232892797e-38
0.28584763 0.05649175619 0.6975908656 1.205270262e-38
0.28717715 0.05649175619 0.6975908656 1.186831276e-38
0.28933334 0.05449171619 0.6977661036 1.168320964e-38
0.29066667 0.05449171619 0.6977661036 1.140627102e-38
0.29241717 0.05349173619 0.6978537226 1.11304072e-38
0.29459047 0.05149175619 0.6980289596 1.103857311e-38
0.29635051 0.05049170619 0.6981165826 1.103749411e-38
0.2981143 0.04949172619 0.6982041976 1.066979199e-38
0.29945716 0.04949172619 0.6982041976 1.039392397e-38
0.30207998 0.04649176619 0.6984670546 9.934743684e-39
0.30342856 0.04649176619 0.6984670546 9.5674031e-39
0.3056381 0.04449172619 0.6986422996 9.383734911e-39
0.30742285 0.04349173619 0.6987299106 9.199347855e-39
0.30964574 0.04149170619 0.6989051556 8.736944585e-39
0.31100383 0.04149170619 0.6989051556 8.285690046e-39
0.3141143 0.03749175619 0.6992556306 1.003848741e-38
0.31636 0.03549172619 0.6994308616 1.179200645e-38
0.31772953 0.03549172619 0.6994308616 1.32700176e-38
0.32220572 0.02849175619 0.7000441926 1.474406728e-38
0.32358858 0.02849175619 0.7000441926 1.465763238e-38
0.3258667 0.02649172619 0.7002194386 1.456509203e-38
0.32725334 0.02649172619 0.7002194386 1.456331239e-38
0.32773712 0.02849175619 0.7000441926 1.465586955e-38
0.13328001 0.06849171619 0.6978461006 1.068018822e-38
0.13458668 0.06849171619 0.6978461006 1.077309852e-38
0.13589333 0.06849171619 0.6978461006 1.077309852e-38
0.13679999 0.07049174619 0.6976670596 1.086494242e-38
0.13850667 0.06849171619 0.6978461006 1.132520451e-38
0.14001715 0.06749172619 0.6979356266 1.178580711e-38
0.14132573 0.06749172619 0.6979356266 1.132303389e-38
0.14263429 0.06749172619 0.6979356266 1.095211159e-38
0.14394286 0.06749172619 0.6979356266 1.067481985e-38
0.14525144 0.06749172619 0.6979356266 1.03975197e-38
0.14634669 0.06849171619 0.6978461006 1.039895463e-38
0.14765334 0.06849171619 0.6978461006 1.040040077e-38
0.14896001 0.06849171619 0.6978461006 1.049224748e-38
0.15026668 0.06849171619 0.6978461006 1.058408858e-38
0.15113144 0.07049174619 0.6976670596 1.095215363e-38
0.15243429 0.07049174619 0.6976670596 1.12287209e-38
0.15328763 0.07249172619 0.6974880066 1.132197732e-38
0.15458667 0.07249172619 0.6974880066 1.141560647e-38
0.15588573 0.07249172619 0.6974880066 1.141524774e-38
0.15672381 0.07449175619 0.6973089586 1.141489742e-38
0.15778667 0.07549174619 0.6972194316 1.150566652e-38
0.15884572 0.07649173619 0.6971299136 1.168827113e-38
0.16013715 0.07649173619 0.6971299136 1.233005321e-38
0.16095239 0.07849170619 0.6969508686 1.297181708e-38
0.16224001 0.07849170619 0.6969508686 1.269737978e-38
0.16352762 0.07849170619 0.6969508686 1.242366135e-38
0.16481525 0.07849170619 0.6969508686 1.26988049e-38
0.16610287 0.07849170619 0.6969508686 1.297430999e-38
0.16714285 0.07949175619 0.6968613386 1.334201071e-38
0.16842857 0.07949175619 0.6968613386 1.371007296e-38
0.16971429 0.07949175619 0.6968613386 1.334237645e-38
0.171 0.07949175619 0.6968613386 1.306867623e-38
0.17228572 0.07949175619 0.6968613386 1.297685475e-38
0.17331429 0.08049174619 0.6967718166 1.297720507e-38
0.17485714 0.07949175619 0.6968613386 1.297719667e-38
0.17614286 0.07949175619 0.6968613386 1.306902375e-38
0.17742857 0.07949175619 0.6968613386 1.316013478e-38
0.17871429 0.07949175619 0.6968613386 1.334381418e-38
0.17999999 0.07949175619 0.6968613386 1.334382259e-38
0.18128572 0.07949175619 0.6968613386 1.334382399e-38
0.18257143 0.07949175619 0.6968613386 1.334418552e-38
0.18385714 0.07949175619 0.6968613386 1.343635453e-38
0.18514286 0.07949175619 0.6968613386 1.35281662e-38
0.18642858 0.07949175619 0.6968613386 1.362003953e-38
0.18799239 0.07849170619 0.6969508686 1.362007737e-38
0.18928002 0.07849170619 0.6969508686 1.371368691e-38
0.19056764 0.07849170619 0.6969508686 1.343744334e-38
0.19185525 0.07849170619 0.6969508686 1.316193405e-38
0.19314288 0.07849170619 0.6969508686 1.334560224e-38
0.1944305 0.07849170619 0.6969508686 1.352927603e-38
0.19571811 0.07849170619 0.6969508686 1.343708461e-38
0.19671428 0.07949175619 0.6968613386 1.334486796e-38
0.19829336 0.07849170619 0.6969508686 1.334484694e-38
0.19958097 0.07849170619 0.6969508686 1.343706078e-38
0.20086859 0.07849170619 0.6969508686 1.334452884e-38
0.20215622 0.07849170619 0.6969508686 1.325270035e-38
0.20344383 0.07849170619 0.6969508686 1.361933328e-38
0.20473145 0.07849170619 0.6969508686 1.398523893e-38
0.20601907 0.07849170619 0.6969508686 1.38941195e-38
0.20730668 0.07849170619 0.6969508686 1.380298185e-38
0.20859431 0.07849170619 0.6969508686 1.371148687e-38
0.20988192 0.07849170619 0.6969508686 1.362038566e-38
0.21116953 0.07849170619 0.6969508686 1.36207612e-38
0.21245715 0.07849170619 0.6969508686 1.371295403e-38
0.21437715 0.07649173619 0.6971299136 1.37125939e-38
0.2150324 0.07849170619 0.6969508686 1.36207556e-38
0.21696001 0.07649173619 0.6971299136 1.362039406e-38
0.21825144 0.07649173619 0.6971299136 1.362002552e-38
0.21954286 0.07649173619 0.6971299136 1.39873591e-38
0.22083429 0.07649173619 0.6971299136 1.435470949e-38
0.22212572 0.07649173619 0.6971299136 1.435400043e-38
0.22341715 0.07649173619 0.6971299136 1.435328297e-38
0.22470859 0.07649173619 0.6971299136 1.435435917e-38
0.22633334 0.07549174619 0.6972194316 1.426359286e-38
0.22762668 0.07549174619 0.6972194316 1.426322852e-38
0.22892001 0.07549174619 0.6972194316 1.426287399e-38
0.23055238 0.07449175619 0.6973089586 1.435471369e-38
0.23252954 0.07249172619 0.6974880066 1.444654359e-38
0.23382859 0.07249172619 0.6974880066 1.435398642e-38
0.23512763 0.07249172619 0.6974880066 1.435362769e-38
0.23642668 0.07249172619 0.6974880066 1.435362909e-38
0.23772572 0.07249172619 0.6974880066 1.426214952e-38
0.23902477 0.07249172619 0.6974880066 1.426214672e-38
0.24032381 0.07249172619 0.6974880066 1.426179219e-38
0.24162287 0.07249172619 0.6974880066 1.416960217e-38
0.2429219 0.07249172619 0.6974880066 1.416962319e-38
0.24457906 0.07149173619 0.6975775326 1.407781011e-38
0.24588001 0.07149173619 0.6975775326 1.398631793e-38
0.24718095 0.07149173619 0.6975775326 1.389446702e-38
0.24848191 0.07149173619 0.6975775326 1.380299586e-38
0.25014856 0.07049174619 0.6976670596 1.417034345e-38
0.25145143 0.07049174619 0.6976670596 1.444404927e-38
0.25275427 0.07049174619 0.6976670596 1.435256691e-38
0.25479999 0.06849171619 0.6978461006 1.416923503e-38
0.25610667 0.06849171619 0.6978461006 1.407845611e-38
0.25778857 0.06749172619 0.6979356266 1.407846452e-38
0.25909713 0.06749172619 0.6979356266 1.39862801e-38
0.26040575 0.06749172619 0.6979356266 1.39852067e-38
0.26171431 0.06749172619 0.6979356266 1.389337401e-38
0.26302287 0.06749172619 0.6979356266 1.380191686e-38
0.26510096 0.06549175619 0.6981146716 1.370866746e-38
0.26641333 0.06549175619 0.6981146716 1.370793038e-38
0.26772571 0.06549175619 0.6981146716 1.370719329e-38
0.26903808 0.06549175619 0.6981146716 1.37050381e-38
0.27035049 0.06549175619 0.6981146716 1.379687079e-38
0.27205718 0.06449170619 0.6982042056 1.388870068e-38
0.27376765 0.06349172619 0.6982937206 1.361354872e-38
0.27588001 0.06149174619 0.6984727646 1.333588984e-38
0.27760002 0.06049175619 0.6985622916 1.306074208e-38
0.2789219 0.06049175619 0.6985622916 1.287778995e-38
0.28024381 0.06049175619 0.6985622916 1.26026436e-38
0.28197142 0.05949171619 0.6986518176 1.232749584e-38
0.28411049 0.05749173619 0.6988308656 1.195979653e-38
0.28584763 0.05649175619 0.6989203846 1.168428443e-38
0.28717715 0.05649175619 0.6989203846 1.149989177e-38
0.28933334 0.05449171619 0.6990994366 1.131407119e-38
0.29066667 0.05449171619 0.6990994366 1.113004427e-38
0.29241717 0.05349173619 0.6991889636 1.094602015e-38
0.29459047 0.05149175619 0.6993680086 1.067016053e-38
0.29635051 0.05049170619 0.6994575346 1.048540914e-38
0.2981143 0.04949172619 0.6995470526 1.011770422e-38
0.30030668 0.04749174619 0.6997260976 9.83932787e-39
0.30165336 0.04749174619 0.6997260976 9.565616445e-39
0.30428573 0.04449172619 0.6999946766 9.383740516e-39
0.3056381 0.04449172619 0.6999946766 9.290830224e-39
0.30742285 0.04349173619 0.7000841956 9.19827446e-39
0.30964574 0.04149170619 0.7002632476 9.483463921e-39
0.31013143 0.04349173619 0.7000841956 9.860563147e-39
0.31148571 0.04349173619 0.7000841956 1.087548859e-38
0.32032001 0.02649172619 0.7016061106 1.190292063e-38
0.32170668 0.02649172619 0.7016061106 1.318577154e-38
0.32220572 0.02849175619 0.7014270576 1.456078584e-38
0.32358858 0.02849175619 0.7014270576 1.4470737e-38
0.3258667 0.02649172619 0.7016061106 1.438106371e-38
0.32725334 0.02649172619 0.7016061106 1.447183282e-38
0.13951619 0.06349172619 0.6996099136 1.160646052e-38
0.14083239 0.06349172619 0.6996099136 1.252266169e-38
0.14173715 0.06549175619 0.6994270466 1.215244844e-38
0.14304952 0.06549175619 0.6994270466 1.17800842e-38
0.14394286 0.06749172619 0.6992442016 1.149955686e-38
0.14525144 0.06749172619 0.6992442016 1.122476504e-38
0.14634669 0.06849171619 0.6991527686 1.122583843e-38
0.14765334 0.06849171619 0.6991527686 1.122621118e-38
0.14896001 0.06849171619 0.6991527686 1.131877675e-38
0.14982858 0.07049174619 0.6989699086 1.150280788e-38
0.15113144 0.07049174619 0.6989699086 1.150316661e-38
0.15221143 0.07149173619 0.6988784826 1.159750342e-38
0.15328763 0.07249172619 0.6987870526 1.169076264e-38
0.15458667 0.07249172619 0.6987870526 1.187443643e-38
0.15542857 0.07449175619 0.6986041936 1.178260374e-38
0.15672381 0.07449175619 0.6986041936 1.178261635e-38
0.15778667 0.07549174619 0.6985127706 1.187446586e-38
0.15884572 0.07649173619 0.6984213446 1.196378883e-38
0.15966477 0.07849170619 0.6982384856 1.223821772e-38
0.16095239 0.07849170619 0.6982384856 1.251407873e-38
0.16224001 0.07849170619 0.6982384856 1.251443326e-38
0.16352762 0.07849170619 0.6982384856 1.260662189e-38
0.16481525 0.07849170619 0.6982384856 1.28824829e-38
0.16585715 0.07949175619 0.6981470556 1.324982629e-38
0.16714285 0.07949175619 0.6981470556 1.389446983e-38
0.16842857 0.07949175619 0.6981470556 1.462879226e-38
0.16946286 0.08049174619 0.6980556256 1.398558225e-38
0.17074667 0.08049174619 0.6980556256 1.343529375e-38
0.17203048 0.08049174619 0.6980556256 1.343601822e-38
0.17331429 0.08049174619 0.6980556256 1.343637275e-38
0.1745981 0.08049174619 0.6980556256 1.334489178e-38
0.17588191 0.08049174619 0.6980556256 1.325197168e-38
0.17716572 0.08049174619 0.6980556256 1.297573932e-38
0.17844953 0.08049174619 0.6980556256 1.279243967e-38
0.17999999 0.07949175619 0.6981470556 1.297684214e-38
0.18128572 0.07949175619 0.6981470556 1.325235003e-38
0.18257143 0.07949175619 0.6981470556 1.343602382e-38
0.18385714 0.07949175619 0.6981470556 1.36196752e-38
0.18514286 0.07949175619 0.6981470556 1.362001571e-38
0.18642858 0.07949175619 0.6981470556 1.362003813e-38
0.18771429 0.07949175619 0.6981470556 1.371189745e-38
0.189 0.07949175619 0.6981470556 1.380408047e-38
0.19028571 0.07949175619 0.6981470556 1.371295123e-38
0.19157143 0.07949175619 0.6981470556 1.362111153e-38
0.19285715 0.07949175619 0.6981470556 1.362110732e-38
0.1944305 0.07849170619 0.6982384856 1.371258689e-38
0.19571811 0.07849170619 0.6982384856 1.362039687e-38
0.19671428 0.07949175619 0.6981470556 1.352819143e-38
0.19829336 0.07849170619 0.6982384856 1.352817881e-38
0.19958097 0.07849170619 0.6982384856 1.362002832e-38
0.20086859 0.07849170619 0.6982384856 1.371187643e-38
0.20215622 0.07849170619 0.6982384856 1.389483556e-38
0.20344383 0.07849170619 0.6982384856 1.416963159e-38
0.20473145 0.07849170619 0.6982384856 1.444441922e-38
0.20601907 0.07849170619 0.6982384856 1.426003076e-38
0.20730668 0.07849170619 0.6982384856 1.407778349e-38
0.20859431 0.07849170619 0.6982384856 1.380334058e-38
0.20988192 0.07849170619 0.6982384856 1.361933048e-38
0.21116953 0.07849170619 0.6982384856 1.371118419e-38
0.21245715 0.07849170619 0.6982384856 1.380300707e-38
0.21437715 0.07649173619 0.6984213446 1.37115163e-38
0.2150324 0.07849170619 0.6982384856 1.361931787e-38
0.21696001 0.07649173619 0.6984213446 1.343564267e-38
0.21825144 0.07649173619 0.6984213446 1.325232761e-38
0.21954286 0.07649173619 0.6984213446 1.362038566e-38
0.22083429 0.07649173619 0.6984213446 1.398665565e-38
0.22212572 0.07649173619 0.6984213446 1.416925465e-38
0.22341715 0.07649173619 0.6984213446 1.435292564e-38
0.22470859 0.07649173619 0.6984213446 1.426109014e-38
0.22633334 0.07549174619 0.6985127706 1.426179499e-38
0.22762668 0.07549174619 0.6985127706 1.426249985e-38
0.22892001 0.07549174619 0.6985127706 1.426214952e-38
0.23021334 0.07549174619 0.6985127706 1.435399483e-38
0.23184761 0.07449175619 0.6986041936 1.444546739e-38
0.23382859 0.07249172619 0.6987870526 1.426179359e-38
0.23443809 0.07449175619 0.6986041936 1.416960077e-38
0.23642668 0.07249172619 0.6987870526 1.416816864e-38
0.23772572 0.07249172619 0.6987870526 1.416959656e-38
0.23902477 0.07249172619 0.6987870526 1.407847152e-38
0.24032381 0.07249172619 0.6987870526 1.40781198e-38
0.24162287 0.07249172619 0.6987870526 1.407776807e-38
0.2429219 0.07249172619 0.6987870526 1.416926025e-38
0.24457906 0.07149173619 0.6988784826 1.407744157e-38
0.24588001 0.07149173619 0.6988784826 1.398559206e-38
0.24718095 0.07149173619 0.6988784826 1.407741495e-38
0.24848191 0.07149173619 0.6988784826 1.416961478e-38
0.25014856 0.07049174619 0.6989699086 1.398630953e-38
0.25145143 0.07049174619 0.6989699086 1.389374676e-38
0.25275427 0.07049174619 0.6989699086 1.398629131e-38
0.25479999 0.06849171619 0.6991527686 1.417030842e-38
0.25610667 0.06849171619 0.6991527686 1.407881905e-38
0.25741336 0.06849171619 0.6991527686 1.398663042e-38
0.25909713 0.06749172619 0.6992442016 1.39862773e-38
0.26040575 0.06749172619 0.6992442016 1.407632193e-38
0.26171431 0.06749172619 0.6992442016 1.389157895e-38
0.26302287 0.06749172619 0.6992442016 1.370791776e-38
0.26433143 0.06749172619 0.6992442016 1.370828771e-38
0.26641333 0.06549175619 0.6994270466 1.379939453e-38
0.26772571 0.06549175619 0.6994270466 1.370719049e-38
0.26903808 0.06549175619 0.6994270466 1.361355993e-38
0.27035049 0.06549175619 0.6994270466 1.342988754e-38
0.27205718 0.06449170619 0.6995184876 1.333805484e-38
0.27376765 0.06349172619 0.6996099136 1.315438665e-38
0.27588001 0.06149174619 0.6997927656 1.306218682e-38
0.27760002 0.06049175619 0.6998841996 1.287850882e-38
0.2789219 0.06049175619 0.6998841996 1.269376163e-38
0.28024381 0.06049175619 0.6998841996 1.241753768e-38
0.28197142 0.05949171619 0.6999756256 1.214238992e-38
0.28411049 0.05749173619 0.7001584846 1.168392991e-38
0.28584763 0.05649175619 0.7002499106 1.131586625e-38
0.28800002 0.05449171619 0.7004327706 1.113147499e-38
0.28933334 0.05449171619 0.7004327706 1.103784864e-38
0.29066667 0.05449171619 0.7004327706 1.085274552e-38
0.29241717 0.05349173619 0.7005242046 1.076127996e-38
0.29459047 0.05149175619 0.7007070486 1.039430792e-38
0.29635051 0.05049170619 0.7007984896 1.002624147e-38
0.29896003 0.04749174619 0.7010727676 9.657814877e-39
0.30030668 0.04749174619 0.7010727676 9.28939109e-39
0.30207998 0.04649176619 0.7011641946 9.19647239e-39
0.30428573 0.04449172619 0.7013470536 9.195424219e-39
0.30606857 0.04349173619 0.7014384876 9.19473478e-39
0.30742285 0.04349173619 0.7014384876 9.302367114e-39
0.30964574 0.04149170619 0.7016213466 1.032225596e-38
0.31100383 0.04149170619 0.7016213466 1.143042941e-38
0.31236196 0.04149170619 0.7016213466 1.171244072e-38
0.32032001 0.02649172619 0.7029927676 1.208445324e-38
0.32170668 0.02649172619 0.7029927676 1.318720366e-38
0.32220572 0.02849175619 0.7028099086 1.437783652e-38
0.32358858 0.02849175619 0.7028099086 1.428599962e-38
0.13951619 0.06349172619 0.7009261036 1.197488851e-38
0.14042476 0.06549175619 0.7007394366 1.252554836e-38
0.14173715 0.06549175619 0.7007394366 1.233542719e-38
0.14304952 0.06549175619 0.7007394366 1.214887934e-38
0.14394286 0.06749172619 0.7005527696 1.196412654e-38
0.14504001 0.06849171619 0.7004594366 1.177937375e-38
0.14634669 0.06849171619 0.7004594366 1.168753405e-38
0.14722286 0.07049174619 0.7002727616 1.168790819e-38
0.14852571 0.07049174619 0.7002727616 1.168864107e-38
0.14982858 0.07049174619 0.7002727616 1.178118983e-38
0.15091048 0.07149173619 0.7001794356 1.187373859e-38
0.15198858 0.07249172619 0.7000861026 1.196628454e-38
0.15328763 0.07249172619 0.7000861026 1.20577557e-38
0.15413333 0.07449175619 0.6998994356 1.21495968e-38
0.1552 0.07549174619 0.6998061026 1.205812564e-38
0.15649334 0.07549174619 0.6998061026 1.205850119e-38
0.15755428 0.07649173619 0.6997127686 1.214963604e-38
0.15837716 0.07849170619 0.6995261096 1.223930653e-38
0.15966477 0.07849170619 0.6995261096 1.251444167e-38
0.16095239 0.07849170619 0.6995261096 1.279102296e-38
0.162 0.07949175619 0.6994327686 1.251408154e-38
0.1632857 0.07949175619 0.6994327686 1.223892958e-38
0.16457143 0.07949175619 0.6994327686 1.260554989e-38
0.16585715 0.07949175619 0.6994327686 1.297253595e-38
0.16714285 0.07949175619 0.6994327686 1.34324351e-38
0.16842857 0.07949175619 0.6994327686 1.398451446e-38
0.16971429 0.07949175619 0.6994327686 1.370863943e-38
0.17074667 0.08049174619 0.6993394356 1.352461111e-38
0.17203048 0.08049174619 0.6993394356 1.36186004e-38
0.17331429 0.08049174619 0.6993394356 1.380263013e-38
0.1745981 0.08049174619 0.6993394356 1.352640617e-38
0.17588191 0.08049174619 0.6993394356 1.334236664e-38
0.17716572 0.08049174619 0.6993394356 1.325088007e-38
0.17844953 0.08049174619 0.6993394356 1.315978025e-38
0.17973334 0.08049174619 0.6993394356 1.315944114e-38
0.18128572 0.07949175619 0.6994327686 1.32509193e-38
0.18257143 0.07949175619 0.6994327686 1.361862142e-38
0.18385714 0.07949175619 0.6994327686 1.398666686e-38
0.18514286 0.07949175619 0.6994327686 1.380370072e-38
0.18642858 0.07949175619 0.6994327686 1.371223236e-38
0.18771429 0.07949175619 0.6994327686 1.371188344e-38
0.189 0.07949175619 0.6994327686 1.380407346e-38
0.19028571 0.07949175619 0.6994327686 1.36196822e-38
0.19157143 0.07949175619 0.6994327686 1.352712364e-38
0.19285715 0.07949175619 0.6994327686 1.362038846e-38
0.19414286 0.07949175619 0.6994327686 1.380406365e-38
0.19571811 0.07849170619 0.6995261096 1.371187503e-38
0.19671428 0.07949175619 0.6994327686 1.3619678e-38
0.19800001 0.07949175619 0.6994327686 1.371151209e-38
0.19958097 0.07849170619 0.6995261096 1.380371193e-38
0.20086859 0.07849170619 0.6995261096 1.380264274e-38
0.20185713 0.07949175619 0.6994327686 1.380085328e-38
0.20314285 0.07949175619 0.6994327686 1.389341044e-38
0.20442858 0.07949175619 0.6994327686 1.407708144e-38
0.20601907 0.07849170619 0.6995261096 1.398524734e-38
0.20730668 0.07849170619 0.6995261096 1.389340624e-38
0.20859431 0.07849170619 0.6995261096 1.361968921e-38
0.20988192 0.07849170619 0.6995261096 1.334384501e-38
0.21116953 0.07849170619 0.6995261096 1.352717829e-38
0.21245715 0.07849170619 0.6995261096 1.371082406e-38
0.21437715 0.07649173619 0.6997127686 1.371079883e-38
0.2150324 0.07849170619 0.6995261096 1.371115056e-38
0.21696001 0.07649173619 0.6997127686 1.352711523e-38
0.21825144 0.07649173619 0.6997127686 1.343241408e-38
0.21954286 0.07649173619 0.6997127686 1.361680814e-38
0.22083429 0.07649173619 0.6997127686 1.389303209e-38
0.22212572 0.07649173619 0.6997127686 1.398558646e-38
0.22341715 0.07649173619 0.6997127686 1.416925605e-38
0.22470859 0.07649173619 0.6997127686 1.416889731e-38
0.22600001 0.07649173619 0.6997127686 1.41688777e-38
0.22762668 0.07549174619 0.6998061026 1.416921821e-38
0.22892001 0.07549174619 0.6998061026 1.416959096e-38
0.23021334 0.07549174619 0.6998061026 1.407669328e-38
0.23184761 0.07449175619 0.6998994356 1.407561428e-38
0.23314285 0.07449175619 0.6998994356 1.389265935e-38
0.23443809 0.07449175619 0.6998994356 1.371006736e-38
0.23573333 0.07449175619 0.6998994356 1.380154832e-38
0.23772572 0.07249172619 0.7000861026 1.389337261e-38
0.23902477 0.07249172619 0.7000861026 1.380116717e-38
0.24032381 0.07249172619 0.7000861026 1.380117698e-38
0.24162287 0.07249172619 0.7000861026 1.389158735e-38
0.2429219 0.07249172619 0.7000861026 1.398235646e-38
0.24422096 0.07249172619 0.7000861026 1.398200894e-38
0.24588001 0.07149173619 0.7001794356 1.398199773e-38
0.24718095 0.07149173619 0.7001794356 1.416816864e-38
0.24848191 0.07149173619 0.7001794356 1.435184664e-38
0.25014856 0.07049174619 0.7002727616 1.416818265e-38
0.25145143 0.07049174619 0.7002727616 1.389302369e-38
0.25275427 0.07049174619 0.7002727616 1.416995389e-38
0.25479999 0.06849171619 0.7004594366 1.45387238e-38
0.25610667 0.06849171619 0.7004594366 1.426213551e-38
0.25741336 0.06849171619 0.7004594366 1.398663042e-38
0.25872001 0.06849171619 0.7004594366 1.407739252e-38
0.26040575 0.06749172619 0.7005527696 1.416743856e-38
0.26171431 0.06749172619 0.7005527696 1.389193628e-38
0.26302287 0.06749172619 0.7005527696 1.370826529e-38
0.26433143 0.06749172619 0.7005527696 1.370754922e-38
0.26641333 0.06549175619 0.7007394366 1.379830712e-38
0.26772571 0.06549175619 0.7007394366 1.361427599e-38
0.26903808 0.06549175619 0.7007394366 1.352208177e-38
0.27074289 0.06449170619 0.7008327696 1.324657668e-38
0.27205718 0.06449170619 0.7008327696 1.306291549e-38
0.27376765 0.06349172619 0.7009261036 1.287889698e-38
0.27627811 0.06049175619 0.7012061036 1.278669014e-38
0.27760002 0.06049175619 0.7012061036 1.260121287e-38
0.27932382 0.05949171619 0.7012994446 1.241466922e-38
0.28064764 0.05949171619 0.7012994446 1.213952006e-38
0.28278285 0.05749173619 0.7014860966 1.186472964e-38
0.28451812 0.05649175619 0.7015794296 1.140519342e-38
0.28584763 0.05649175619 0.7015794296 1.094601454e-38
0.28800002 0.05449171619 0.7017661046 1.076305961e-38
0.28933334 0.05449171619 0.7017661046 1.066763819e-38
0.29108191 0.05349173619 0.7018594376 1.048289381e-38
0.29241717 0.05349173619 0.7018594376 1.029852217e-38
0.29500952 0.05049170619 0.7021394376 9.841156564e-39
0.29677144 0.04949172619 0.7022327716 9.383761535e-39
0.29896003 0.04749174619 0.7024194386 8.922779182e-39
0.30030668 0.04749174619 0.7024194386 8.556140649e-39
0.30293334 0.04449172619 0.7026994386 9.01853411e-39
0.30471429 0.04349173619 0.7027927716 9.460905818e-39
0.30606857 0.04349173619 0.7027927716 1.040083937e-38
0.30828765 0.04149170619 0.7029794386 1.124352982e-38
0.30964574 0.04149170619 0.7029794386 1.179923435e-38
0.31100383 0.04149170619 0.7029794386 1.244677157e-38
0.31236196 0.04149170619 0.7029794386 1.244715552e-38
0.13628572 0.07949175619 0.7007184776 1.234333612e-38
0.13757142 0.07949175619 0.7007184776 1.261524968e-38
0.14112 0.06849171619 0.7017661046 1.251838773e-38
0.14242667 0.06849171619 0.7017661046 1.251730452e-38
0.14373334 0.06849171619 0.7017661046 1.242474596e-38
0.14504001 0.06849171619 0.7017661046 1.233290486e-38
0.14634669 0.06849171619 0.7017661046 1.224142249e-38
0.14722286 0.07049174619 0.7015756226 1.214960661e-38
0.14830858 0.07149173619 0.7014803896 1.214998496e-38
0.14960954 0.07149173619 0.7014803896 1.215033388e-38
0.15068954 0.07249172619 0.7013851486 1.22425183e-38
0.15132 0.07549174619 0.7010994336 1.242546342e-38
0.1528381 0.07449175619 0.7011946746 1.242509768e-38
0.15390667 0.07549174619 0.7010994336 1.242510049e-38
0.15497142 0.07649173619 0.7010042006 1.242582075e-38
0.15626286 0.07649173619 0.7010042006 1.242547043e-38
0.15708953 0.07849170619 0.7008137266 1.242476277e-38
0.15837716 0.07849170619 0.7008137266 1.251551647e-38
0.15942858 0.07949175619 0.7007184776 1.278993975e-38
0.16071428 0.07949175619 0.7007184776 1.306508751e-38
0.162 0.07949175619 0.7007184776 1.25137158e-38
0.1632857 0.07949175619 0.7007184776 1.196234129e-38
0.16432762 0.08049174619 0.7006232446 1.232932174e-38
0.16585715 0.07949175619 0.7007184776 1.278778315e-38
0.16714285 0.07949175619 0.7007184776 1.306293231e-38
0.16842857 0.07949175619 0.7007184776 1.333915346e-38
0.16971429 0.07949175619 0.7007184776 1.343206235e-38
0.17074667 0.08049174619 0.7006232446 1.36164452e-38
0.17203048 0.08049174619 0.7006232446 1.389302369e-38
0.17331429 0.08049174619 0.7006232446 1.416781551e-38
0.1745981 0.08049174619 0.7006232446 1.379976027e-38
0.17588191 0.08049174619 0.7006232446 1.352424957e-38
0.17716572 0.08049174619 0.7006232446 1.35246041e-38
0.17844953 0.08049174619 0.7006232446 1.352641038e-38
0.17973334 0.08049174619 0.7006232446 1.343494622e-38
0.18128572 0.07949175619 0.7007184776 1.33427604e-38
0.18257143 0.07949175619 0.7007184776 1.380158756e-38
0.18385714 0.07949175619 0.7007184776 1.435437738e-38
0.18514286 0.07949175619 0.7007184776 1.407921281e-38
0.18642858 0.07949175619 0.7007184776 1.389555303e-38
0.18771429 0.07949175619 0.7007184776 1.380372874e-38
0.189 0.07949175619 0.7007184776 1.380407907e-38
0.19028571 0.07949175619 0.7007184776 1.361896474e-38
0.19157143 0.07949175619 0.7007184776 1.352748517e-38
0.19285715 0.07949175619 0.7007184776 1.371187083e-38
0.19414286 0.07949175619 0.7007184776 1.389554182e-38
0.19542857 0.07949175619 0.7007184776 1.380370772e-38
0.19671428 0.07949175619 0.7007184776 1.380299026e-38
0.19800001 0.07949175619 0.7007184776 1.389410829e-38
0.19958097 0.07849170619 0.7008137266 1.398558786e-38
0.20086859 0.07849170619 0.7008137266 1.380156093e-38
0.20185713 0.07949175619 0.7007184776 1.370972404e-38
0.20314285 0.07949175619 0.7007184776 1.370972264e-38
0.20442858 0.07949175619 0.7007184776 1.38022756e-38
0.20601907 0.07849170619 0.7008137266 1.371115897e-38
0.20730668 0.07849170619 0.7008137266 1.371150789e-38
0.20859431 0.07849170619 0.7008137266 1.334451623e-38
0.20988192 0.07849170619 0.7008137266 1.30683119e-38
0.21116953 0.07849170619 0.7008137266 1.334347927e-38
0.21245715 0.07849170619 0.7008137266 1.361896894e-38
0.21437715 0.07649173619 0.7010042006 1.371078902e-38
0.2150324 0.07849170619 0.7008137266 1.389445301e-38
0.21696001 0.07649173619 0.7010042006 1.371041628e-38
0.21825144 0.07649173619 0.7010042006 1.361786892e-38
0.21954286 0.07649173619 0.7010042006 1.370899396e-38
0.22083429 0.07649173619 0.7010042006 1.389338942e-38
0.22212572 0.07649173619 0.7010042006 1.389447263e-38
0.22341715 0.07649173619 0.7010042006 1.398523753e-38
0.22470859 0.07649173619 0.7010042006 1.39870368e-38
0.22633334 0.07549174619 0.7010994336 1.407777368e-38
0.22762668 0.07549174619 0.7010994336 1.407667506e-38
0.22892001 0.07549174619 0.7010994336 1.407740654e-38
0.23021334 0.07549174619 0.7010994336 1.389159576e-38
0.23150666 0.07549174619 0.7010994336 1.379939032e-38
0.23314285 0.07449175619 0.7011946746 1.352387122e-38
0.23443809 0.07449175619 0.7011946746 1.3251243e-38
0.23642668 0.07249172619 0.7013851486 1.343420634e-38
0.23772572 0.07249172619 0.7013851486 1.361786612e-38
0.23902477 0.07249172619 0.7013851486 1.352637955e-38
0.24032381 0.07249172619 0.7013851486 1.352567329e-38
0.24162287 0.07249172619 0.7013851486 1.37061269e-38
0.2429219 0.07249172619 0.7013851486 1.388980771e-38
0.24422096 0.07249172619 0.7013851486 1.388981892e-38
0.24588001 0.07149173619 0.7014803896 1.3982718e-38
0.24718095 0.07149173619 0.7014803896 1.425892934e-38
0.24848191 0.07149173619 0.7014803896 1.462734752e-38
0.24978286 0.07149173619 0.7014803896 1.425856921e-38
0.25145143 0.07049174619 0.7015756226 1.398485218e-38
0.25275427 0.07049174619 0.7015756226 1.444581911e-38
0.25405714 0.07049174619 0.7015756226 1.490463226e-38
0.25535998 0.07049174619 0.7015756226 1.444509044e-38
0.25666285 0.07049174619 0.7015756226 1.407739112e-38
0.25796571 0.07049174619 0.7015756226 1.416887069e-38
0.26002666 0.06849171619 0.7017661046 1.425999012e-38
0.26133335 0.06849171619 0.7017661046 1.39841277e-38
0.26302287 0.06749172619 0.7018613446 1.370754222e-38
0.26433143 0.06749172619 0.7018613446 1.379865744e-38
0.26641333 0.06549175619 0.7020518186 1.388977548e-38
0.26772571 0.06549175619 0.7020518186 1.361175786e-38
0.26903808 0.06549175619 0.7020518186 1.34284484e-38
0.27074289 0.06449170619 0.7021470596 1.306182669e-38
0.27205718 0.06449170619 0.7021470596 1.278560834e-38
0.27376765 0.06349172619 0.7022422936 1.260122549e-38
0.27588001 0.06149174619 0.7024327676 1.250830679e-38
0.27760002 0.06049175619 0.7025280076 1.232391132e-38
0.2789219 0.06049175619 0.7025280076 1.213915993e-38
0.28145525 0.05749173619 0.7028137226 1.18643667e-38
0.28318855 0.05649175619 0.7029089636 1.167997684e-38
0.28533334 0.05449171619 0.7030994376 1.112860373e-38
0.28666669 0.05449171619 0.7030994376 1.067050245e-38
0.28800002 0.05449171619 0.7030994376 1.048683006e-38
0.28974667 0.05349173619 0.7031946786 1.030100807e-38
0.29191238 0.05149175619 0.7033851526 1.002406805e-38
0.2936686 0.05049170619 0.7034803936 9.839336278e-39
0.29500952 0.05049170619 0.7034803936 9.288338715e-39
0.29677144 0.04949172619 0.7035756346 8.738038999e-39
0.29896003 0.04749174619 0.7037661086 8.279934913e-39
0.30158097 0.04449172619 0.7040518156 7.913683138e-39
0.30336002 0.04349173619 0.7041470566 8.840663092e-39
0.30471429 0.04349173619 0.7041470566 9.85663811e-39
0.30606857 0.04349173619 0.7041470566 1.1515463e-38
0.30742285 0.04349173619 0.7041470566 1.326716736e-38
0.30877715 0.04349173619 0.7041470566 1.336404052e-38
0.31100383 0.04149170619 0.7043375306 1.345732216e-38
0.13371429 0.07949175619 0.7020041946 1.242474035e-38
0.13500001 0.07949175619 0.7020041946 1.251624514e-38
0.13628572 0.07949175619 0.7020041946 1.270245669e-38
0.13757142 0.07949175619 0.7020041946 1.288898072e-38
0.13885714 0.07949175619 0.7020041946 1.279354249e-38
0.14014286 0.07949175619 0.7020041946 1.278958943e-38
0.1433143 0.07049174619 0.7028784836 1.270241185e-38
0.14461716 0.07049174619 0.7028784836 1.261164694e-38
0.14592001 0.07049174619 0.7028784836 1.251944711e-38
0.14679238 0.07249172619 0.7026842016 1.233579854e-38
0.14765716 0.07449175619 0.7024899136 1.242729912e-38
0.14895239 0.07449175619 0.7024899136 1.242728371e-38
0.15024762 0.07449175619 0.7024899136 1.279353408e-38
0.15109715 0.07649173619 0.7022956316 1.30683133e-38
0.15238857 0.07649173619 0.7022956316 1.28846339e-38
0.15368001 0.07649173619 0.7022956316 1.260912741e-38
0.1545143 0.07849170619 0.7021013426 1.260876868e-38
0.15557143 0.07949175619 0.7020041946 1.251693458e-38
0.15685713 0.07949175619 0.7020041946 1.260662048e-38
0.15814286 0.07949175619 0.7020041946 1.260339189e-38
0.15942858 0.07949175619 0.7020041946 1.269486866e-38
0.16047619 0.08049174619 0.7019070546 1.287853965e-38
0.16176 0.08049174619 0.7019070546 1.251119907e-38
0.16304381 0.08049174619 0.7019070546 1.223604851e-38
0.16432762 0.08049174619 0.7019070546 1.251119486e-38
0.16585715 0.07949175619 0.7020041946 1.269486585e-38
0.16714285 0.07949175619 0.7020041946 1.287817811e-38
0.16842857 0.07949175619 0.7020041946 1.306149318e-38
0.16971429 0.07949175619 0.7020041946 1.324588584e-38
0.17074667 0.08049174619 0.7019070546 1.343026308e-38
0.17203048 0.08049174619 0.7019070546 1.3614283e-38
0.17357142 0.07949175619 0.7020041946 1.379831833e-38
0.1745981 0.08049174619 0.7019070546 1.370720731e-38
0.17588191 0.08049174619 0.7019070546 1.361609068e-38
0.17716572 0.08049174619 0.7019070546 1.370792897e-38
0.17844953 0.08049174619 0.7019070546 1.38930405e-38
0.17973334 0.08049174619 0.7019070546 1.371009398e-38
0.18101715 0.08049174619 0.7019070546 1.35275146e-38
0.18230096 0.08049174619 0.7019070546 1.371155974e-38
0.18358476 0.08049174619 0.7019070546 1.389556844e-38
0.18486857 0.08049174619 0.7019070546 1.380371193e-38
0.18615238 0.08049174619 0.7019070546 1.371189044e-38
0.18771429 0.07949175619 0.7020041946 1.389557545e-38
0.18872 0.08049174619 0.7019070546 1.398775567e-38
0.19028571 0.07949175619 0.7020041946 1.37115191e-38
0.19157143 0.07949175619 0.7020041946 1.352784811e-38
0.19285715 0.07949175619 0.7020041946 1.371187783e-38
0.19414286 0.07949175619 0.7020041946 1.389554462e-38
0.19542857 0.07949175619 0.7020041946 1.380334619e-38
0.19671428 0.07949175619 0.7020041946 1.380263013e-38
0.19800001 0.07949175619 0.7020041946 1.389339223e-38
0.19958097 0.07849170619 0.7021013426 1.407598562e-38
0.20086859 0.07849170619 0.7021013426 1.389303209e-38
0.20215622 0.07849170619 0.7021013426 1.371007156e-38
0.20314285 0.07949175619 0.7020041946 1.361858919e-38
0.20473145 0.07849170619 0.7021013426 1.352747116e-38
0.20601907 0.07849170619 0.7021013426 1.361930666e-38
