# .PCD v0.7 - Point Cloud Data file format
VERSION 0.7
FIELDS x y z rgb
SIZE 4 4 4 4
TYPE F F F F
COUNT 1 1 1 1
WIDTH 897
HEIGHT 1
VIEWPOINT 0 0 0 1 0 0 0
POINTS 897
DATA ascii
0.31820193 0.06615930645 0.7608621053 1.306507349e-38
0.31889144 0.06815934645 0.7605573353 1.260659947e-38
0.32120383 0.06615930645 0.7608621053 1.269949855e-38
0.32270479 0.06615930645 0.7608621053 1.278954739e-38
0.32461715 0.06515932645 0.7610144753 1.306362455e-38
0.32612002 0.06515932645 0.7610144753 1.34316868e-38
0.32845333 0.06315934645 0.7613192353 1.297323099e-38
0.3307943 0.06115931645 0.7616240053 1.260731553e-38
0.33230478 0.06115931645 0.7616240053 1.260802459e-38
0.33381525 0.06115931645 0.7616240053 1.269950976e-38
0.33532572 0.06115931645 0.7616240053 1.27906362e-38
0.3376857 0.05915933645 0.7619287653 1.297251493e-38
0.33919999 0.05915933645 0.7619287653 1.288103957e-38
0.34071428 0.05915933645 0.7619287653 1.278848801e-38
0.34222856 0.05915933645 0.7619287653 1.269629518e-38
0.34460762 0.05715930645 0.7622335253 1.269593084e-38
0.34612575 0.05715930645 0.7622335253 1.251225284e-38
0.34808001 0.05615931645 0.7623859153 1.232785598e-38
0.34960002 0.05615931645 0.7623859153 1.232748884e-38
0.352 0.05415934645 0.7626906653 1.242040614e-38
0.35352382 0.05415934645 0.7626906653 1.214669891e-38
0.35593525 0.05215930645 0.7629954353 1.195980073e-38
0.35835427 0.05015933645 0.7633001953 1.177613114e-38
0.35988572 0.05015933645 0.7633001953 1.159246996e-38
0.36141714 0.05015933645 0.7633001953 1.1684674e-38
0.36294857 0.05015933645 0.7633001953 1.177757868e-38
0.36629334 0.04615932645 0.7639097153 1.150457772e-38
0.36783236 0.04615932645 0.7639097153 1.122799503e-38
0.37028572 0.04415929645 0.7642144853 1.150099179e-38
0.37182862 0.04415929645 0.7642144853 1.177758429e-38
0.37337145 0.04415929645 0.7642144853 1.223677158e-38
0.37491432 0.04415929645 0.7642144853 1.278741741e-38
0.37738666 0.04215931645 0.7645192453 1.232607913e-38
0.37893334 0.04215931645 0.7645192453 1.186727019e-38
0.38048002 0.04215931645 0.7645192453 1.168396774e-38
0.38202667 0.04215931645 0.7645192453 1.159355036e-38
0.38451812 0.04015934645 0.7648240053 1.131874592e-38
0.38654289 0.03915929645 0.7649763953 1.113435046e-38
0.38809526 0.03915929645 0.7649763953 1.177683319e-38
0.38964766 0.03915929645 0.7649763953 1.241825514e-38
0.39216 0.03715932645 0.7652811453 1.195800987e-38
0.39371619 0.03715932645 0.7652811453 1.149811913e-38
0.39624003 0.03515928645 0.7655859053 1.158924137e-38
0.39780003 0.03515928645 0.7655859053 1.168288033e-38
0.40033525 0.03315931645 0.7658906653 1.150173028e-38
0.40189907 0.03315931645 0.7658906653 1.131554395e-38
0.40444571 0.03115934645 0.7661954353 1.140809131e-38
0.40601331 0.03115934645 0.7661954353 1.149921354e-38
0.40758097 0.03115934645 0.7661954353 1.177508297e-38
0.40914857 0.03115934645 0.7661954353 1.205022512e-38
0.41071621 0.03115934645 0.7661954353 1.186618979e-38
0.41228381 0.03115934645 0.7661954353 1.168180974e-38
0.41385144 0.03115934645 0.7661954353 1.186513041e-38
0.41541904 0.03115934645 0.7661954353 1.214133615e-38
0.41698667 0.03115934645 0.7661954353 1.159102102e-38
0.41855428 0.03115934645 0.7661954353 1.104037097e-38
0.41808003 0.03515928645 0.7655859053 1.113292954e-38
0.42168954 0.03115934645 0.7661954353 1.122477765e-38
0.42428574 0.02915930645 0.7665001953 1.11333149e-38
0.42482477 0.03115934645 0.7661954353 1.113365962e-38
0.42639238 0.03115934645 0.7661954353 1.131767673e-38
0.42796001 0.03115934645 0.7661954353 1.150062465e-38
0.42952761 0.03115934645 0.7661954353 1.140842622e-38
0.038514286 0.1801593364 0.7447744753 1.204877197e-38
0.039798096 0.1801593364 0.7447744753 1.176862018e-38
0.041081905 0.1801593364 0.7447744753 1.167716304e-38
0.042365715 0.1801593364 0.7447744753 1.16778819e-38
0.043649524 0.1801593364 0.7447744753 1.167860217e-38
0.044933334 0.1801593364 0.7447744753 1.177114252e-38
0.046217144 0.1801593364 0.7447744753 1.177400117e-38
0.047360003 0.1821593064 0.7444659153 1.186582966e-38
0.048640002 0.1821593064 0.7444659153 1.177327109e-38
0.049920004 0.1821593064 0.7444659153 1.177255503e-38
0.051200002 0.1821593064 0.7444659153 1.186331713e-38
0.052480005 0.1821593064 0.7444659153 1.204522389e-38
0.053920001 0.1801593364 0.7447744753 1.23218374e-38
0.05520381 0.1801593364 0.7447744753 1.250655937e-38
0.056487624 0.1801593364 0.7447744753 1.241685244e-38
0.057857141 0.1791593464 0.7449287553 1.223389611e-38
0.059142858 0.1791593464 0.7449287553 1.250868233e-38
0.060428571 0.1791593464 0.7449287553 1.278310982e-38
0.061805718 0.1781592964 0.7450830553 1.250760053e-38
0.063093342 0.1781592964 0.7450830553 1.223388771e-38
0.064380959 0.1781592964 0.7450830553 1.214241094e-38
0.065668575 0.1781592964 0.7450830553 1.214456193e-38
0.066857144 0.1791593464 0.7449287553 1.232823293e-38
0.068142861 0.1791593464 0.7449287553 1.251225985e-38
0.069531433 0.1781592964 0.7450830553 1.260301635e-38
0.070819058 0.1781592964 0.7450830553 1.278383289e-38
0.072106674 0.1781592964 0.7450830553 1.278492591e-38
0.073611438 0.1761593264 0.7453916253 1.287782499e-38
0.074902862 0.1761593264 0.7453916253 1.278454195e-38
0.076194286 0.1761593264 0.7453916253 1.278669154e-38
0.077600002 0.1751593364 0.7455459053 1.278633141e-38
0.078893334 0.1751593364 0.7455459053 1.278633001e-38
0.080186665 0.1751593364 0.7455459053 1.269413438e-38
0.081479996 0.1751593364 0.7455459053 1.269412597e-38
0.082895242 0.1741593464 0.7457001953 1.241896981e-38
0.08419048 0.1741593464 0.7457001953 1.223602469e-38
0.085485712 0.1741593464 0.7457001953 1.22349569e-38
0.08678095 0.1741593464 0.7457001953 1.223281011e-38
0.088335246 0.1721593164 0.7460087753 1.250975853e-38
0.089634292 0.1721593164 0.7460087753 1.269414839e-38
0.091066666 0.1711593264 0.7461630553 1.269343373e-38
0.092367627 0.1711593264 0.7461630553 1.269307219e-38
0.093805715 0.1701593364 0.7463173253 1.269486445e-38
0.095108569 0.1701593364 0.7463173253 1.260446108e-38
0.096693337 0.1681593064 0.7466259153 1.251154659e-38
0.098142862 0.1671593164 0.7467801953 1.241899223e-38
0.099740952 0.1651593464 0.7470887653 1.232715533e-38
0.10120001 0.1641592964 0.7472430553 1.223567576e-38
0.10266286 0.1631593164 0.7473973453 1.205164464e-38
0.10428 0.1611593364 0.7477059053 1.19594448e-38
0.10560001 0.1611593364 0.7477059053 1.17768458e-38
0.10692 0.1611593364 0.7477059053 1.159353915e-38
0.10839619 0.1601593464 0.7478601853 1.122154065e-38
0.1097181 0.1601593464 0.7478601853 1.085168053e-38
0.1112 0.1591593064 0.7480144853 1.076378549e-38
0.11252382 0.1591593064 0.7480144853 1.076773995e-38
0.11417524 0.1571593264 0.7483230453 1.159390909e-38
0.11550286 0.1571593264 0.7483230453 1.232824414e-38
0.11683048 0.1571593264 0.7483230453 1.26034031e-38
0.11832762 0.1561593464 0.7484773353 1.297038495e-38
0.11965714 0.1561593464 0.7484773353 1.32476837e-38
0.12098667 0.1561593464 0.7484773353 1.352461952e-38
0.1223162 0.1561593464 0.7484773353 1.389267336e-38
0.12400001 0.1541593064 0.7487859153 1.435220817e-38
0.12533334 0.1541593064 0.7487859153 1.416817845e-38
0.12684762 0.1531593264 0.7489401953 1.407634435e-38
0.12818287 0.1531593264 0.7489401953 1.398415293e-38
0.12988763 0.1511593464 0.7492487653 1.398414732e-38
0.13122666 0.1511593464 0.7492487653 1.380047072e-38
0.1327543 0.1501592964 0.7494030553 1.370897855e-38
0.13409525 0.1501592964 0.7494030553 1.389263412e-38
0.13562857 0.1491593164 0.7495573453 1.416815463e-38
0.13735999 0.1471593364 0.7498659053 1.370899116e-38
0.13929525 0.1441593164 0.7503287653 1.32498361e-38
0.14064762 0.1441593164 0.7503287653 1.343388965e-38
0.142 0.1441593164 0.7503287653 1.370972404e-38
0.1435543 0.1431593264 0.7504830553 1.361749898e-38
0.14490858 0.1431593264 0.7504830553 1.361931086e-38
0.14667429 0.1411592964 0.7507916253 1.361897174e-38
0.14824 0.1401593064 0.7509459153 1.361897455e-38
0.14960001 0.1401593064 0.7509459153 1.389484397e-38
0.15096001 0.1401593064 0.7509459153 1.4169633e-38
0.15274666 0.1381593364 0.7512544753 1.416891553e-38
0.15411048 0.1381593364 0.7512544753 1.41685582e-38
0.15547429 0.1381593364 0.7512544753 1.398524874e-38
0.1568381 0.1381593364 0.7512544753 1.38019547e-38
0.15842284 0.1371593464 0.7514087553 1.371013882e-38
0.15978856 0.1371593464 0.7514087553 1.361828231e-38
0.16160381 0.1351593164 0.7517173353 1.352678452e-38
0.16297334 0.1351593164 0.7517173353 1.343530215e-38
0.16434287 0.1351593164 0.7517173353 1.343529655e-38
0.1657124 0.1351593164 0.7517173353 1.343530356e-38
0.16708191 0.1351593164 0.7517173353 1.380301128e-38
0.16845143 0.1351593164 0.7517173353 1.417107213e-38
0.16982096 0.1351593164 0.7517173353 1.389485098e-38
0.17119049 0.1351593164 0.7517173353 1.371081705e-38
0.17256001 0.1351593164 0.7517173353 1.352714326e-38
0.17417143 0.1341593264 0.7518716253 1.334346526e-38
0.17554286 0.1341593264 0.7518716253 1.352748797e-38
0.17691429 0.1341593264 0.7518716253 1.380297344e-38
0.17878097 0.1321592964 0.7521801953 1.389335299e-38
0.1801562 0.1321592964 0.7521801953 1.398376477e-38
0.18153144 0.1321592964 0.7521801953 1.398592977e-38
0.18316001 0.1311593064 0.7523344853 1.407991907e-38
0.18453714 0.1311593064 0.7523344853 1.380441538e-38
0.18591429 0.1311593064 0.7523344853 1.362109051e-38
0.18780953 0.1291593364 0.7526430553 1.352960113e-38
0.18919048 0.1291593364 0.7526430553 1.343813558e-38
0.19083428 0.1281593464 0.7527973353 1.362002412e-38
0.19221714 0.1281593464 0.7527973353 1.380118258e-38
0.1936 0.1281593464 0.7527973353 1.361679413e-38
0.19498287 0.1281593464 0.7527973353 1.352387122e-38
0.19690667 0.1261593164 0.7531059153 1.334090649e-38
0.19829334 0.1261593164 0.7531059153 1.324549067e-38
0.1999543 0.1251593264 0.7532601953 1.306218682e-38
0.20189524 0.1231593464 0.7535687653 1.297106599e-38
0.2041219 0.1201593264 0.7540316253 1.260228767e-38
0.20692 0.1151593364 0.7548030453 1.223315202e-38
0.20860954 0.1141593464 0.7549573353 1.186581144e-38
0.21001905 0.1141593464 0.7549573353 1.149845965e-38
0.212 0.1121593164 0.7552659153 1.149845124e-38
0.21370097 0.1111593264 0.7554201953 1.149847786e-38
0.21569526 0.1091592964 0.7557287653 1.149814576e-38
0.2171143 0.1091592964 0.7557287653 1.149777021e-38
0.21912001 0.1071593164 0.7560373453 1.149990579e-38
0.22054286 0.1071593164 0.7560373453 1.159281608e-38
0.22196572 0.1071593164 0.7560373453 1.159209861e-38
0.22368762 0.1061593264 0.7561916253 1.159173848e-38
0.22511239 0.1061593264 0.7561916253 1.168536764e-38
0.22714287 0.1041592964 0.7565001953 1.177756187e-38
0.22918096 0.1021593264 0.7568087653 1.168644384e-38
0.23061334 0.1021593264 0.7568087653 1.159534262e-38
0.23204572 0.1021593264 0.7568087653 1.168647887e-38
0.2334781 0.1021593264 0.7568087653 1.177793741e-38
0.23522286 0.1011593364 0.7569630453 1.16860851e-38
0.23665714 0.1011593364 0.7569630453 1.168644944e-38
0.23809142 0.1011593364 0.7569630453 1.168645505e-38
0.23952572 0.1011593364 0.7569630453 1.177865488e-38
0.24096 0.1011593364 0.7569630453 1.177902062e-38
0.24239428 0.1011593364 0.7569630453 1.187156938e-38
0.2448 0.09815931645 0.7574259153 1.187084911e-38
0.24689142 0.09615933645 0.7577344753 1.196232727e-38
0.24899048 0.09415930645 0.7580430553 1.205416417e-38
0.25043812 0.09415930645 0.7580430553 1.223818969e-38
0.25188571 0.09415930645 0.7580430553 1.214634999e-38
0.25333336 0.09415930645 0.7580430553 1.205487743e-38
0.25478098 0.09415930645 0.7580430553 1.20577529e-38
0.25656572 0.09315931645 0.7581973353 1.214960241e-38
0.25801525 0.09315931645 0.7581973353 1.224073585e-38
0.26014665 0.09115934645 0.7585059053 1.233183987e-38
0.26159999 0.09115934645 0.7585059053 1.242366135e-38
0.26374286 0.08915930645 0.7588144853 1.251550385e-38
0.26520002 0.08915930645 0.7588144853 1.251551086e-38
0.26665717 0.08915930645 0.7588144853 1.260733935e-38
0.2681143 0.08915930645 0.7588144853 1.242402149e-38
0.27027619 0.08715933645 0.7591230553 1.22381967e-38
0.27173716 0.08715933645 0.7591230553 1.214707727e-38
0.27355427 0.08615934645 0.7592773353 1.214815767e-38
0.27501714 0.08615934645 0.7592773353 1.223999877e-38
0.27648002 0.08615934645 0.7592773353 1.242402149e-38
0.27794284 0.08615934645 0.7592773353 1.26091204e-38
0.27940571 0.08615934645 0.7592773353 1.270061398e-38
0.28086856 0.08615934645 0.7592773353 1.269991333e-38
0.28306666 0.08415931645 0.7595859153 1.269811406e-38
0.28564191 0.08115929645 0.7600487753 1.26066317e-38
0.28711432 0.08115929645 0.7600487753 1.251551787e-38
0.28858668 0.08115929645 0.7600487753 1.27903111e-38
0.29005906 0.08115929645 0.7600487753 1.315729014e-38
0.29228574 0.07915931645 0.7603573353 1.297469255e-38
0.29376191 0.07915931645 0.7603573353 1.288284584e-38
0.29523808 0.07915931645 0.7603573353 1.27927928e-38
0.29747999 0.07715934645 0.7606659053 1.279315153e-38
0.29972953 0.07515931645 0.7609744853 1.27927928e-38
0.30121335 0.07515931645 0.7609744853 1.279136627e-38
0.30269718 0.07515931645 0.7609744853 1.288356891e-38
0.30457145 0.07415932645 0.7611287753 1.297613028e-38
0.30605716 0.07415932645 0.7611287753 1.269991613e-38
0.30833143 0.07215929645 0.7614373453 1.242404251e-38
0.30982095 0.07215929645 0.7614373453 1.251551086e-38
0.3113105 0.07215929645 0.7614373453 1.260699183e-38
0.31360003 0.07015931645 0.7617459053 1.278959223e-38
0.31509334 0.07015931645 0.7617459053 1.297217301e-38
0.31739429 0.06815934645 0.7620544753 1.269808884e-38
0.31889144 0.06815934645 0.7620544753 1.242364173e-38
0.32120383 0.06615930645 0.7623630453 1.242362492e-38
0.32270479 0.06615930645 0.7623630453 1.25140381e-38
0.32420573 0.06615930645 0.7623630453 1.269700424e-38
0.32612002 0.06515932645 0.7625173453 1.28803221e-38
0.32762289 0.06515932645 0.7625173453 1.269845038e-38
0.32996002 0.06315934645 0.7628259053 1.260732674e-38
0.33146667 0.06315934645 0.7628259053 1.260732254e-38
0.33297333 0.06315934645 0.7628259053 1.260731833e-38
0.33532572 0.06115931645 0.7631344853 1.288282202e-38
0.33683619 0.06115931645 0.7631344853 1.315652784e-38
0.33919999 0.05915933645 0.7634430553 1.288065561e-38
0.34071428 0.05915933645 0.7634430553 1.269592103e-38
0.34222856 0.05915933645 0.7634430553 1.269521618e-38
0.34460762 0.05715930645 0.7637516253 1.278489087e-38
0.34612575 0.05715930645 0.7637516253 1.250973611e-38
0.34764382 0.05715930645 0.7637516253 1.232641404e-38
0.34960002 0.05615931645 0.7639059053 1.241967606e-38
0.35112002 0.05615931645 0.7639059053 1.260407152e-38
0.35352382 0.05415934645 0.7642144853 1.232821331e-38
0.35593525 0.05215930645 0.7645230553 1.20523565e-38
0.35746288 0.05215930645 0.7645230553 1.186905404e-38
0.35899049 0.05215930645 0.7645230553 1.168574599e-38
0.3605181 0.05215930645 0.7645230553 1.177650949e-38
0.36294857 0.05015933645 0.7648316153 1.177901361e-38
0.36448002 0.05015933645 0.7648316153 1.177936674e-38
0.36783236 0.04615932645 0.7654487753 1.177972968e-38
0.36937144 0.04615932645 0.7654487753 1.177650669e-38
0.3709105 0.04615932645 0.7654487753 1.177795843e-38
0.37337145 0.04415929645 0.7657573453 1.205348174e-38
0.37491432 0.04415929645 0.7657573453 1.232932734e-38
0.37645715 0.04415929645 0.7657573453 1.205129151e-38
0.37800002 0.04415929645 0.7657573453 1.186799326e-38
0.38048002 0.04215931645 0.7660659153 1.168362022e-38
0.38202667 0.04215931645 0.7660659153 1.15939175e-38
0.38357335 0.04215931645 0.7660659153 1.150242252e-38
0.38606858 0.04015934645 0.7663744753 1.141129328e-38
0.38809526 0.03915929645 0.7665287753 1.168427883e-38
0.38964766 0.03915929645 0.7665287753 1.204839783e-38
0.39120004 0.03915929645 0.7665287753 1.168285651e-38
0.39371619 0.03715932645 0.7668373353 1.131587886e-38
0.39527237 0.03715932645 0.7668373353 1.140771997e-38
0.39682859 0.03715932645 0.7668373353 1.159176791e-38
0.39936003 0.03515928645 0.7671459153 1.149923456e-38
0.40092003 0.03515928645 0.7671459153 1.140703053e-38
0.40248004 0.03515928645 0.7671459153 1.140702072e-38
0.40502667 0.03315931645 0.7674544753 1.149886182e-38
0.40659049 0.03315931645 0.7674544753 1.149922616e-38
0.40815428 0.03315931645 0.7674544753 1.158925678e-38
0.40872002 0.03515928645 0.7671459153 1.158996444e-38
0.41028002 0.03515928645 0.7671459153 1.158888684e-38
0.41184002 0.03515928645 0.7671459153 1.168072233e-38
0.41440955 0.03315931645 0.7674544753 1.186474505e-38
0.41597337 0.03315931645 0.7674544753 1.140771436e-38
0.41753718 0.03315931645 0.7674544753 1.104181291e-38
0.41910097 0.03315931645 0.7674544753 1.131660894e-38
0.42168954 0.03115934645 0.7677630553 1.159212944e-38
0.42325714 0.03115934645 0.7677630553 1.140847386e-38
0.42482477 0.03115934645 0.7677630553 1.122514339e-38
0.42639238 0.03115934645 0.7677630553 1.140879756e-38
0.42796001 0.03115934645 0.7677630553 1.150097918e-38
0.42952761 0.03115934645 0.7677630553 1.16839215e-38
0.038514286 0.1801593364 0.7460582853 1.09442405e-38
0.039798096 0.1801593364 0.7460582853 1.140235439e-38
0.040960003 0.1821593064 0.7457459153 1.149563743e-38
0.042365715 0.1801593364 0.7460582853 1.167859096e-38
0.043520004 0.1821593064 0.7457459153 1.177150265e-38
0.044800006 0.1821593064 0.7457459153 1.186440314e-38
0.046080001 0.1821593064 0.7457459153 1.186582545e-38
0.047360003 0.1821593064 0.7457459153 1.195694208e-38
0.048640002 0.1821593064 0.7457459153 1.186474505e-38
0.049920004 0.1821593064 0.7457459153 1.177148163e-38
0.051200002 0.1821593064 0.7457459153 1.186224794e-38
0.052480005 0.1821593064 0.7457459153 1.204521828e-38
0.053920001 0.1801593364 0.7460582853 1.20452351e-38
0.05520381 0.1801593364 0.7460582853 1.213812857e-38
0.056487624 0.1801593364 0.7460582853 1.214134035e-38
0.057857141 0.1791593464 0.7462144853 1.214098162e-38
0.059142858 0.1791593464 0.7462144853 1.250796487e-38
0.060428571 0.1791593464 0.7462144853 1.296677801e-38
0.061714288 0.1791593464 0.7462144853 1.24154021e-38
0.063000001 0.1791593464 0.7462144853 1.186546952e-38
0.06428571 0.1791593464 0.7462144853 1.186762752e-38
0.065571427 0.1791593464 0.7462144853 1.195946302e-38
0.066857144 0.1791593464 0.7462144853 1.214313541e-38
0.068142861 0.1791593464 0.7462144853 1.241827896e-38
0.069428571 0.1791593464 0.7462144853 1.250975293e-38
0.070819058 0.1781592964 0.7463706653 1.260088077e-38
0.072106674 0.1781592964 0.7463706653 1.260053044e-38
0.073394291 0.1781592964 0.7463706653 1.260052063e-38
0.074902862 0.1761593264 0.7466830553 1.260087096e-38
0.076194286 0.1761593264 0.7466830553 1.260195136e-38
0.077600002 0.1751593364 0.7468392453 1.260267303e-38
0.078893334 0.1751593364 0.7468392453 1.269414138e-38
0.080186665 0.1751593364 0.7468392453 1.260229608e-38
0.081479996 0.1751593364 0.7468392453 1.251045638e-38
0.082895242 0.1741593464 0.7469954253 1.223494569e-38
0.08419048 0.1741593464 0.7469954253 1.205091876e-38
0.085485712 0.1741593464 0.7469954253 1.195908607e-38
0.08678095 0.1741593464 0.7469954253 1.195765955e-38
0.088335246 0.1721593164 0.7473078153 1.214205781e-38
0.089634292 0.1721593164 0.7473078153 1.241828597e-38
0.091066666 0.1711593264 0.7474640053 1.232753088e-38
0.092367627 0.1711593264 0.7474640053 1.232681061e-38
0.093805715 0.1701593364 0.7476201853 1.223461498e-38
0.095386669 0.1681593064 0.7479325753 1.214313822e-38
0.096693337 0.1681593064 0.7479325753 1.195982455e-38
0.098142862 0.1671593164 0.7480887653 1.186690726e-38
0.099740952 0.1651593464 0.7484011453 1.177327249e-38
0.10120001 0.1641592964 0.7485573453 1.168430125e-38
0.10266286 0.1631593164 0.7487135253 1.149918972e-38
0.10428 0.1611593364 0.7490259053 1.140914368e-38
0.10560001 0.1611593364 0.7490259053 1.067445411e-38
0.10692 0.1611593364 0.7490259053 1.003089798e-38
0.10839619 0.1601593464 0.7491820953 9.566709457e-39
0.1098762 0.1591593064 0.7493382953 9.104649506e-39
0.1112 0.1591593064 0.7493382953 8.917379979e-39
0.11284763 0.1571593264 0.7496506753 8.739820049e-39
0.11417524 0.1571593264 0.7496506753 1.049080694e-38
0.11550286 0.1571593264 0.7496506753 1.223640584e-38
0.11683048 0.1571593264 0.7496506753 1.251227807e-38
0.11832762 0.1561593464 0.7498068553 1.278850482e-38
0.11965714 0.1561593464 0.7498068553 1.306473158e-38
0.12098667 0.1561593464 0.7498068553 1.33405996e-38
0.1223162 0.1561593464 0.7498068553 1.361790115e-38
0.12400001 0.1541593064 0.7501192453 1.38930433e-38
0.12533334 0.1541593064 0.7501192453 1.398559206e-38
0.12684762 0.1531593264 0.7502754353 1.407671149e-38
0.12818287 0.1531593264 0.7502754353 1.398416134e-38
0.12988763 0.1511593464 0.7505878053 1.398415433e-38
0.13122666 0.1511593464 0.7505878053 1.398414872e-38
0.13256571 0.1511593464 0.7505878053 1.398377738e-38
0.13409525 0.1501592964 0.7507440053 1.398340604e-38
0.13543619 0.1501592964 0.7507440053 1.398269838e-38
0.13735999 0.1471593364 0.7512125753 1.370648424e-38
0.13890286 0.1461593564 0.7513687653 1.343099316e-38
0.14064762 0.1441593164 0.7516811453 1.36150383e-38
0.142 0.1441593164 0.7516811453 1.380084067e-38
0.1435543 0.1431593264 0.7518373353 1.371006035e-38
0.14490858 0.1431593264 0.7518373353 1.371114916e-38
0.14667429 0.1411592964 0.7521497153 1.361932627e-38
0.14824 0.1401593064 0.7523059153 1.361932767e-38
0.14960001 0.1401593064 0.7523059153 1.38951957e-38
0.15096001 0.1401593064 0.7523059153 1.426146429e-38
0.15274666 0.1381593364 0.7526182853 1.435258652e-38
0.15411048 0.1381593364 0.7526182853 1.453661625e-38
0.15547429 0.1381593364 0.7526182853 1.426182722e-38
0.1568381 0.1381593364 0.7526182853 1.398597321e-38
0.15842284 0.1371593464 0.7527744753 1.389343146e-38
0.15978856 0.1371593464 0.7527744753 1.380158195e-38
0.16115429 0.1371593464 0.7527744753 1.361753682e-38
0.16251999 0.1371593464 0.7527744753 1.352569011e-38
0.16434287 0.1351593164 0.7530868653 1.334200791e-38
0.1657124 0.1351593164 0.7530868653 1.3159074e-38
0.16708191 0.1351593164 0.7530868653 1.380373575e-38
0.16845143 0.1351593164 0.7530868653 1.444657862e-38
0.16982096 0.1351593164 0.7530868653 1.398739553e-38
0.17119049 0.1351593164 0.7530868653 1.361897595e-38
0.17256001 0.1351593164 0.7530868653 1.334382679e-38
0.17417143 0.1341593264 0.7532430453 1.30683189e-38
0.17554286 0.1341593264 0.7532430453 1.334418132e-38
0.17691429 0.1341593264 0.7532430453 1.37104401e-38
0.17878097 0.1321592964 0.7535554453 1.380154972e-38
0.1801562 0.1321592964 0.7535554453 1.389230622e-38
0.18153144 0.1321592964 0.7535554453 1.380297905e-38
0.18290669 0.1321592964 0.7535554453 1.371186382e-38
0.18453714 0.1311593064 0.7537116253 1.35289145e-38
0.18591429 0.1311593064 0.7537116253 1.343742792e-38
0.18729143 0.1311593064 0.7537116253 1.352997248e-38
0.18919048 0.1291593364 0.7540240053 1.362073458e-38
0.19057143 0.1291593364 0.7540240053 1.380333358e-38
0.19221714 0.1281593464 0.7541801953 1.398449625e-38
0.1936 0.1281593464 0.7541801953 1.370791776e-38
0.19498287 0.1281593464 0.7541801953 1.352423836e-38
0.19690667 0.1261593164 0.7544925753 1.334055896e-38
0.19829334 0.1261593164 0.7544925753 1.315365938e-38
0.1999543 0.1251593264 0.7546487653 1.296891219e-38
0.20189524 0.1231593464 0.7549611453 1.278667613e-38
0.20356573 0.1221593064 0.7551173453 1.232749865e-38
0.20692 0.1151593364 0.7562106753 1.186437511e-38
0.20860954 0.1141593464 0.7563668553 1.149739186e-38
0.21001905 0.1141593464 0.7563668553 1.11293254e-38
0.212 0.1121593164 0.7566792353 1.112896106e-38
0.21370097 0.1111593264 0.7568354353 1.122081338e-38
0.21627429 0.1071593164 0.7574601953 1.122118892e-38
0.21769716 0.1071593164 0.7574601953 1.131409221e-38
0.21912001 0.1071593164 0.7574601953 1.131516e-38
0.22054286 0.1071593164 0.7574601953 1.140771296e-38
0.22196572 0.1071593164 0.7574601953 1.140843042e-38
0.22368762 0.1061593264 0.7576163853 1.149954705e-38
0.2257143 0.1041592964 0.7579287653 1.150169945e-38
0.22714287 0.1041592964 0.7579287653 1.150098058e-38
0.22918096 0.1021593264 0.7582411453 1.140842762e-38
0.23061334 0.1021593264 0.7582411453 1.140951223e-38
0.23204572 0.1021593264 0.7582411453 1.150279106e-38
0.2334781 0.1021593264 0.7582411453 1.159426222e-38
0.23522286 0.1011593364 0.7583973353 1.159425661e-38
0.23665714 0.1011593364 0.7583973353 1.159497688e-38
0.23809142 0.1011593364 0.7583973353 1.159569715e-38
0.23952572 0.1011593364 0.7583973353 1.159534122e-38
0.24096 0.1011593364 0.7583973353 1.159534402e-38
0.24239428 0.1011593364 0.7583973353 1.168718372e-38
0.2448 0.09815931645 0.7588659153 1.177938215e-38
0.24689142 0.09615933645 0.7591782953 1.187014145e-38
0.24899048 0.09415930645 0.7594906753 1.196197695e-38
0.25043812 0.09415930645 0.7594906753 1.20534397e-38
0.25221714 0.09315931645 0.7596468653 1.186939736e-38
0.25333336 0.09415930645 0.7594906753 1.168789138e-38
0.25478098 0.09415930645 0.7594906753 1.178189188e-38
0.25656572 0.09315931645 0.7596468653 1.187301972e-38
0.25801525 0.09315931645 0.7596468653 1.18726708e-38
0.26014665 0.09115934645 0.7599592353 1.196449788e-38
0.26159999 0.09115934645 0.7599592353 1.21485192e-38
0.26305333 0.09115934645 0.7599592353 1.23311154e-38
0.26520002 0.08915930645 0.7602716253 1.242582215e-38
0.26665717 0.08915930645 0.7602716253 1.251621431e-38
0.2681143 0.08915930645 0.7602716253 1.233181745e-38
0.26957145 0.08915930645 0.7602716253 1.214707306e-38
0.27173716 0.08715933645 0.7605839953 1.196412234e-38
0.27355427 0.08615934645 0.7607401953 1.187228824e-38
0.27501714 0.08615934645 0.7607401953 1.196520134e-38
0.27648002 0.08615934645 0.7607401953 1.2148515e-38
0.27794284 0.08615934645 0.7607401953 1.224178682e-38
0.27940571 0.08615934645 0.7607401953 1.242474876e-38
0.28086856 0.08615934645 0.7607401953 1.24240411e-38
0.28306666 0.08415931645 0.7610525753 1.242367677e-38
0.28564191 0.08115929645 0.7615211553 1.233147833e-38
0.28711432 0.08115929645 0.7615211553 1.233184127e-38
0.28858668 0.08115929645 0.7615211553 1.251551787e-38
0.29005906 0.08115929645 0.7615211553 1.269918466e-38
0.29228574 0.07915931645 0.7618335253 1.269953918e-38
0.29376191 0.07915931645 0.7618335253 1.269917345e-38
0.29523808 0.07915931645 0.7618335253 1.270060277e-38
0.29671431 0.07915931645 0.7618335253 1.279243687e-38
0.29896 0.07715934645 0.7621459053 1.260876447e-38
0.30044001 0.07715934645 0.7621459053 1.251621712e-38
0.30269718 0.07515931645 0.7624582853 1.260698202e-38
0.30418095 0.07515931645 0.7624582853 1.279030129e-38
0.30605716 0.07415932645 0.7626144853 1.233113081e-38
0.30754286 0.07415932645 0.7626144853 1.196414055e-38
0.30982095 0.07215929645 0.7629268753 1.22403575e-38
0.3113105 0.07215929645 0.7629268753 1.251479059e-38
0.31280002 0.07215929645 0.7629268753 1.251299973e-38
0.31509334 0.07015931645 0.7632392453 1.251370599e-38
0.31658667 0.07015931645 0.7632392453 1.233110138e-38
0.31808001 0.07015931645 0.7632392453 1.223961902e-38
0.32038859 0.06815934645 0.7635516253 1.223961341e-38
0.32270479 0.06615930645 0.7638640053 1.223926869e-38
0.32420573 0.06615930645 0.7638640053 1.224179523e-38
0.32570669 0.06615930645 0.7638640053 1.233255453e-38
0.32762289 0.06515932645 0.7640201953 1.242367256e-38
0.3291257 0.06515932645 0.7640201953 1.260733655e-38
0.33062857 0.06515932645 0.7640201953 1.260589601e-38
0.33213145 0.06515932645 0.7640201953 1.260696661e-38
0.33448002 0.06315934645 0.7643325753 1.297537918e-38
0.33598667 0.06315934645 0.7643325753 1.333877791e-38
0.33834666 0.06115931645 0.7646449553 1.29721562e-38
0.33985713 0.06115931645 0.7646449553 1.260409675e-38
0.34222856 0.05915933645 0.7649573353 1.278633281e-38
0.34374285 0.05915933645 0.7649573353 1.296856607e-38
0.34525716 0.05915933645 0.7649573353 1.260086255e-38
0.34764382 0.05715930645 0.7652697253 1.232751126e-38
0.34916192 0.05715930645 0.7652697253 1.260409815e-38
0.35112002 0.05615931645 0.7654259153 1.287960183e-38
0.35352382 0.05415934645 0.7657382853 1.251225845e-38
0.35504764 0.05415934645 0.7657382853 1.223712751e-38
0.35746288 0.05215930645 0.7660506853 1.205383206e-38
0.35899049 0.05215930645 0.7660506853 1.186871633e-38
0.3605181 0.05215930645 0.7660506853 1.186870652e-38
0.36294857 0.05015933645 0.7663630453 1.186977571e-38
0.36448002 0.05015933645 0.7663630453 1.214563393e-38
0.36601144 0.05015933645 0.7663630453 1.242006702e-38
0.36845717 0.04815930645 0.7666754253 1.205201037e-38
0.36999241 0.04815930645 0.7666754253 1.177615636e-38
0.37244955 0.04615932645 0.7669878153 1.186800307e-38
0.3739886 0.04615932645 0.7669878153 1.196017768e-38
0.37552762 0.04615932645 0.7669878153 1.18686827e-38
0.37800002 0.04415929645 0.7673002053 1.186726178e-38
0.37954286 0.04415929645 0.7673002053 1.168324747e-38
0.38108575 0.04415929645 0.7673002053 1.159211403e-38
0.38357335 0.04215931645 0.7676125653 1.168465298e-38
0.38512 0.04215931645 0.7676125653 1.17757654e-38
0.38809526 0.03915929645 0.7680811453 1.168356557e-38
0.38964766 0.03915929645 0.7680811453 1.168356837e-38
0.39120004 0.03915929645 0.7680811453 1.140806469e-38
0.39371619 0.03715932645 0.7683935353 1.122404057e-38
0.39527237 0.03715932645 0.7683935353 1.131695927e-38
0.39780003 0.03515928645 0.7687059053 1.150028414e-38
0.39936003 0.03515928645 0.7687059053 1.150029675e-38
0.40092003 0.03515928645 0.7687059053 1.149993521e-38
0.40248004 0.03515928645 0.7687059053 1.149957508e-38
0.40404004 0.03515928645 0.7687059053 1.149849748e-38
0.40659049 0.03315931645 0.7690182953 1.131518522e-38
0.40815428 0.03315931645 0.7690182953 1.113151003e-38
0.40872002 0.03515928645 0.7687059053 1.131553695e-38
0.41028002 0.03515928645 0.7687059053 1.1498845e-38
0.41385144 0.03115934645 0.7693306653 1.14988408e-38
0.41440955 0.03315931645 0.7690182953 1.158959449e-38
0.41597337 0.03315931645 0.7690182953 1.131623339e-38
0.41753718 0.03315931645 0.7690182953 1.113256801e-38
0.41910097 0.03315931645 0.7690182953 1.150027433e-38
0.42168954 0.03115934645 0.7693306653 1.195946162e-38
0.42325714 0.03115934645 0.7693306653 1.168396494e-38
0.42482477 0.03115934645 0.7693306653 1.140773118e-38
0.42639238 0.03115934645 0.7693306653 1.14988394e-38
0.42796001 0.03115934645 0.7693306653 1.159138255e-38
0.42952761 0.03115934645 0.7693306653 1.195943359e-38
0.03712 0.1821593064 0.7470259053 1.038786195e-38
0.038400002 0.1821593064 0.7470259053 1.075770665e-38
0.03968 0.1821593064 0.7470259053 1.103357748e-38
0.040960003 0.1821593064 0.7470259053 1.121797294e-38
0.042240005 0.1821593064 0.7470259053 1.140271733e-38
0.043520004 0.1821593064 0.7470259053 1.149526889e-38
0.044800006 0.1821593064 0.7470259053 1.159103783e-38
0.046080001 0.1821593064 0.7470259053 1.159066789e-38
0.047360003 0.1821593064 0.7470259053 1.168071112e-38
0.048640002 0.1821593064 0.7470259053 1.167999646e-38
0.049920004 0.1821593064 0.7470259053 1.158637851e-38
0.051200002 0.1821593064 0.7470259053 1.167786789e-38
0.052480005 0.1821593064 0.7470259053 1.176970619e-38
0.053760003 0.1821593064 0.7470259053 1.176971039e-38
0.055040002 0.1821593064 0.7470259053 1.186189341e-38
0.056487624 0.1801593364 0.7473420953 1.186259966e-38
0.057771433 0.1801593364 0.7473420953 1.177148444e-38
0.059055239 0.1801593364 0.7473420953 1.204699373e-38
0.060339049 0.1801593364 0.7473420953 1.223101644e-38
0.061714288 0.1791593464 0.7475001953 1.186402759e-38
0.063000001 0.1791593464 0.7475001953 1.149741148e-38
0.06428571 0.1791593464 0.7475001953 1.158925678e-38
0.065571427 0.1791593464 0.7475001953 1.168109368e-38
0.066857144 0.1791593464 0.7475001953 1.177293198e-38
0.068142861 0.1791593464 0.7475001953 1.19569575e-38
0.069428571 0.1791593464 0.7475001953 1.213990822e-38
0.070819058 0.1781592964 0.7476582953 1.232322188e-38
0.072106674 0.1781592964 0.7476582953 1.232501835e-38
0.073394291 0.1781592964 0.7476582953 1.232501134e-38
0.074902862 0.1761593264 0.7479744753 1.223352897e-38
0.076194286 0.1761593264 0.7479744753 1.223389892e-38
0.077600002 0.1751593364 0.7481325753 1.21417159e-38
0.078893334 0.1751593364 0.7481325753 1.214169908e-38
0.080186665 0.1751593364 0.7481325753 1.20502055e-38
0.081479996 0.1751593364 0.7481325753 1.195872734e-38
0.082895242 0.1741593464 0.7482906653 1.177505635e-38
0.08419048 0.1741593464 0.7482906653 1.159138255e-38
0.085485712 0.1741593464 0.7482906653 1.159030495e-38
0.08678095 0.1741593464 0.7482906653 1.158923996e-38
0.088335246 0.1721593164 0.7486068653 1.168108667e-38
0.08976572 0.1711593264 0.7487649553 1.177292777e-38
0.091200002 0.1701593364 0.7489230553 1.177293478e-38
0.092502862 0.1701593364 0.7489230553 1.177329211e-38
0.093805715 0.1701593364 0.7489230553 1.131518943e-38
0.095386669 0.1681593064 0.7492392453 1.094928377e-38
0.096693337 0.1681593064 0.7492392453 1.113295617e-38
0.098142862 0.1671593164 0.7493973353 1.140665918e-38
0.099740952 0.1651593464 0.7497135153 1.140772557e-38
0.10120001 0.1641592964 0.7498716253 1.140879196e-38
0.10266286 0.1631593164 0.7500297253 1.122547129e-38
0.10428 0.1611593364 0.7503459053 1.104251216e-38
0.10560001 0.1611593364 0.7503459053 1.049041878e-38
0.10707428 0.1601593464 0.7505040053 9.937626155e-39
0.10855239 0.1591593064 0.7506621053 9.197575212e-39
0.1098762 0.1591593064 0.7506621053 8.551481332e-39
0.11152001 0.1571593264 0.7509782853 8.642582548e-39
0.11284763 0.1571593264 0.7509782853 8.823400496e-39
0.11417524 0.1571593264 0.7509782853 9.933695512e-39
0.11566857 0.1561593464 0.7511363853 1.113437708e-38
0.11699809 0.1561593464 0.7511363853 1.205273625e-38
0.11832762 0.1561593464 0.7511363853 1.306472737e-38
0.11965714 0.1561593464 0.7511363853 1.315656988e-38
0.12098667 0.1561593464 0.7511363853 1.334025068e-38
0.1223162 0.1561593464 0.7511363853 1.352608387e-38
0.12400001 0.1541593064 0.7514525753 1.380122182e-38
0.12533334 0.1541593064 0.7514525753 1.398452427e-38
0.12684762 0.1531593264 0.7516106653 1.407456891e-38
0.12818287 0.1531593264 0.7516106653 1.407457171e-38
0.12951809 0.1531593264 0.7516106653 1.407133471e-38
0.13122666 0.1511593464 0.7519268553 1.39827208e-38
0.13256571 0.1511593464 0.7519268553 1.398306972e-38
0.13409525 0.1501592964 0.7520849553 1.398270118e-38
0.13543619 0.1501592964 0.7520849553 1.398234805e-38
0.13735999 0.1471593364 0.7525592353 1.379868267e-38
0.13890286 0.1461593564 0.7527173353 1.370685558e-38
0.14025143 0.1461593564 0.7527173353 1.398308794e-38
0.142 0.1441593164 0.7530335253 1.416782392e-38
0.14335239 0.1441593164 0.7530335253 1.398593538e-38
0.14490858 0.1431593264 0.7531916253 1.389589915e-38
0.14667429 0.1411592964 0.7535078153 1.352820404e-38
0.14803238 0.1411592964 0.7535078153 1.316086205e-38
0.14939049 0.1411592964 0.7535078153 1.37115177e-38
0.15096001 0.1401593064 0.7536659153 1.416998472e-38
0.15232 0.1401593064 0.7536659153 1.435402285e-38
0.15411048 0.1381593364 0.7539820953 1.462988527e-38
0.15547429 0.1381593364 0.7539820953 1.435401725e-38
0.1568381 0.1381593364 0.7539820953 1.417035046e-38
0.1582019 0.1381593364 0.7539820953 1.40778017e-38
0.15978856 0.1371593464 0.7541401953 1.389340484e-38
0.16115429 0.1371593464 0.7541401953 1.380156093e-38
0.16251999 0.1371593464 0.7541401953 1.370970722e-38
0.16388571 0.1371593464 0.7541401953 1.352601941e-38
0.1657124 0.1351593164 0.7544563853 1.334238065e-38
0.16708191 0.1351593164 0.7544563853 1.37111912e-38
0.16845143 0.1351593164 0.7544563853 1.41707134e-38
0.16982096 0.1351593164 0.7544563853 1.398667106e-38
0.17119049 0.1351593164 0.7544563853 1.380264134e-38
0.17256001 0.1351593164 0.7544563853 1.352641878e-38
0.17417143 0.1341593264 0.7546144853 1.334203313e-38
0.17554286 0.1341593264 0.7546144853 1.352498946e-38
0.17691429 0.1341593264 0.7546144853 1.361647183e-38
0.17828572 0.1341593264 0.7546144853 1.361683617e-38
0.1801562 0.1321592964 0.7549306753 1.352534119e-38
0.18153144 0.1321592964 0.7549306753 1.343528254e-38
0.18290669 0.1321592964 0.7549306753 1.343564547e-38
0.18428192 0.1321592964 0.7549306753 1.325197868e-38
0.18591429 0.1311593064 0.7550887653 1.316049631e-38
0.18729143 0.1311593064 0.7550887653 1.325196887e-38
0.18866859 0.1311593064 0.7550887653 1.334344003e-38
0.19057143 0.1291593364 0.7554049553 1.343419513e-38
0.19195238 0.1291593364 0.7554049553 1.361679833e-38
0.1936 0.1281593464 0.7555630453 1.343277701e-38
0.19498287 0.1281593464 0.7555630453 1.334057718e-38
0.19690667 0.1261593164 0.7558792453 1.315618312e-38
0.19856572 0.1251593264 0.7560373453 1.306182809e-38
0.20050286 0.1231593464 0.7563535253 1.269447769e-38
0.20217144 0.1221593064 0.7565116253 1.232713851e-38
0.2041219 0.1201593264 0.7568278153 1.186545271e-38
0.20692 0.1151593364 0.7576182853 1.13119272e-38
0.20860954 0.1141593464 0.7577763853 1.103641931e-38
0.21001905 0.1141593464 0.7577763853 1.066943186e-38
0.212 0.1121593164 0.7580925753 1.076162328e-38
0.21370097 0.1111593264 0.7582506753 1.085418325e-38
0.21627429 0.1071593164 0.7588830553 1.094638449e-38
0.21769716 0.1071593164 0.7588830553 1.103893745e-38
0.21912001 0.1071593164 0.7588830553 1.113149041e-38
0.22054286 0.1071593164 0.7588830553 1.122153364e-38
0.22285716 0.1041592964 0.7593573453 1.122261124e-38
0.22428572 0.1041592964 0.7593573453 1.131552153e-38
0.2257143 0.1041592964 0.7593573453 1.122260844e-38
0.22774859 0.1021593264 0.7596735353 1.122188957e-38
0.22918096 0.1021593264 0.7596735353 1.12233231e-38
0.23061334 0.1021593264 0.7596735353 1.113184494e-38
0.23204572 0.1021593264 0.7596735353 1.122655029e-38
0.2334781 0.1021593264 0.7596735353 1.140986956e-38
0.23522286 0.1011593364 0.7598316153 1.140844163e-38
0.23665714 0.1011593364 0.7598316153 1.14070067e-38
0.23809142 0.1011593364 0.7598316153 1.140844163e-38
0.23952572 0.1011593364 0.7598316153 1.131803967e-38
0.24096 0.1011593364 0.7598316153 1.140987376e-38
0.24239428 0.1011593364 0.7598316153 1.150172047e-38
0.2448 0.09815931645 0.7603059153 1.159392731e-38
0.24689142 0.09615933645 0.7606220953 1.168612014e-38
0.24899048 0.09415930645 0.7609382953 1.168611873e-38
0.25043812 0.09415930645 0.7609382953 1.177649688e-38
0.25221714 0.09315931645 0.7610963853 1.168571516e-38
0.25333336 0.09415930645 0.7609382953 1.168824591e-38
0.25478098 0.09415930645 0.7609382953 1.159643143e-38
0.25656572 0.09315931645 0.7610963853 1.159643703e-38
0.25801525 0.09315931645 0.7610963853 1.159644264e-38
0.26014665 0.09115934645 0.7614125753 1.168863266e-38
0.26159999 0.09115934645 0.7614125753 1.178010662e-38
0.26305333 0.09115934645 0.7614125753 1.196341468e-38
0.26520002 0.08915930645 0.7617287653 1.196448808e-38
0.26665717 0.08915930645 0.7617287653 1.205774729e-38
0.26741332 0.09115934645 0.7614125753 1.205522495e-38
0.26957145 0.08915930645 0.7617287653 1.196303773e-38
0.27102858 0.08915930645 0.7617287653 1.177973248e-38
0.2731981 0.08715933645 0.7620449553 1.159677755e-38
0.27465904 0.08715933645 0.7620449553 1.178116461e-38
0.27648002 0.08615934645 0.7622030453 1.187300851e-38
0.27794284 0.08615934645 0.7622030453 1.214780734e-38
0.27940571 0.08615934645 0.7622030453 1.251443326e-38
0.28086856 0.08615934645 0.7622030453 1.23311224e-38
0.28306666 0.08415931645 0.7625192453 1.214816467e-38
0.28527239 0.08215934645 0.7628354353 1.205632637e-38
0.28674287 0.08215934645 0.7628354353 1.205668931e-38
0.28858668 0.08115929645 0.7629935353 1.214781295e-38
0.29005906 0.08115929645 0.7629935353 1.233147974e-38
0.29228574 0.07915931645 0.7633097153 1.242331103e-38
0.29376191 0.07915931645 0.7633097153 1.251442626e-38
0.29523808 0.07915931645 0.7633097153 1.251442486e-38
0.29671431 0.07915931645 0.7633097153 1.251442205e-38
0.29819047 0.07915931645 0.7633097153 1.242437742e-38
0.29966667 0.07915931645 0.7633097153 1.242509768e-38
0.30192 0.07715934645 0.7636258953 1.269917345e-38
0.30418095 0.07515931645 0.7639421053 1.297289048e-38
0.30566478 0.07515931645 0.7639421053 1.251407733e-38
0.30714858 0.07515931645 0.7639421053 1.205489425e-38
0.30902857 0.07415932645 0.7641001953 1.214672414e-38
0.3105143 0.07415932645 0.7641001953 1.233075386e-38
0.31200001 0.07415932645 0.7641001953 1.242187189e-38
0.31428954 0.07215929645 0.7644163953 1.260625194e-38
0.31577906 0.07215929645 0.7644163953 1.233109718e-38
0.31808001 0.07015931645 0.7647325753 1.214779053e-38
0.31957334 0.07015931645 0.7647325753 1.214779613e-38
0.32188573 0.06815934645 0.7650487553 1.214853041e-38
0.32338285 0.06815934645 0.7650487553 1.214890596e-38
0.32570669 0.06615930645 0.7653649653 1.224145332e-38
0.32720762 0.06615930645 0.7653649653 1.242440264e-38
0.3291257 0.06515932645 0.7655230453 1.260734776e-38
0.33062857 0.06515932645 0.7655230453 1.251406893e-38
0.33213145 0.06515932645 0.7655230453 1.251477798e-38
0.33448002 0.06315934645 0.7658392353 1.26988007e-38
0.33683619 0.06115931645 0.7661554253 1.287817952e-38
0.33834666 0.06115931645 0.7661554253 1.251228647e-38
0.34071428 0.05915933645 0.7664716153 1.214528921e-38
0.34222856 0.05915933645 0.7664716153 1.241898942e-38
0.34374285 0.05915933645 0.7664716153 1.260122829e-38
0.34612575 0.05715930645 0.7667878153 1.232608334e-38
0.34764382 0.05715930645 0.7667878153 1.214493888e-38
0.34960002 0.05615931645 0.7669459053 1.223678979e-38
0.35112002 0.05615931645 0.7669459053 1.232933154e-38
0.35264 0.05615931645 0.7669459053 1.214529061e-38
0.35504764 0.05415934645 0.7672621053 1.205347894e-38
0.35746288 0.05215930645 0.7675782953 1.19609512e-38
0.35899049 0.05215930645 0.7675782953 1.186837442e-38
0.3605181 0.05215930645 0.7675782953 1.17765151e-38
0.36204571 0.05215930645 0.7675782953 1.177758289e-38
0.36448002 0.05015933645 0.7678944753 1.196017067e-38
0.36601144 0.05015933645 0.7678944753 1.21431256e-38
0.36845717 0.04815930645 0.7682106653 1.186833798e-38
0.36999241 0.04815930645 0.7682106653 1.168323766e-38
0.37244955 0.04615932645 0.7685268553 1.186763173e-38
0.3739886 0.04615932645 0.7685268553 1.19605238e-38
0.37645715 0.04415929645 0.7688430553 1.186795122e-38
0.37800002 0.04415929645 0.7688430553 1.168285931e-38
0.37954286 0.04415929645 0.7688430553 1.131625021e-38
0.38202667 0.04215931645 0.7691592453 1.104109264e-38
0.38357335 0.04215931645 0.7691592453 1.122475383e-38
0.38606858 0.04015934645 0.7694754353 1.150025891e-38
0.38761905 0.04015934645 0.7694754353 1.150061624e-38
0.38964766 0.03915929645 0.7696335353 1.15931678e-38
0.39120004 0.03915929645 0.7696335353 1.159209161e-38
0.39371619 0.03715932645 0.7699497253 1.159173988e-38
0.39527237 0.03715932645 0.7699497253 1.149991139e-38
0.39682859 0.03715932645 0.7699497253 1.150027713e-38
0.39838478 0.03715932645 0.7699497253 1.140880737e-38
0.40092003 0.03515928645 0.7702659053 1.131733481e-38
0.40248004 0.03515928645 0.7702659053 1.149957648e-38
0.40404004 0.03515928645 0.7702659053 1.159032877e-38
0.40560004 0.03515928645 0.7702659053 1.140665077e-38
0.40815428 0.03315931645 0.7705820953 1.122405878e-38
0.40872002 0.03515928645 0.7702659053 1.131553975e-38
0.41028002 0.03515928645 0.7702659053 1.1498845e-38
0.41284573 0.03315931645 0.7705820953 1.14070025e-38
0.41440955 0.03315931645 0.7705820953 1.140627803e-38
0.41597337 0.03315931645 0.7705820953 1.094924734e-38
0.41753718 0.03315931645 0.7705820953 1.049150899e-38
0.41910097 0.03315931645 0.7705820953 1.104180871e-38
0.42168954 0.03115934645 0.7708982853 1.150027433e-38
0.42325714 0.03115934645 0.7708982853 1.140736824e-38
0.42482477 0.03115934645 0.7708982853 1.140557178e-38
0.42639238 0.03115934645 0.7708982853 1.140557037e-38
0.42796001 0.03115934645 0.7708982853 1.14059221e-38
0.42952761 0.03115934645 0.7708982853 1.158958609e-38
0.037064761 0.1831593564 0.7481459053 1.029458592e-38
0.03834286 0.1831593564 0.7481459053 1.048220157e-38
0.039620955 0.1831593564 0.7481459053 1.07580766e-38
0.040899046 0.1831593564 0.7481459053 1.094211753e-38
0.042177141 0.1831593564 0.7481459053 1.121833308e-38
0.043455236 0.1831593564 0.7481459053 1.121904213e-38
0.044733334 0.1831593564 0.7481459053 1.131373768e-38
0.046080001 0.1821593064 0.7483059153 1.140771716e-38
0.047360003 0.1821593064 0.7483059153 1.149596534e-38
0.048640002 0.1821593064 0.7483059153 1.149524927e-38
0.049920004 0.1821593064 0.7483059153 1.149418989e-38
0.051123809 0.1831593564 0.7481459053 1.149349064e-38
0.052480005 0.1821593064 0.7483059153 1.14931235e-38
0.053760003 0.1821593064 0.7483059153 1.158459186e-38
0.055040002 0.1821593064 0.7483059153 1.167677768e-38
0.056320004 0.1821593064 0.7483059153 1.158529391e-38
0.057771433 0.1801593364 0.7486259053 1.149526328e-38
0.059055239 0.1801593364 0.7486259053 1.149635069e-38
0.060339049 0.1801593364 0.7486259053 1.158817498e-38
0.061714288 0.1791593464 0.7487859053 1.131265868e-38
0.063000001 0.1791593464 0.7487859053 1.112970655e-38
0.06428571 0.1791593464 0.7487859053 1.122226092e-38
0.065571427 0.1791593464 0.7487859053 1.140557738e-38
0.066857144 0.1791593464 0.7487859053 1.140522285e-38
0.068142861 0.1791593464 0.7487859053 1.149741568e-38
0.069428571 0.1791593464 0.7487859053 1.177292077e-38
0.070819058 0.1781592964 0.7489459053 1.213954669e-38
0.072106674 0.1781592964 0.7489459053 1.214170188e-38
0.073394291 0.1781592964 0.7489459053 1.214205922e-38
0.074902862 0.1761593264 0.7492659153 1.195874555e-38
0.076194286 0.1761593264 0.7492659153 1.186654992e-38
0.077600002 0.1751593364 0.7494259153 1.168287893e-38
0.078893334 0.1751593364 0.7494259153 1.159067069e-38
0.080186665 0.1751593364 0.7494259153 1.149846245e-38
0.081479996 0.1751593364 0.7494259153 1.140591089e-38
0.082773335 0.1751593364 0.7494259153 1.122152243e-38
0.08419048 0.1741593464 0.7495858953 1.112860934e-38
0.085485712 0.1741593464 0.7495858953 1.121972457e-38
0.08678095 0.1741593464 0.7495858953 1.13119286e-38
0.088335246 0.1721593164 0.7499059053 1.122046165e-38
0.08976572 0.1711593264 0.7500659153 1.122010292e-38
0.091200002 0.1701593364 0.7502259053 1.122010292e-38
0.092502862 0.1701593364 0.7502259053 1.122226092e-38
0.093805715 0.1701593364 0.7502259053 1.048793988e-38
0.095386669 0.1681593064 0.7505459153 9.756127175e-39
0.096693337 0.1681593064 0.7505459153 1.039790225e-38
0.098142862 0.1671593164 0.7507059153 1.104181571e-38
0.099740952 0.1651593464 0.7510259053 1.104324083e-38
0.10120001 0.1641592964 0.7511859153 1.113507493e-38
0.10266286 0.1631593164 0.7513459053 1.085992717e-38
0.10428 0.1611593364 0.7516659053 1.067481705e-38
0.10560001 0.1611593364 0.7516659053 1.021455916e-38
0.10707428 0.1601593464 0.7518259053 9.844358531e-39
0.10855239 0.1591593064 0.7519859053 8.92027366e-39
0.11019238 0.1571593264 0.7523059153 8.093029724e-39
0.11152001 0.1571593264 0.7523059153 8.459647237e-39
0.11284763 0.1571593264 0.7523059153 8.918114259e-39
0.11433905 0.1561593464 0.7524659053 9.468418179e-39
0.11566857 0.1561593464 0.7524659053 1.012023917e-38
0.11699809 0.1561593464 0.7524659053 1.168395793e-38
0.11832762 0.1561593464 0.7524659053 1.333951079e-38
0.11965714 0.1561593464 0.7524659053 1.333987373e-38
0.12098667 0.1561593464 0.7524659053 1.334023947e-38
0.1223162 0.1561593464 0.7524659053 1.352642999e-38
0.12400001 0.1541593064 0.7527859053 1.380085328e-38
0.12533334 0.1541593064 0.7527859053 1.39837998e-38
0.12684762 0.1531593264 0.7529459053 1.41663946e-38
0.12818287 0.1531593264 0.7529459053 1.416496107e-38
0.12988763 0.1511593464 0.7532659053 1.416495686e-38
0.13122666 0.1511593464 0.7532659053 1.40734759e-38
0.13256571 0.1511593464 0.7532659053 1.407562128e-38
0.13390477 0.1511593464 0.7532659053 1.398521511e-38
0.13543619 0.1501592964 0.7534259153 1.398378158e-38
0.13735999 0.1471593364 0.7539059053 1.398342425e-38
0.13890286 0.1461593564 0.7540659053 1.407454509e-38
0.14025143 0.1461593564 0.7540659053 1.435184944e-38
0.142 0.1441593164 0.7543859153 1.462843072e-38
0.1435543 0.1431593264 0.7545459053 1.435399903e-38
0.14490858 0.1431593264 0.7545459053 1.407993868e-38
0.14667429 0.1411592964 0.7548659153 1.343746015e-38
0.14803238 0.1411592964 0.7548659153 1.279388861e-38
0.14939049 0.1411592964 0.7548659153 1.343709021e-38
0.15096001 0.1401593064 0.7550259153 1.417214412e-38
0.15232 0.1401593064 0.7550259153 1.444801915e-38
0.15411048 0.1381593364 0.7553459053 1.472136764e-38
0.15547429 0.1381593364 0.7553459053 1.453840711e-38
0.1568381 0.1381593364 0.7553459053 1.444585695e-38
0.1582019 0.1381593364 0.7553459053 1.426254749e-38
0.15978856 0.1371593464 0.7555059053 1.407850936e-38
0.16115429 0.1371593464 0.7555059053 1.398630672e-38
0.16251999 0.1371593464 0.7555059053 1.398558085e-38
0.16388571 0.1371593464 0.7555059053 1.380261892e-38
0.16525143 0.1371593464 0.7555059053 1.361896334e-38
0.16661714 0.1371593464 0.7555059053 1.371081565e-38
0.16798286 0.1371593464 0.7555059053 1.38941195e-38
0.16982096 0.1351593164 0.7558259053 1.38930349e-38
0.17119049 0.1351593164 0.7558259053 1.398451166e-38
0.17256001 0.1351593164 0.7558259053 1.380048334e-38
