# .PCD v0.7 - Point Cloud Data file format
VERSION 0.7
FIELDS x y z rgb
SIZE 4 4 4 4
TYPE F F F F
COUNT 1 1 1 1
WIDTH 878
HEIGHT 1
VIEWPOINT 0 0 0 1 0 0 0
POINTS 878
DATA ascii
0.1579981 0.01057835211 0.7228922118 1.278599369e-38
0.15944763 0.01057835211 0.7228922118 1.26023213e-38
0.16132 0.008578382115 0.7227322108 1.241829158e-38
0.16320002 0.006578342115 0.7225722138 1.305719259e-38
0.16465716 0.006578342115 0.7225722138 1.379724353e-38
0.1661143 0.006578342115 0.7225722138 1.388906362e-38
0.16800952 0.004578372115 0.7224122118 1.398090752e-38
0.16947047 0.004578372115 0.7224122118 1.407311016e-38
0.17093144 0.004578372115 0.7224122118 1.425857061e-38
0.17239238 0.004578372115 0.7224122118 1.426035866e-38
0.17385334 0.004578372115 0.7224122118 1.435184804e-38
0.17554286 0.003578382115 0.7223322118 1.435150192e-38
0.17700571 0.003578382115 0.7223322118 1.435329698e-38
0.17846857 0.003578382115 0.7223322118 1.490610642e-38
0.17993143 0.003578382115 0.7223322118 1.545748094e-38
0.18186668 0.001578352115 0.7221722138 1.536636571e-38
0.18333335 0.001578352115 0.7221722138 1.527417708e-38
0.1848 0.001578352115 0.7221722138 1.545928861e-38
0.18626668 0.001578352115 0.7221722138 1.56429526e-38
0.18822095 -0.0004216178854 0.7220122168 1.573549995e-38
0.18969144 -0.0004216178854 0.7220122168 1.582591733e-38
0.1911619 -0.0004216178854 0.7220122168 1.600960654e-38
0.19263239 -0.0004216178854 0.7220122168 1.619289918e-38
0.19435431 -0.001421667885 0.7219322088 1.582482152e-38
0.19582668 -0.001421667885 0.7219322088 1.554823463e-38
0.19729906 -0.001421667885 0.7219322088 1.535953718e-38
0.19877145 -0.001421667885 0.7219322088 1.517838432e-38
0.20024382 -0.001421667885 0.7219322088 1.536277978e-38
0.2017162 -0.001421667885 0.7219322088 1.563935546e-38
0.20318858 -0.001421667885 0.7219322088 1.582660817e-38
0.20519048 -0.003421647885 0.7217722078 1.600705338e-38
0.20613335 -0.001421667885 0.7219322088 1.609853435e-38
0.20760573 -0.001421667885 0.7219322088 1.619072297e-38
0.2090781 -0.001421667885 0.7219322088 1.591592694e-38
0.21109524 -0.003421647885 0.7217722078 1.564005891e-38
0.21257144 -0.003421647885 0.7217722078 1.52723568e-38
0.21404763 -0.003421647885 0.7217722078 1.499362872e-38
0.21552381 -0.003421647885 0.7217722078 1.453158839e-38
0.21700001 -0.003421647885 0.7217722078 1.416099539e-38
0.21791239 -0.001421667885 0.7219322088 1.222919896e-38
0.21995239 -0.003421647885 0.7217722078 1.039500297e-38
0.22085716 -0.001421667885 0.7219322088 1.038747239e-38
0.22232954 -0.001421667885 0.7219322088 1.039357644e-38
0.22380193 -0.001421667885 0.7219322088 1.103679066e-38
0.22498286 -0.0004216178854 0.7220122168 1.177039423e-38
0.22645333 -0.0004216178854 0.7220122168 1.194939749e-38
0.22792381 -0.0004216178854 0.7220122168 1.213415729e-38
0.22939429 -0.0004216178854 0.7220122168 1.158423172e-38
0.23086476 -0.0004216178854 0.7220122168 1.112647096e-38
0.23233524 -0.0004216178854 0.7220122168 1.149558698e-38
0.23320001 0.001578352115 0.7221722138 1.195190722e-38
0.23405714 0.003578382115 0.7223322118 1.139839573e-38
0.23552001 0.003578382115 0.7223322118 1.084988687e-38
0.23698285 0.003578382115 0.7223322118 1.038496266e-38
0.23813525 0.004578372115 0.7224122118 9.93189064e-39
0.23959619 0.004578372115 0.7224122118 1.094818656e-38
0.24105714 0.004578372115 0.7224122118 1.205523757e-38
0.24188572 0.006578342115 0.7225722138 1.242437601e-38
0.24334286 0.006578342115 0.7225722138 1.288356751e-38
0.24416001 0.008578382115 0.7227322108 1.315837054e-38
0.24496953 0.01057835211 0.7228922118 1.352463773e-38
0.24641907 0.01057835211 0.7228922118 1.379870929e-38
0.24754287 0.01157834211 0.7229722088 1.407673111e-38
0.24899048 0.01157834211 0.7229722088 1.426184124e-38
0.25043812 0.01157834211 0.7229722088 1.453806939e-38
0.25188571 0.01157834211 0.7229722088 1.472282219e-38
0.25333336 0.01157834211 0.7229722088 1.499904334e-38
0.25511619 0.01057835211 0.7228922118 1.527490576e-38
0.25656572 0.01057835211 0.7228922118 1.555184998e-38
0.25801525 0.01057835211 0.7228922118 1.573480631e-38
0.25946477 0.01057835211 0.7228922118 1.591991644e-38
0.2609143 0.01057835211 0.7228922118 1.601211627e-38
0.26305333 0.008578382115 0.7227322108 1.610359163e-38
0.26381335 0.01057835211 0.7228922118 1.619722079e-38
0.26595998 0.008578382115 0.7227322108 1.628797168e-38
0.26741332 0.008578382115 0.7227322108 1.637908271e-38
0.26886666 0.008578382115 0.7227322108 1.656274249e-38
0.27032 0.008578382115 0.7227322108 1.555289955e-38
0.27248573 0.006578342115 0.7225722138 1.463491173e-38
0.27465904 0.004578372115 0.7224122118 1.454380211e-38
0.27612001 0.004578372115 0.7224122118 1.454523704e-38
0.27758098 0.004578372115 0.7224122118 1.44551952e-38
0.12236572 0.02457835211 0.7254350688 1.471828479e-38
0.12395429 0.02357836211 0.7253569718 1.434476868e-38
0.12537906 0.02357836211 0.7253569718 1.407600384e-38
0.1268038 0.02357836211 0.7253569718 1.380193648e-38
0.12822857 0.02357836211 0.7253569718 1.407673111e-38
0.12965333 0.02357836211 0.7253569718 1.435152294e-38
0.13107809 0.02357836211 0.7253569718 1.444372137e-38
0.13285716 0.02157833211 0.7252007818 1.453590439e-38
0.13428573 0.02157833211 0.7252007818 1.471705444e-38
0.1360762 0.01957836211 0.7250445958 1.490072544e-38
0.13750857 0.01957836211 0.7250445958 1.453374359e-38
0.13894095 0.01957836211 0.7250445958 1.425895456e-38
0.14056 0.01857837211 0.7249664988 1.435043133e-38
0.1419943 0.01857837211 0.7249664988 1.444226262e-38
0.14342858 0.01857837211 0.7249664988 1.435078305e-38
0.14486286 0.01857837211 0.7249664988 1.425965381e-38
0.14668572 0.01657834211 0.7248103048 1.407597161e-38
0.14812382 0.01657834211 0.7248103048 1.380083786e-38
0.14956191 0.01657834211 0.7248103048 1.416711907e-38
0.15120001 0.01557835211 0.7247322108 1.444154375e-38
0.15264 0.01557835211 0.7247322108 1.407563249e-38
0.15408 0.01557835211 0.7247322108 1.380192387e-38
0.15593143 0.01357837211 0.7245760208 1.389268878e-38
0.15779048 0.01157834211 0.7244198308 1.407527656e-38
0.1592381 0.01157834211 0.7244198308 1.39805656e-38
0.16132 0.008578382115 0.7241855468 1.388621618e-38
0.16277334 0.008578382115 0.7241855468 1.3978409e-38
0.16422667 0.008578382115 0.7241855468 1.416241771e-38
0.1661143 0.006578342115 0.7240293538 1.397836837e-38
0.16757144 0.006578342115 0.7240293538 1.388618395e-38
0.16947047 0.004578372115 0.7238731668 1.342809387e-38
0.17093144 0.004578372115 0.7238731668 1.297034432e-38
0.17239238 0.004578372115 0.7238731668 1.278630899e-38
0.17385334 0.004578372115 0.7238731668 1.260230028e-38
0.17554286 0.003578382115 0.7237950698 1.306329385e-38
0.17700571 0.003578382115 0.7237950698 1.361609768e-38
0.17893334 0.001578352115 0.7236388798 1.398523193e-38
0.17993143 0.003578382115 0.7237950698 1.444656741e-38
0.18186668 0.001578352115 0.7236388798 1.463060414e-38
0.18333335 0.001578352115 0.7236388798 1.481500241e-38
0.1848 0.001578352115 0.7236388798 1.490756658e-38
0.18675047 -0.0004216178854 0.7234826898 1.509230256e-38
0.18822095 -0.0004216178854 0.7234826898 1.527632247e-38
0.18969144 -0.0004216178854 0.7234826898 1.555077799e-38
0.1911619 -0.0004216178854 0.7234826898 1.573411687e-38
0.19263239 -0.0004216178854 0.7234826898 1.600959814e-38
0.19435431 -0.001421667885 0.7234045888 1.554932064e-38
0.19582668 -0.001421667885 0.7234045888 1.508942429e-38
0.19729906 -0.001421667885 0.7234045888 1.499615386e-38
0.19877145 -0.001421667885 0.7234045888 1.490287783e-38
0.20024382 -0.001421667885 0.7234045888 1.518017238e-38
0.2017162 -0.001421667885 0.7234045888 1.5457118e-38
0.20318858 -0.001421667885 0.7234045888 1.591701855e-38
0.20466097 -0.001421667885 0.7234045888 1.62829228e-38
0.20613335 -0.001421667885 0.7234045888 1.619036844e-38
0.20760573 -0.001421667885 0.7234045888 1.609853154e-38
0.2090781 -0.001421667885 0.7234045888 1.591557661e-38
0.21109524 -0.003421647885 0.7232484018 1.573262309e-38
0.21312 -0.005421617885 0.7230922158 1.554715843e-38
0.2146 -0.005421617885 0.7230922158 1.527024364e-38
0.21608 -0.005421617885 0.7230922158 1.52706304e-38
0.21756001 -0.005421617885 0.7230922158 1.527130442e-38
0.21904001 -0.005421617885 0.7230922158 1.333841077e-38
0.22052 -0.005421617885 0.7230922158 1.14977576e-38
0.22142859 -0.003421647885 0.7232484018 1.140556757e-38
0.22232954 -0.001421667885 0.7234045888 1.131337895e-38
0.22380193 -0.001421667885 0.7234045888 1.17722047e-38
0.22527431 -0.001421667885 0.7234045888 1.223102345e-38
0.22645333 -0.0004216178854 0.7234826898 1.250652994e-38
0.22792381 -0.0004216178854 0.7234826898 1.269021074e-38
0.22939429 -0.0004216178854 0.7234826898 1.269129675e-38
0.23086476 -0.0004216178854 0.7234826898 1.260087236e-38
0.23233524 -0.0004216178854 0.7234826898 1.260479459e-38
0.23320001 0.001578352115 0.7236388798 1.260875466e-38
0.23405714 0.003578382115 0.7237950698 1.24175643e-38
0.23552001 0.003578382115 0.7237950698 1.222634171e-38
0.23698285 0.003578382115 0.7237950698 1.194687095e-38
0.23813525 0.004578372115 0.7238731668 1.175926792e-38
0.23959619 0.004578372115 0.7238731668 1.186546672e-38
0.24105714 0.004578372115 0.7238731668 1.205488304e-38
0.24188572 0.006578342115 0.7240293538 1.242330682e-38
0.24334286 0.006578342115 0.7240293538 1.269989932e-38
0.24352001 0.01057835211 0.7243417338 1.306689238e-38
0.24496953 0.01057835211 0.7243417338 1.352571113e-38
0.24609526 0.01157834211 0.7244198308 1.380157775e-38
0.24754287 0.01157834211 0.7244198308 1.407744297e-38
0.24899048 0.01157834211 0.7244198308 1.453769805e-38
0.25043812 0.01157834211 0.7244198308 1.490684211e-38
0.25188571 0.01157834211 0.7244198308 1.490685051e-38
0.25333336 0.01157834211 0.7244198308 1.490720504e-38
0.25511619 0.01057835211 0.7243417338 1.50915907e-38
0.25656572 0.01057835211 0.7243417338 1.536817478e-38
0.25801525 0.01057835211 0.7243417338 1.555256604e-38
0.25946477 0.01057835211 0.7243417338 1.5828797e-38
0.2609143 0.01057835211 0.7243417338 1.592028217e-38
0.26236382 0.01057835211 0.7243417338 1.610395036e-38
0.26381335 0.01057835211 0.7243417338 1.610538249e-38
0.26526284 0.01057835211 0.7243417338 1.620223043e-38
0.26671237 0.01057835211 0.7243417338 1.619719837e-38
0.26886666 0.008578382115 0.7241855468 1.628829958e-38
0.27032 0.008578382115 0.7241855468 1.555324147e-38
0.27177334 0.008578382115 0.7241855468 1.491041121e-38
0.27394286 0.006578342115 0.7240293538 1.48193114e-38
0.27612001 0.004578372115 0.7238731668 1.472926816e-38
0.27758098 0.004578372115 0.7238731668 1.472890803e-38
0.27904192 0.004578372115 0.7238731668 1.47285549e-38
0.28050286 0.004578372115 0.7238731668 1.463672501e-38
0.11952001 0.02457835211 0.7268579248 1.37324503e-38
0.12094286 0.02457835211 0.7268579248 1.435051821e-38
0.12236572 0.02457835211 0.7268579248 1.360504564e-38
0.12378858 0.02457835211 0.7268579248 1.287607477e-38
0.12521143 0.02457835211 0.7268579248 1.324661872e-38
0.12663428 0.02457835211 0.7268579248 1.361431943e-38
0.12822857 0.02357836211 0.7267817358 1.37068724e-38
0.12965333 0.02357836211 0.7267817358 1.389018325e-38
0.13107809 0.02357836211 0.7267817358 1.416533101e-38
0.13250287 0.02357836211 0.7267817358 1.453267019e-38
0.13428573 0.02157833211 0.7266293528 1.480817248e-38
0.13571429 0.02157833211 0.7266293528 1.517443826e-38
0.13714287 0.02157833211 0.7266293528 1.480530262e-38
0.13894095 0.01957836211 0.7264769738 1.453230866e-38
0.14037335 0.01957836211 0.7264769738 1.462629935e-38
0.1419943 0.01857837211 0.7264007838 1.480960741e-38
0.14342858 0.01857837211 0.7264007838 1.49014401e-38
0.14486286 0.01857837211 0.7264007838 1.499470352e-38
0.14629714 0.01857837211 0.7264007838 1.481138425e-38
0.14773144 0.01857837211 0.7264007838 1.462772307e-38
0.14956191 0.01657834211 0.7262484008 1.49035995e-38
0.15100002 0.01657834211 0.7262484008 1.527201488e-38
0.1524381 0.01657834211 0.7262484008 1.53652811e-38
0.15408 0.01557835211 0.7261722108 1.545568307e-38
0.15593143 0.01357837211 0.7260198358 1.545891446e-38
0.15737525 0.01357837211 0.7260198358 1.545927179e-38
0.1592381 0.01157834211 0.7258674488 1.545962913e-38
0.16089714 0.01057835211 0.7257912588 1.545819139e-38
0.16277334 0.008578382115 0.7256388798 1.499757758e-38
0.16465716 0.006578342115 0.7254864968 1.453407569e-38
0.1661143 0.006578342115 0.7254864968 1.416276803e-38
0.16757144 0.006578342115 0.7254864968 1.388583502e-38
0.16902858 0.006578342115 0.7254864968 1.278274128e-38
0.17093144 0.004578372115 0.7253341178 1.177217948e-38
0.17239238 0.004578372115 0.7253341178 1.131263206e-38
0.17385334 0.004578372115 0.7253341178 1.08534784e-38
0.17531429 0.004578372115 0.7253341178 1.186405281e-38
0.17700571 0.003578382115 0.7252579278 1.288034312e-38
0.17846857 0.003578382115 0.7252579278 1.315226369e-38
0.17993143 0.003578382115 0.7252579278 1.343423016e-38
0.18186668 0.001578352115 0.7251055448 1.389556284e-38
0.18333335 0.001578352115 0.7251055448 1.435510466e-38
0.18528001 -0.0004216178854 0.7249531658 1.444730449e-38
0.18675047 -0.0004216178854 0.7249531658 1.454020637e-38
0.18822095 -0.0004216178854 0.7249531658 1.490897348e-38
0.18969144 -0.0004216178854 0.7249531658 1.527489875e-38
0.1911619 -0.0004216178854 0.7249531658 1.555078219e-38
0.19263239 -0.0004216178854 0.7249531658 1.59173927e-38
0.19435431 -0.001421667885 0.7248769728 1.527417148e-38
0.19582668 -0.001421667885 0.7248769728 1.472064878e-38
0.19729906 -0.001421667885 0.7248769728 1.462845595e-38
0.19877145 -0.001421667885 0.7248769728 1.462701962e-38
0.20024382 -0.001421667885 0.7248769728 1.499794752e-38
0.2017162 -0.001421667885 0.7248769728 1.536600697e-38
0.20318858 -0.001421667885 0.7248769728 1.600957431e-38
0.20466097 -0.001421667885 0.7248769728 1.665099486e-38
0.20613335 -0.001421667885 0.7248769728 1.637405905e-38
0.20814286 -0.003421647885 0.7247245928 1.609890429e-38
0.20961905 -0.003421647885 0.7247245928 1.600526812e-38
0.21164 -0.005421617885 0.7245722138 1.591558222e-38
0.21312 -0.005421617885 0.7245722138 1.572796237e-38
0.2146 -0.005421617885 0.7245722138 1.563649822e-38
0.21663621 -0.007421647885 0.7244198308 1.600421295e-38
0.21812001 -0.007421647885 0.7244198308 1.646407566e-38
0.21960382 -0.007421647885 0.7244198308 1.453621688e-38
0.22052 -0.005421617885 0.7245722138 1.260086255e-38
0.222 -0.005421617885 0.7245722138 1.241576363e-38
0.22290477 -0.003421647885 0.7247245928 1.232536447e-38
0.22380193 -0.001421667885 0.7248769728 1.251692898e-38
0.22527431 -0.001421667885 0.7248769728 1.279244107e-38
0.22645333 -0.0004216178854 0.7249531658 1.30683133e-38
0.22792381 -0.0004216178854 0.7249531658 1.334419253e-38
0.22939429 -0.0004216178854 0.7249531658 1.371190866e-38
0.23086476 -0.0004216178854 0.7249531658 1.417070499e-38
0.23173334 0.001578352115 0.7251055448 1.371114776e-38
0.23259428 0.003578382115 0.7252579278 1.325162556e-38
0.23405714 0.003578382115 0.7252579278 1.343531196e-38
0.23521332 0.004578372115 0.7253341178 1.370971983e-38
0.23667429 0.004578372115 0.7253341178 1.361714585e-38
0.23813525 0.004578372115 0.7253341178 1.3613204e-38
0.23959619 0.004578372115 0.7253341178 1.287493831e-38
0.24042858 0.006578342115 0.7254864968 1.21452836e-38
0.24188572 0.006578342115 0.7254864968 1.232860427e-38
0.24270667 0.008578382115 0.7256388798 1.260807083e-38
0.24352001 0.01057835211 0.7257912588 1.306439246e-38
0.24496953 0.01057835211 0.7257912588 1.352571673e-38
0.24609526 0.01157834211 0.7258674488 1.380157495e-38
0.24754287 0.01157834211 0.7258674488 1.41696372e-38
0.24899048 0.01157834211 0.7258674488 1.472208791e-38
0.25043812 0.01157834211 0.7258674488 1.536530913e-38
0.25188571 0.01157834211 0.7258674488 1.509053412e-38
0.25333336 0.01157834211 0.7258674488 1.490757358e-38
0.25511619 0.01057835211 0.7257912588 1.500012094e-38
0.25656572 0.01057835211 0.7257912588 1.518415066e-38
0.25801525 0.01057835211 0.7257912588 1.546181095e-38
0.25946477 0.01057835211 0.7257912588 1.573660978e-38
0.2609143 0.01057835211 0.7257912588 1.592028918e-38
0.26236382 0.01057835211 0.7257912588 1.61043133e-38
0.26381335 0.01057835211 0.7257912588 1.610574122e-38
0.26526284 0.01057835211 0.7257912588 1.619828578e-38
0.26671237 0.01057835211 0.7257912588 1.610751947e-38
0.26816192 0.01057835211 0.7257912588 1.601316444e-38
0.27032 0.008578382115 0.7256388798 1.564653151e-38
0.27177334 0.008578382115 0.7256388798 1.527848608e-38
0.27394286 0.006578342115 0.7254864968 1.509518783e-38
0.27612001 0.004578372115 0.7253341178 1.500371247e-38
0.27758098 0.004578372115 0.7253341178 1.50040726e-38
0.27904192 0.004578372115 0.7253341178 1.50040698e-38
0.28050286 0.004578372115 0.7253341178 1.55565163e-38
0.28196383 0.004578372115 0.7253341178 1.610534886e-38
0.11952001 0.02457835211 0.7282807848 1.27907427e-38
0.12110476 0.02357836211 0.7282064988 1.296646552e-38
0.12236572 0.02457835211 0.7282807848 1.278381468e-38
0.12378858 0.02457835211 0.7282807848 1.26930764e-38
0.12521143 0.02457835211 0.7282807848 1.306223446e-38
0.12663428 0.02457835211 0.7282807848 1.343028831e-38
0.12805715 0.02457835211 0.7282807848 1.370686679e-38
0.12965333 0.02357836211 0.7282064988 1.398057541e-38
0.13090287 0.02457835211 0.7282807848 1.41653184e-38
0.13250287 0.02357836211 0.7282064988 1.443903403e-38
0.13392763 0.02357836211 0.7282064988 1.462235049e-38
0.13535239 0.02357836211 0.7282064988 1.480602008e-38
0.13714287 0.02157833211 0.7280579228 1.462234909e-38
0.13857144 0.02157833211 0.7280579228 1.44386809e-38
0.14037335 0.01957836211 0.7279093548 1.462558469e-38
0.14180572 0.01957836211 0.7279093548 1.480961021e-38
0.1432381 0.01957836211 0.7279093548 1.508619009e-38
0.14467049 0.01957836211 0.7279093548 1.545532294e-38
0.14629714 0.01857837211 0.7278350688 1.508797815e-38
0.14773144 0.01857837211 0.7278350688 1.48128374e-38
0.14916572 0.01857837211 0.7278350688 1.499687413e-38
0.1506 0.01857837211 0.7278350688 1.518125978e-38
0.15203428 0.01857837211 0.7278350688 1.518161712e-38
0.1538762 0.01657834211 0.7276864968 1.527273375e-38
0.15552001 0.01557835211 0.7276122108 1.53663615e-38
0.15737525 0.01357837211 0.7274636428 1.555039403e-38
0.1592381 0.01157834211 0.7273150708 1.554932204e-38
0.16068573 0.01157834211 0.7273150708 1.554860177e-38
0.16234668 0.01057835211 0.7272407848 1.527381134e-38
0.16422667 0.008578382115 0.7270922158 1.49990041e-38
0.16568001 0.008578382115 0.7270922158 1.472276193e-38
0.16757144 0.006578342115 0.7269436408 1.444690232e-38
0.16902858 0.006578342115 0.7269436408 1.379867846e-38
0.17048572 0.006578342115 0.7269436408 1.324047262e-38
0.17194286 0.006578342115 0.7269436408 1.27787672e-38
0.1734 0.006578342115 0.7269436408 1.240929944e-38
0.17531429 0.004578372115 0.7267950718 1.315477341e-38
0.17677523 0.004578372115 0.7267950718 1.388946299e-38
0.17846857 0.003578382115 0.7267207858 1.370651506e-38
0.17993143 0.003578382115 0.7267207858 1.361575436e-38
0.18139429 0.003578382115 0.7267207858 1.361467677e-38
0.18333335 0.001578352115 0.7265722138 1.370543606e-38
0.1848 0.001578352115 0.7265722138 1.388946719e-38
0.18675047 -0.0004216178854 0.7264236418 1.4165324e-38
0.18822095 -0.0004216178854 0.7264236418 1.435436757e-38
0.18993716 -0.001421667885 0.7263493528 1.453984204e-38
0.19140953 -0.001421667885 0.7263493528 1.463097128e-38
0.19288191 -0.001421667885 0.7263493528 1.481427934e-38
0.19485715 -0.003421647885 0.7262007808 1.453733511e-38
0.19633333 -0.003421647885 0.7262007808 1.42603965e-38
0.19780953 -0.003421647885 0.7262007808 1.398417535e-38
0.19928573 -0.003421647885 0.7262007808 1.370831293e-38
0.20024382 -0.001421667885 0.7263493528 1.435295787e-38
0.2017162 -0.001421667885 0.7263493528 1.509158509e-38
0.20318858 -0.001421667885 0.7263493528 1.55500423e-38
0.20466097 -0.001421667885 0.7263493528 1.610071056e-38
0.20613335 -0.001421667885 0.7263493528 1.609893231e-38
0.20814286 -0.003421647885 0.7262007808 1.619111253e-38
0.20961905 -0.003421647885 0.7262007808 1.600707019e-38
0.21164 -0.005421617885 0.7260522158 1.591487036e-38
0.21312 -0.005421617885 0.7260522158 1.591307109e-38
0.2146 -0.005421617885 0.7260522158 1.58180056e-38
0.21663621 -0.007421647885 0.7259036398 1.609781688e-38
0.21812001 -0.007421647885 0.7259036398 1.637760854e-38
0.21960382 -0.007421647885 0.7259036398 1.481351703e-38
0.22052 -0.005421617885 0.7260522158 1.333698425e-38
0.222 -0.005421617885 0.7260522158 1.269450432e-38
0.22290477 -0.003421647885 0.7262007808 1.205201037e-38
0.22380193 -0.001421667885 0.7263493528 1.233038392e-38
0.22527431 -0.001421667885 0.7263493528 1.260877288e-38
0.22645333 -0.0004216178854 0.7264236418 1.288393325e-38
0.22792381 -0.0004216178854 0.7264236418 1.315910062e-38
0.22939429 -0.0004216178854 0.7264236418 1.352610489e-38
0.23026668 0.001578352115 0.7265722138 1.389306713e-38
0.23173334 0.001578352115 0.7265722138 1.361718229e-38
0.23259428 0.003578382115 0.7267207858 1.343352671e-38
0.23405714 0.003578382115 0.7267207858 1.352609508e-38
0.23521332 0.004578372115 0.7267950718 1.371081705e-38
0.23667429 0.004578372115 0.7267950718 1.407705761e-38
0.23813525 0.004578372115 0.7267950718 1.43514837e-38
0.23897144 0.006578342115 0.7269436408 1.379867426e-38
0.24042858 0.006578342115 0.7269436408 1.324623476e-38
0.24188572 0.006578342115 0.7269436408 1.31569202e-38
0.24270667 0.008578382115 0.7270922158 1.315944954e-38
0.24352001 0.01057835211 0.7272407848 1.352645242e-38
0.24496953 0.01057835211 0.7272407848 1.398525715e-38
0.24609526 0.01157834211 0.7273150708 1.407743877e-38
0.24754287 0.01157834211 0.7273150708 1.416999593e-38
0.24899048 0.01157834211 0.7273150708 1.453770225e-38
0.25043812 0.01157834211 0.7273150708 1.499725809e-38
0.25188571 0.01157834211 0.7273150708 1.490544221e-38
0.25333336 0.01157834211 0.7273150708 1.48135969e-38
0.25511619 0.01057835211 0.7272407848 1.490721625e-38
0.25656572 0.01057835211 0.7272407848 1.509232217e-38
0.25801525 0.01057835211 0.7272407848 1.536926359e-38
0.25946477 0.01057835211 0.7272407848 1.564477989e-38
0.2609143 0.01057835211 0.7272407848 1.582882082e-38
0.26236382 0.01057835211 0.7272407848 1.601284074e-38
0.26381335 0.01057835211 0.7272407848 1.610502516e-38
0.26526284 0.01057835211 0.7272407848 1.619757111e-38
0.26671237 0.01057835211 0.7272407848 1.601389452e-38
0.26816192 0.01057835211 0.7272407848 1.583022212e-38
0.26961145 0.01057835211 0.7272407848 1.564583367e-38
0.27177334 0.008578382115 0.7270922158 1.536997825e-38
0.27322668 0.008578382115 0.7270922158 1.527779524e-38
0.27540001 0.006578342115 0.7269436408 1.509376831e-38
0.27685714 0.006578342115 0.7269436408 1.509520745e-38
0.27831429 0.006578342115 0.7269436408 1.500443834e-38
0.27977145 0.006578342115 0.7269436408 1.518845966e-38
0.28122857 0.006578342115 0.7269436408 1.536996144e-38
0.11968 0.02357836211 0.7296312588 1.196382106e-38
0.12094286 0.02457835211 0.7297036408 1.168146782e-38
0.12236572 0.02457835211 0.7297036408 1.204806152e-38
0.12378858 0.02457835211 0.7297036408 1.25094054e-38
0.12521143 0.02457835211 0.7297036408 1.287819633e-38
0.12663428 0.02457835211 0.7297036408 1.333917448e-38
0.12805715 0.02457835211 0.7297036408 1.37068822e-38
0.12948 0.02457835211 0.7297036408 1.416568274e-38
0.13090287 0.02457835211 0.7297036408 1.425714128e-38
0.13232571 0.02457835211 0.7297036408 1.434826632e-38
0.13392763 0.02357836211 0.7296312588 1.434791459e-38
0.13535239 0.02357836211 0.7296312588 1.444011163e-38
0.13714287 0.02157833211 0.7294864978 1.434863766e-38
0.13857144 0.02157833211 0.7294864978 1.43490006e-38
0.14000002 0.02157833211 0.7294864978 1.453339466e-38
0.14180572 0.01957836211 0.7293417328 1.481034029e-38
0.1432381 0.01957836211 0.7293417328 1.53627938e-38
0.14467049 0.01957836211 0.7293417328 1.59141543e-38
0.14610286 0.01957836211 0.7293417328 1.545496701e-38
0.14753523 0.01957836211 0.7293417328 1.508870963e-38
0.14916572 0.01857837211 0.7292693578 1.508871663e-38
0.1506 0.01857837211 0.7292693578 1.508942849e-38
0.15203428 0.01857837211 0.7292693578 1.508978162e-38
0.15346856 0.01857837211 0.7292693578 1.518161712e-38
0.1553143 0.01657834211 0.7291245898 1.536564684e-38
0.15675239 0.01657834211 0.7291245898 1.564116034e-38
0.1584 0.01557835211 0.7290522148 1.564044988e-38
0.16026285 0.01357837211 0.7289074498 1.564116174e-38
0.16170667 0.01357837211 0.7289074498 1.55500395e-38
0.16358095 0.01157834211 0.7287626888 1.545818999e-38
0.16502859 0.01157834211 0.7287626888 1.527450639e-38
0.16669525 0.01057835211 0.7286903058 1.50897634e-38
0.16814476 0.01057835211 0.7286903058 1.490681548e-38
0.17004001 0.008578382115 0.7285455488 1.472205428e-38
0.17149334 0.008578382115 0.7285455488 1.435362348e-38
0.1734 0.006578342115 0.7284007838 1.407813241e-38
0.17485714 0.006578342115 0.7284007838 1.444548981e-38
0.17631429 0.006578342115 0.7284007838 1.49014457e-38
0.1782362 0.004578372115 0.7282560228 1.434900621e-38
0.17969714 0.004578372115 0.7282560228 1.379799183e-38
0.18139429 0.003578382115 0.7281836448 1.3419169e-38
0.18333335 0.001578352115 0.7280388758 1.315406295e-38
0.1848 0.001578352115 0.7280388758 1.342777438e-38
0.18675047 -0.0004216178854 0.7278941188 1.379654289e-38
0.18822095 -0.0004216178854 0.7278941188 1.38001218e-38
0.18969144 -0.0004216178854 0.7278941188 1.379690162e-38
0.19190477 -0.003421647885 0.7276769748 1.379368143e-38
0.19338095 -0.003421647885 0.7276769748 1.379510796e-38
0.19536 -0.005421617885 0.7275322138 1.379653448e-38
0.19684 -0.005421617885 0.7275322138 1.379798202e-38
0.19780953 -0.003421647885 0.7276769748 1.324841658e-38
0.19928573 -0.003421647885 0.7276769748 1.27892419e-38
0.20024382 -0.001421667885 0.7278217328 1.37997953e-38
0.2017162 -0.001421667885 0.7278217328 1.4815001e-38
0.20318858 -0.001421667885 0.7278217328 1.518161852e-38
0.20466097 -0.001421667885 0.7278217328 1.564044707e-38
0.20613335 -0.001421667885 0.7278217328 1.591596477e-38
0.20814286 -0.003421647885 0.7276769748 1.628401441e-38
0.20961905 -0.003421647885 0.7276769748 1.610105248e-38
0.21164 -0.005421617885 0.7275322138 1.600705057e-38
0.21312 -0.005421617885 0.7275322138 1.600667783e-38
0.2146 -0.005421617885 0.7275322138 1.60992378e-38
0.21663621 -0.007421647885 0.7273874488 1.619179776e-38
0.21812001 -0.007421647885 0.7273874488 1.628541291e-38
0.21960382 -0.007421647885 0.7273874488 1.518265688e-38
0.22052 -0.005421617885 0.7275322138 1.407418495e-38
0.222 -0.005421617885 0.7275322138 1.296391936e-38
0.22290477 -0.003421647885 0.7276769748 1.186547513e-38
0.22438096 -0.003421647885 0.7276769748 1.214384727e-38
0.22527431 -0.001421667885 0.7278217328 1.242007823e-38
0.22645333 -0.0004216178854 0.7278941188 1.269666792e-38
0.22792381 -0.0004216178854 0.7278941188 1.306617351e-38
0.2288 0.001578352115 0.7280388758 1.334204995e-38
0.23026668 0.001578352115 0.7280388758 1.361754662e-38
0.23113143 0.003578382115 0.7281836448 1.361574455e-38
0.23259428 0.003578382115 0.7281836448 1.361575436e-38
0.23375238 0.004578372115 0.7282560228 1.37079598e-38
0.23521332 0.004578372115 0.7282560228 1.379906102e-38
0.23605716 0.006578342115 0.7284007838 1.444117381e-38
0.2375143 0.006578342115 0.7284007838 1.517549624e-38
0.23897144 0.006578342115 0.7284007838 1.480779272e-38
0.24042858 0.006578342115 0.7284007838 1.444152554e-38
0.24125335 0.008578382115 0.7285455488 1.40802792e-38
0.24207048 0.01057835211 0.7286903058 1.371008277e-38
0.24352001 0.01057835211 0.7286903058 1.407815623e-38
0.24464762 0.01157834211 0.7287626888 1.453697078e-38
0.24609526 0.01157834211 0.7287626888 1.435329558e-38
0.24754287 0.01157834211 0.7287626888 1.426110696e-38
0.24899048 0.01157834211 0.7287626888 1.444442482e-38
0.25043812 0.01157834211 0.7287626888 1.462882309e-38
0.25188571 0.01157834211 0.7287626888 1.472138586e-38
0.25333336 0.01157834211 0.7287626888 1.481357588e-38
0.25511619 0.01057835211 0.7286903058 1.490648337e-38
0.25656572 0.01057835211 0.7286903058 1.500011954e-38
0.25767621 0.01157834211 0.7287626888 1.527706796e-38
0.25912383 0.01157834211 0.7287626888 1.555258006e-38
0.26057142 0.01157834211 0.7287626888 1.573876638e-38
0.26201907 0.01157834211 0.7287626888 1.592064371e-38
0.26346669 0.01157834211 0.7287626888 1.601283794e-38
0.26491427 0.01157834211 0.7287626888 1.619650052e-38
0.26636192 0.01157834211 0.7287626888 1.592098703e-38
0.26816192 0.01057835211 0.7286903058 1.573767477e-38
0.26961145 0.01057835211 0.7286903058 1.564512181e-38
0.27177334 0.008578382115 0.7285455488 1.555294159e-38
0.27322668 0.008578382115 0.7285455488 1.536928321e-38
0.27540001 0.006578342115 0.7284007838 1.527744631e-38
0.27685714 0.006578342115 0.7284007838 1.518632548e-38
0.27831429 0.006578342115 0.7284007838 1.509555637e-38
0.27977145 0.006578342115 0.7284007838 1.49122343e-38
0.28196383 0.004578372115 0.7282560228 1.472890803e-38
0.28342476 0.004578372115 0.7282560228 1.42704354e-38
0.11968 0.02357836211 0.7310560218 1.17775955e-38
0.12094286 0.02457835211 0.7311264968 1.159069031e-38
0.12236572 0.02457835211 0.7311264968 1.186619259e-38
0.12378858 0.02457835211 0.7311264968 1.214206342e-38
0.12521143 0.02457835211 0.7311264968 1.26023241e-38
0.12663428 0.02457835211 0.7311264968 1.306438966e-38
0.12805715 0.02457835211 0.7311264968 1.343210859e-38
0.12948 0.02457835211 0.7311264968 1.379977708e-38
0.13090287 0.02457835211 0.7311264968 1.389014682e-38
0.13232571 0.02457835211 0.7311264968 1.398199213e-38
0.13374858 0.02457835211 0.7311264968 1.39816446e-38
0.13517143 0.02457835211 0.7311264968 1.407312697e-38
0.13677713 0.02357836211 0.7310560218 1.416460934e-38
0.13857144 0.02157833211 0.7309150678 1.416676874e-38
0.14000002 0.02157833211 0.7309150678 1.44429997e-38
0.14142859 0.02157833211 0.7309150678 1.462740077e-38
0.14285715 0.02157833211 0.7309150678 1.49032786e-38
0.14467049 0.01957836211 0.7307741178 1.527131984e-38
0.14610286 0.01957836211 0.7307741178 1.4996514e-38
0.14753523 0.01957836211 0.7307741178 1.472173338e-38
0.14896762 0.01957836211 0.7307741178 1.481393602e-38
0.15040001 0.01957836211 0.7307741178 1.490612044e-38
0.15183239 0.01957836211 0.7307741178 1.499794752e-38
0.15326478 0.01957836211 0.7307741178 1.518233738e-38
0.15490286 0.01857837211 0.7307036428 1.545784527e-38
0.15633714 0.01857837211 0.7307036428 1.573336157e-38
0.15819047 0.01657834211 0.7305626888 1.582520688e-38
0.15962858 0.01657834211 0.7305626888 1.59173927e-38
0.16128001 0.01557835211 0.7304922108 1.57337147e-38
0.16271999 0.01557835211 0.7304922108 1.564222953e-38
0.16459429 0.01357837211 0.7303512608 1.545783406e-38
0.1664762 0.01157834211 0.7302103028 1.527344841e-38
0.16792381 0.01157834211 0.7302103028 1.518089965e-38
0.16959429 0.01057835211 0.7301398318 1.508869701e-38
0.17104381 0.01057835211 0.7301398318 1.499649438e-38
0.17294668 0.008578382115 0.7299988778 1.490466168e-38
0.17439999 0.008578382115 0.7299988778 1.517945351e-38
0.17631429 0.006578342115 0.7298579238 1.536277558e-38
0.17777143 0.006578342115 0.7298579238 1.517660467e-38
0.17969714 0.004578372115 0.7297169738 1.499077848e-38
0.1811581 0.004578372115 0.7297169738 1.471527059e-38
0.18285714 0.003578382115 0.7296464988 1.4347923e-38
0.18431999 0.003578382115 0.7296464988 1.407133611e-38
0.18675047 -0.0004216178854 0.7293645948 1.370326826e-38
0.18822095 -0.0004216178854 0.7293645948 1.361285928e-38
0.18993716 -0.001421667885 0.7292941158 1.343063022e-38
0.19240001 -0.005421617885 0.7290122118 1.250474889e-38
0.19388001 -0.005421617885 0.7290122118 1.158745611e-38
0.19536 -0.005421617885 0.7290122118 1.149596674e-38
0.19684 -0.005421617885 0.7290122118 1.131303423e-38
0.19780953 -0.003421647885 0.7291531658 1.168255103e-38
0.19928573 -0.003421647885 0.7291531658 1.205204961e-38
0.20024382 -0.001421667885 0.7292941158 1.342958766e-38
0.2017162 -0.001421667885 0.7292941158 1.49057589e-38
0.20318858 -0.001421667885 0.7292941158 1.527308968e-38
0.20466097 -0.001421667885 0.7292941158 1.5640796e-38
0.20613335 -0.001421667885 0.7292941158 1.591702696e-38
0.20760573 -0.001421667885 0.7292941158 1.619324531e-38
0.2090781 -0.001421667885 0.7292941158 1.61921649e-38
0.21109524 -0.003421647885 0.7291531658 1.619142502e-38
0.21312 -0.005421617885 0.7290122118 1.6191404e-38
0.2146 -0.005421617885 0.7290122118 1.619141801e-38
0.21608 -0.005421617885 0.7290122118 1.610031399e-38
0.21756001 -0.005421617885 0.7290122118 1.610174052e-38
0.21904001 -0.005421617885 0.7290122118 1.545888504e-38
0.22052 -0.005421617885 0.7290122118 1.471990889e-38
0.222 -0.005421617885 0.7290122118 1.314759876e-38
0.22290477 -0.003421647885 0.7291531658 1.158710579e-38
0.22380193 -0.001421667885 0.7292941158 1.186475766e-38
0.22527431 -0.001421667885 0.7292941158 1.214241795e-38
0.22645333 -0.0004216178854 0.7293645948 1.242115443e-38
0.22792381 -0.0004216178854 0.7293645948 1.278993415e-38
0.2288 0.001578352115 0.7295055448 1.306687837e-38
0.23026668 0.001578352115 0.7295055448 1.334202752e-38
0.23113143 0.003578382115 0.7296464988 1.352390626e-38
0.23229143 0.004578372115 0.7297169738 1.379762469e-38
0.23375238 0.004578372115 0.7297169738 1.370436127e-38
0.23521332 0.004578372115 0.7297169738 1.370327526e-38
0.23605716 0.006578342115 0.7298579238 1.397841321e-38
0.2375143 0.006578342115 0.7298579238 1.434575239e-38
0.23897144 0.006578342115 0.7298579238 1.416459112e-38
0.23980001 0.008578382115 0.7299988778 1.407561147e-38
0.24125335 0.008578382115 0.7299988778 1.380080984e-38
0.24207048 0.01057835211 0.7301398318 1.361822485e-38
0.24320002 0.01157834211 0.7302103028 1.389374255e-38
0.24464762 0.01157834211 0.7302103028 1.425893635e-38
0.24609526 0.01157834211 0.7302103028 1.416746519e-38
0.24754287 0.01157834211 0.7302103028 1.407599403e-38
0.24899048 0.01157834211 0.7302103028 1.426074822e-38
0.25043812 0.01157834211 0.7302103028 1.444477795e-38
0.25188571 0.01157834211 0.7302103028 1.453733091e-38
0.25333336 0.01157834211 0.7302103028 1.47220795e-38
0.25511619 0.01057835211 0.7301398318 1.481427513e-38
0.25622857 0.01157834211 0.7302103028 1.49079183e-38
0.25767621 0.01157834211 0.7302103028 1.509232077e-38
0.25912383 0.01157834211 0.7302103028 1.536890206e-38
0.26057142 0.01157834211 0.7302103028 1.564476728e-38
0.26201907 0.01157834211 0.7302103028 1.592064231e-38
0.26346669 0.01157834211 0.7302103028 1.619615861e-38
0.26491427 0.01157834211 0.7302103028 1.647165528e-38
0.26636192 0.01157834211 0.7302103028 1.610430349e-38
0.26780954 0.01157834211 0.7302103028 1.57380391e-38
0.26961145 0.01057835211 0.7301398318 1.564405262e-38
0.27106097 0.01057835211 0.7301398318 1.55518738e-38
0.27322668 0.008578382115 0.7299988778 1.546041385e-38
0.27540001 0.006578342115 0.7298579238 1.536928741e-38
0.27685714 0.006578342115 0.7298579238 1.518596815e-38
0.27831429 0.006578342115 0.7298579238 1.500336214e-38
0.28050286 0.004578372115 0.7297169738 1.482004007e-38
0.28196383 0.004578372115 0.7297169738 1.47296283e-38
0.28342476 0.004578372115 0.7297169738 1.445339453e-38
0.12094286 0.02457835211 0.7325493528 1.149669261e-38
0.12236572 0.02457835211 0.7325493528 1.158707776e-38
0.12378858 0.02457835211 0.7325493528 1.177434729e-38
0.12521143 0.02457835211 0.7325493528 1.232680641e-38
0.12663428 0.02457835211 0.7325493528 1.287926692e-38
0.12805715 0.02457835211 0.7325493528 1.315693702e-38
0.12948 0.02457835211 0.7325493528 1.343171203e-38
0.13090287 0.02457835211 0.7325493528 1.352317338e-38
0.13232571 0.02457835211 0.7325493528 1.361502429e-38
0.13374858 0.02457835211 0.7325493528 1.37068752e-38
0.13535239 0.02357836211 0.7324807818 1.379763169e-38
0.13677713 0.02357836211 0.7324807818 1.388874552e-38
0.13857144 0.02157833211 0.7323436388 1.407421158e-38
0.14000002 0.02157833211 0.7323436388 1.426003637e-38
0.14142859 0.02157833211 0.7323436388 1.453554846e-38
0.1432381 0.01957836211 0.7322064998 1.45359142e-38
0.14467049 0.01957836211 0.7322064998 1.462917762e-38
0.14610286 0.01957836211 0.7322064998 1.453877004e-38
0.14753523 0.01957836211 0.7322064998 1.444586255e-38
0.14896762 0.01957836211 0.7322064998 1.453985605e-38
0.15040001 0.01957836211 0.7322064998 1.472208511e-38
0.15183239 0.01957836211 0.7322064998 1.490610782e-38
0.15346856 0.01857837211 0.7321379248 1.518161571e-38
0.15490286 0.01857837211 0.7321379248 1.54571236e-38
0.15633714 0.01857837211 0.7321379248 1.582482572e-38
0.15777142 0.01857837211 0.7321379248 1.600885685e-38
0.15962858 0.01657834211 0.7320007818 1.619252784e-38
0.16106668 0.01657834211 0.7320007818 1.600957431e-38
0.16271999 0.01557835211 0.7319322098 1.591737868e-38
0.16416001 0.01557835211 0.7319322098 1.573334756e-38
0.1660381 0.01357837211 0.7317950708 1.554860177e-38
0.16792381 0.01157834211 0.7316579248 1.554788571e-38
0.16937144 0.01157834211 0.7316579248 1.554716824e-38
0.17081906 0.01157834211 0.7316579248 1.563792894e-38
0.17249334 0.01057835211 0.7315893528 1.582159433e-38
0.17394286 0.01057835211 0.7315893528 1.582158872e-38
0.17539237 0.01057835211 0.7315893528 1.591451443e-38
0.17730667 0.008578382115 0.7314522138 1.609963436e-38
0.17922859 0.006578342115 0.7313150708 1.628401301e-38
0.1811581 0.004578372115 0.7311779248 1.591773742e-38
0.18261905 0.004578372115 0.7311779248 1.5639717e-38
0.18431999 0.003578382115 0.7311093568 1.462737134e-38
0.18675047 -0.0004216178854 0.7308350708 1.370721011e-38
0.18846478 -0.001421667885 0.7307664958 1.341267959e-38
0.19092 -0.005421617885 0.7304922138 1.314076043e-38
0.19240001 -0.005421617885 0.7304922138 1.130799656e-38
0.19388001 -0.005421617885 0.7304922138 9.465895842e-39
0.19586286 -0.007421647885 0.7303550678 9.185357291e-39
0.19684 -0.005421617885 0.7304922138 8.916326203e-39
0.19780953 -0.003421647885 0.7306293528 1.011702179e-38
0.19928573 -0.003421647885 0.7306293528 1.140918853e-38
0.20024382 -0.001421667885 0.7307664958 1.315156444e-38
0.2017162 -0.001421667885 0.7307664958 1.49943644e-38
0.20318858 -0.001421667885 0.7307664958 1.527488334e-38
0.20439619 -0.0004216178854 0.7308350708 1.564043867e-38
0.20613335 -0.001421667885 0.7307664958 1.591846329e-38
0.20760573 -0.001421667885 0.7307664958 1.619217191e-38
0.2090781 -0.001421667885 0.7307664958 1.628292841e-38
0.21109524 -0.003421647885 0.7306293528 1.637474569e-38
0.21312 -0.005421617885 0.7304922138 1.628289337e-38
0.2146 -0.005421617885 0.7304922138 1.628325911e-38
0.21608 -0.005421617885 0.7304922138 1.610067133e-38
0.21756001 -0.005421617885 0.7304922138 1.600918756e-38
0.21904001 -0.005421617885 0.7304922138 1.573510899e-38
0.22052 -0.005421617885 0.7304922138 1.545710539e-38
0.22142859 -0.003421647885 0.7306293528 1.333126976e-38
0.22232954 -0.001421667885 0.7307664958 1.13115979e-38
0.22380193 -0.001421667885 0.7307664958 1.158817218e-38
0.22498286 -0.0004216178854 0.7308350708 1.186582826e-38
0.22645333 -0.0004216178854 0.7308350708 1.223747363e-38
0.22733334 0.001578352115 0.7309722108 1.260517575e-38
0.2288 0.001578352115 0.7309722108 1.28835549e-38
0.23026668 0.001578352115 0.7309722108 1.315727333e-38
0.23083048 0.004578372115 0.7311779248 1.352390205e-38
0.23229143 0.004578372115 0.7311779248 1.397985795e-38
0.23375238 0.004578372115 0.7311779248 1.379475763e-38
0.23521332 0.004578372115 0.7311779248 1.361107963e-38
0.23605716 0.006578342115 0.7313150708 1.351959586e-38
0.2375143 0.006578342115 0.7313150708 1.351923293e-38
0.23897144 0.006578342115 0.7313150708 1.360783563e-38
0.23980001 0.008578382115 0.7314522138 1.370576397e-38
0.24125335 0.008578382115 0.7314522138 1.361715146e-38
0.24207048 0.01057835211 0.7315893528 1.36175172e-38
0.24352001 0.01057835211 0.7315893528 1.380155533e-38
0.24464762 0.01157834211 0.7316579248 1.398307673e-38
0.24609526 0.01157834211 0.7316579248 1.389124404e-38
0.24754287 0.01157834211 0.7316579248 1.389124964e-38
0.24899048 0.01157834211 0.7316579248 1.407708004e-38
0.25043812 0.01157834211 0.7316579248 1.426074963e-38
0.25188571 0.01157834211 0.7316579248 1.444513668e-38
0.25333336 0.01157834211 0.7316579248 1.462952514e-38
0.25511619 0.01057835211 0.7315893528 1.472243823e-38
0.25622857 0.01157834211 0.7316579248 1.481571847e-38
0.25767621 0.01157834211 0.7316579248 1.499939927e-38
0.25912383 0.01157834211 0.7316579248 1.527668961e-38
0.26057142 0.01157834211 0.7316579248 1.555218629e-38
0.26201907 0.01157834211 0.7316579248 1.591991503e-38
0.26346669 0.01157834211 0.7316579248 1.637947927e-38
0.26491427 0.01157834211 0.7316579248 1.683900147e-38
0.26636192 0.01157834211 0.7316579248 1.628797448e-38
0.26780954 0.01157834211 0.7316579248 1.58277194e-38
0.26925716 0.01157834211 0.7316579248 1.564332955e-38
0.27106097 0.01057835211 0.7315893528 1.555150526e-38
0.27322668 0.008578382115 0.7314522138 1.546004111e-38
0.27467999 0.008578382115 0.7314522138 1.546039283e-38
0.27613333 0.008578382115 0.7314522138 1.51855982e-38
0.27831429 0.006578342115 0.7313150708 1.500335654e-38
0.27977145 0.006578342115 0.7313150708 1.481967994e-38
0.28196383 0.004578372115 0.7311779248 1.472819197e-38
0.28342476 0.004578372115 0.7311779248 1.463670539e-38
0.2848857 0.004578372115 0.7311779248 1.463561378e-38
0.28672001 0.003578382115 0.7311093568 1.288713662e-38
0.12094286 0.02457835211 0.7339722128 1.15863659e-38
0.12236572 0.02457835211 0.7339722128 1.112680447e-38
0.12378858 0.02457835211 0.7339722128 1.067194719e-38
0.12521143 0.02457835211 0.7339722128 1.159139516e-38
0.12663428 0.02457835211 0.7339722128 1.251083193e-38
0.12805715 0.02457835211 0.7339722128 1.269486726e-38
0.12965333 0.02357836211 0.7339055488 1.287925711e-38
0.13107809 0.02357836211 0.7339055488 1.297037795e-38
0.13250287 0.02357836211 0.7339055488 1.30615156e-38
0.13392763 0.02357836211 0.7339055488 1.315265465e-38
0.13535239 0.02357836211 0.7339055488 1.315192457e-38
0.13714287 0.02157833211 0.7337722098 1.342741845e-38
0.13857144 0.02157833211 0.7337722098 1.370327947e-38
0.14000002 0.02157833211 0.7337722098 1.379654569e-38
0.14142859 0.02157833211 0.7337722098 1.379797922e-38
0.1432381 0.01957836211 0.7336388778 1.389376077e-38
0.14467049 0.01957836211 0.7336388778 1.407922823e-38
0.14610286 0.01957836211 0.7336388778 1.407851496e-38
0.14753523 0.01957836211 0.7336388778 1.416999313e-38
0.14896762 0.01957836211 0.7336388778 1.435402566e-38
0.15040001 0.01957836211 0.7336388778 1.453840851e-38
0.15183239 0.01957836211 0.7336388778 1.499722165e-38
0.15346856 0.01857837211 0.7335722138 1.54560418e-38
0.15490286 0.01857837211 0.7335722138 1.573190983e-38
0.15633714 0.01857837211 0.7335722138 1.609960213e-38
0.15819047 0.01657834211 0.7334388778 1.619250682e-38
0.15962858 0.01657834211 0.7334388778 1.637618482e-38
0.16106668 0.01657834211 0.7334388778 1.610068674e-38
0.16271999 0.01557835211 0.7333722138 1.591702135e-38
0.16459429 0.01357837211 0.7332388778 1.573335597e-38
0.1660381 0.01357837211 0.7332388778 1.564008414e-38
0.1674819 0.01357837211 0.7332388778 1.5823395e-38
0.16937144 0.01157834211 0.7331055428 1.59141641e-38
0.17081906 0.01157834211 0.7331055428 1.591525151e-38
0.17226666 0.01157834211 0.7331055428 1.58244768e-38
0.1737143 0.01157834211 0.7331055428 1.610032801e-38
0.17539237 0.01057835211 0.7330388788 1.637657018e-38
0.17684191 0.01057835211 0.7330388788 1.62847529e-38
0.17922859 0.006578342115 0.7327722108 1.628473468e-38
0.18068573 0.006578342115 0.7327722108 1.600921138e-38
0.18261905 0.004578372115 0.7326388788 1.582553898e-38
0.18408 0.004578372115 0.7326388788 1.53652839e-38
0.18626668 0.001578352115 0.7324388798 1.499685031e-38
0.18822095 -0.0004216178854 0.7323055478 1.46205246e-38
0.19092 -0.005421617885 0.7319722158 1.433604279e-38
0.19240001 -0.005421617885 0.7319722158 1.166957921e-38
0.19388001 -0.005421617885 0.7319722158 9.094949718e-39
0.19586286 -0.007421647885 0.7318388768 9.092791718e-39
0.19734667 -0.007421647885 0.7318388768 9.093164464e-39
0.19780953 -0.003421647885 0.7321055438 1.085527206e-38
0.19928573 -0.003421647885 0.7321055438 1.260303736e-38
0.20024382 -0.001421667885 0.7322388758 1.370544307e-38
0.2017162 -0.001421667885 0.7322388758 1.480782075e-38
0.20318858 -0.001421667885 0.7322388758 1.518017938e-38
0.20439619 -0.0004216178854 0.7323055478 1.554860457e-38
0.20613335 -0.001421667885 0.7322388758 1.5823402e-38
0.20760573 -0.001421667885 0.7322388758 1.609854696e-38
0.2090781 -0.001421667885 0.7322388758 1.637405064e-38
0.21055049 -0.001421667885 0.7322388758 1.664954312e-38
0.21257144 -0.003421647885 0.7321055438 1.646621825e-38
0.2146 -0.005421617885 0.7319722158 1.628362345e-38
0.21608 -0.005421617885 0.7319722158 1.628434092e-38
0.21756001 -0.005421617885 0.7319722158 1.628433531e-38
0.21847619 -0.003421647885 0.7321055438 1.600954068e-38
0.21995239 -0.003421647885 0.7321055438 1.5735123e-38
0.22142859 -0.003421647885 0.7321055438 1.388945878e-38
0.22232954 -0.001421667885 0.7322388758 1.195444637e-38
0.22380193 -0.001421667885 0.7322388758 1.167964754e-38
0.22527431 -0.001421667885 0.7322388758 1.14059277e-38
0.22645333 -0.0004216178854 0.7323055478 1.177541648e-38
0.22733334 0.001578352115 0.7324388798 1.223710649e-38
0.2288 0.001578352115 0.7324388798 1.251261578e-38
0.22966857 0.003578382115 0.7325722118 1.28803249e-38
0.23083048 0.004578372115 0.7326388788 1.32465991e-38
0.23229143 0.004578372115 0.7326388788 1.361107683e-38
0.23375238 0.004578372115 0.7326388788 1.351924834e-38
0.23521332 0.004578372115 0.7326388788 1.3518884e-38
0.23605716 0.006578342115 0.7327722108 1.351923853e-38
0.2375143 0.006578342115 0.7327722108 1.351959166e-38
0.23897144 0.006578342115 0.7327722108 1.351958605e-38
0.24042858 0.006578342115 0.7327722108 1.351958745e-38
0.24125335 0.008578382115 0.7329055468 1.343241688e-38
0.24270667 0.008578382115 0.7329055468 1.334202052e-38
0.24352001 0.01057835211 0.7330388788 1.343457908e-38
0.24496953 0.01057835211 0.7330388788 1.361574035e-38
0.24641907 0.01057835211 0.7330388788 1.352390626e-38
0.24754287 0.01157834211 0.7331055428 1.35231944e-38
0.24899048 0.01157834211 0.7331055428 1.380050015e-38
0.25043812 0.01157834211 0.7331055428 1.40767213e-38
0.25188571 0.01157834211 0.7331055428 1.426110836e-38
0.25333336 0.01157834211 0.7331055428 1.444549541e-38
0.25511619 0.01057835211 0.7330388788 1.453876584e-38
0.25622857 0.01157834211 0.7331055428 1.463168314e-38
0.25767621 0.01157834211 0.7331055428 1.490827143e-38
0.25912383 0.01157834211 0.7331055428 1.527667139e-38
0.26057142 0.01157834211 0.7331055428 1.564399516e-38
0.26201907 0.01157834211 0.7331055428 1.601138339e-38
0.26346669 0.01157834211 0.7331055428 1.619581809e-38
0.26421714 0.01357837211 0.7332388778 1.63798296e-38
0.26636192 0.01157834211 0.7331055428 1.610430489e-38
0.26780954 0.01157834211 0.7331055428 1.582699914e-38
0.26925716 0.01157834211 0.7331055428 1.573551817e-38
0.27106097 0.01057835211 0.7330388788 1.573624264e-38
0.2725105 0.01057835211 0.7330388788 1.564405682e-38
0.27467999 0.008578382115 0.7329055468 1.555185839e-38
0.27685714 0.006578342115 0.7327722108 1.536925939e-38
0.27831429 0.006578342115 0.7327722108 1.518702192e-38
0.27977145 0.006578342115 0.7327722108 1.500263207e-38
0.28196383 0.004578372115 0.7326388788 1.491042803e-38
0.28342476 0.004578372115 0.7326388788 1.491041822e-38
0.28525713 0.003578382115 0.7325722118 1.491077555e-38
0.28672001 0.003578382115 0.7325722118 1.325450803e-38
0.28818285 0.003578382115 0.7325722118 1.160149152e-38
0.12094286 0.02457835211 0.7353950688 1.177649127e-38
0.12203811 0.02657833211 0.7355245938 1.0666562e-38
0.12378858 0.02457835211 0.7353950688 9.660686138e-39
0.12521143 0.02457835211 0.7353950688 1.085599093e-38
0.12663428 0.02457835211 0.7353950688 1.214276267e-38
0.12805715 0.02457835211 0.7353950688 1.223208564e-38
0.12965333 0.02357836211 0.7353303078 1.232392534e-38
0.13107809 0.02357836211 0.7353303078 1.241612377e-38
0.13250287 0.02357836211 0.7353303078 1.260266882e-38
0.13392763 0.02357836211 0.7353303078 1.260267303e-38
0.13571429 0.02157833211 0.7352007838 1.260196117e-38
0.13714287 0.02157833211 0.7352007838 1.296858989e-38
0.13857144 0.02157833211 0.7352007838 1.342776457e-38
0.14000002 0.02157833211 0.7352007838 1.324444951e-38
0.14180572 0.01957836211 0.7350712588 1.315189935e-38
0.1432381 0.01957836211 0.7350712588 1.334346526e-38
0.14467049 0.01957836211 0.7350712588 1.352713485e-38
0.14610286 0.01957836211 0.7350712588 1.371080584e-38
0.14753523 0.01957836211 0.7350712588 1.389447963e-38
0.14896762 0.01957836211 0.7350712588 1.417034906e-38
0.15040001 0.01957836211 0.7350712588 1.444513668e-38
0.15183239 0.01957836211 0.7350712588 1.508762642e-38
