# .PCD v0.7 - Point Cloud Data file format
VERSION 0.7
FIELDS x y z rgb
SIZE 4 4 4 4
TYPE F F F F
COUNT 1 1 1 1
WIDTH 867
HEIGHT 1
VIEWPOINT 0 0 0 1 0 0 0
POINTS 867
DATA ascii
0.35600382 -0.02483078256 0.7967772372 1.26135387e-38
0.25980952 0.02716919744 0.7982534277 9.758621486e-39
0.26128572 0.02716919744 0.7982534277 1.003448951e-38
0.26276192 0.02716919744 0.7982534277 1.012489288e-38
0.26423809 0.02716919744 0.7982534277 1.01249111e-38
0.26571429 0.02716919744 0.7982534277 1.012421185e-38
0.28373715 -0.01183077256 0.7983277134 8.924906353e-39
0.28458667 -0.009830802557 0.7983239039 8.005473793e-39
0.28542858 -0.007830822557 0.7983200945 7.08640557e-39
0.28697145 -0.007830822557 0.7983200945 6.993498081e-39
0.28851432 -0.007830822557 0.7983200945 6.900954929e-39
0.29005715 -0.007830822557 0.7983200945 7.267230526e-39
0.29087999 -0.005830792557 0.7983162849 7.725331809e-39
0.29241905 -0.005830792557 0.7983162849 8.094110125e-39
0.29250288 -0.001830782557 0.7983086657 8.371054345e-39
0.2940343 -0.001830782557 0.7983086657 8.921711393e-39
0.2948305 0.0001691874433 0.7983048563 9.472357229e-39
0.29635811 0.0001691874433 0.7983048563 1.021313124e-38
0.29788575 0.0001691874433 0.7983048563 1.085814892e-38
0.29941335 0.0001691874433 0.7983048563 1.131698589e-38
0.30094096 0.0001691874433 0.7983048563 1.168862005e-38
0.30246857 0.0001691874433 0.7983048563 1.205738576e-38
0.30399621 0.0001691874433 0.7983048563 1.251729051e-38
0.30552381 0.0001691874433 0.7983048563 1.29764792e-38
0.30705145 0.0001691874433 0.7983048563 1.343601401e-38
0.30857906 0.0001691874433 0.7983048563 1.37115191e-38
0.31010669 0.0001691874433 0.7983048563 1.398739974e-38
0.31163427 0.0001691874433 0.7983048563 1.426399924e-38
0.31316191 0.0001691874433 0.7983048563 1.454128818e-38
0.3154743 -0.001830782557 0.7983086657 1.435724864e-38
0.31700572 -0.001830782557 0.7983086657 1.426542156e-38
0.31853715 -0.001830782557 0.7983086657 1.435690673e-38
0.3200686 -0.001830782557 0.7983086657 1.444837789e-38
0.3224 -0.003830812557 0.7983124754 1.463276074e-38
0.32393524 -0.003830812557 0.7983124754 1.481679186e-38
0.32627809 -0.005830792557 0.7983162849 1.454164691e-38
0.3286286 -0.007830822557 0.7983200945 1.426757115e-38
0.33017144 -0.007830822557 0.7983200945 1.408210229e-38
0.33253333 -0.009830802557 0.7983239039 1.399134299e-38
0.33408001 -0.009830802557 0.7983239039 1.426541595e-38
0.33645332 -0.01183077256 0.7983277134 1.453984904e-38
0.33800378 -0.01183077256 0.7983277134 1.435618226e-38
0.33955428 -0.01183077256 0.7983277134 1.426398382e-38
0.3423619 -0.01483079256 0.7983334277 1.408030863e-38
0.34476 -0.01683083256 0.7983372373 1.398845071e-38
0.34632 -0.01683083256 0.7983372373 1.371256447e-38
0.34872952 -0.01883080256 0.7983410468 1.334525752e-38
0.35370669 -0.02683082256 0.798356285 1.29761583e-38
0.35528573 -0.02683082256 0.798356285 1.269992594e-38
0.35686478 -0.02683082256 0.798356285 1.233508668e-38
0.25980952 0.02716919744 0.7997296182 9.851891912e-39
0.26128572 0.02716919744 0.7997296182 1.012560614e-38
0.26276192 0.02716919744 0.7997296182 1.012489008e-38
0.26423809 0.02716919744 0.7997296182 1.021637805e-38
0.26571429 0.02716919744 0.7997296182 1.058337251e-38
0.28373715 -0.01183077256 0.7998781896 9.937259014e-39
0.28528762 -0.01183077256 0.7998781896 8.465375745e-39
0.28613332 -0.009830802557 0.7998705706 7.087125838e-39
0.28697145 -0.007830822557 0.7998629517 6.810185821e-39
0.28851432 -0.007830822557 0.7998629517 6.532176614e-39
0.29005715 -0.007830822557 0.7998629517 7.082121801e-39
0.29160002 -0.007830822557 0.7998629517 7.633137581e-39
0.29241905 -0.005830792557 0.7998553326 8.001201234e-39
0.2932305 -0.003830812557 0.7998477137 8.369257881e-39
0.29476574 -0.003830812557 0.7998477137 8.920986921e-39
0.29556569 -0.001830782557 0.7998400943 9.473789356e-39
0.29709715 -0.001830782557 0.7998400943 1.012022095e-38
0.29862857 -0.001830782557 0.7998400943 1.07638009e-38
0.29941335 0.0001691874433 0.7998324754 1.113187436e-38
0.30094096 0.0001691874433 0.7998324754 1.159463356e-38
0.30246857 0.0001691874433 0.7998324754 1.187372037e-38
0.30399621 0.0001691874433 0.7998324754 1.224071203e-38
0.30552381 0.0001691874433 0.7998324754 1.279173341e-38
0.30705145 0.0001691874433 0.7998324754 1.343565528e-38
0.30857906 0.0001691874433 0.7998324754 1.362039967e-38
0.31010669 0.0001691874433 0.7998324754 1.380372174e-38
0.31163427 0.0001691874433 0.7998324754 1.389700197e-38
0.31316191 0.0001691874433 0.7998324754 1.39891948e-38
0.3154743 -0.001830782557 0.7998400943 1.398991086e-38
0.31700572 -0.001830782557 0.7998400943 1.398956474e-38
0.31853715 -0.001830782557 0.7998400943 1.417324835e-38
0.3200686 -0.001830782557 0.7998400943 1.435690813e-38
0.3224 -0.003830812557 0.7998477137 1.472459763e-38
0.32393524 -0.003830812557 0.7998477137 1.509229695e-38
0.32627809 -0.005830792557 0.7998553326 1.47253123e-38
0.3286286 -0.007830822557 0.7998629517 1.435760878e-38
0.33017144 -0.007830822557 0.7998629517 1.426577188e-38
0.33253333 -0.009830802557 0.7998705706 1.417393919e-38
0.33408001 -0.009830802557 0.7998705706 1.444980721e-38
0.33562669 -0.009830802557 0.7998705706 1.481535833e-38
0.33800378 -0.01183077256 0.7998781896 1.454021478e-38
0.33955428 -0.01183077256 0.7998781896 1.426398663e-38
0.3423619 -0.01483079256 0.7998896183 1.417214833e-38
0.34476 -0.01683083256 0.7998972374 1.408029882e-38
0.34632 -0.01683083256 0.7998972374 1.371294422e-38
0.34872952 -0.01883080256 0.7999048564 1.343709582e-38
0.35285333 -0.02483078256 0.7999277133 1.306833712e-38
0.35528573 -0.02683082256 0.7999353327 1.279283343e-38
0.35772571 -0.02883079256 0.7999429516 1.214676057e-38
0.35930857 -0.02883079256 0.7999429516 1.150789599e-38
0.28528762 -0.01183077256 0.8014286654 8.834878532e-39
0.28613332 -0.009830802557 0.8014172371 7.822531476e-39
0.28768003 -0.009830802557 0.8014172371 7.361198798e-39
0.28851432 -0.007830822557 0.8014058093 6.989917763e-39
0.29077333 -0.009830802557 0.8014172371 7.173595762e-39
0.29160002 -0.007830822557 0.8014058093 7.449466588e-39
0.29314288 -0.007830822557 0.8014058093 7.633503319e-39
0.2939581 -0.005830792557 0.8013943802 7.910078999e-39
0.29476574 -0.003830812557 0.8013829519 8.461445103e-39
0.29630098 -0.003830812557 0.8013829519 9.016404136e-39
0.29783621 -0.003830812557 0.8013829519 9.567058381e-39
0.29937145 -0.003830812557 0.8013829519 1.020955793e-38
0.30015999 -0.001830782557 0.8013715232 1.067233395e-38
0.30169141 -0.001830782557 0.8013715232 1.113366242e-38
0.30322286 -0.001830782557 0.8013715232 1.150172187e-38
0.30475429 -0.001830782557 0.8013715232 1.186978692e-38
0.30628571 -0.001830782557 0.8013715232 1.242331803e-38
0.30781716 -0.001830782557 0.8013715232 1.29764792e-38
0.30934858 -0.001830782557 0.8013715232 1.325269895e-38
0.31088001 -0.001830782557 0.8013715232 1.352856697e-38
0.31241143 -0.001830782557 0.8013715232 1.362040667e-38
0.31316191 0.0001691874433 0.8013600944 1.362077241e-38
0.3154743 -0.001830782557 0.8013715232 1.371333238e-38
0.31700572 -0.001830782557 0.8013715232 1.371406666e-38
0.31853715 -0.001830782557 0.8013715232 1.389775447e-38
0.3200686 -0.001830782557 0.8013715232 1.408140865e-38
0.32160002 -0.001830782557 0.8013715232 1.435654099e-38
0.32393524 -0.003830812557 0.8013829519 1.453913018e-38
0.32627809 -0.005830792557 0.8013943802 1.435617245e-38
0.32781714 -0.005830792557 0.8013943802 1.417357625e-38
0.33017144 -0.007830822557 0.8014058093 1.417357625e-38
0.3317143 -0.007830822557 0.8014058093 1.408102749e-38
0.33408001 -0.009830802557 0.8014172371 1.426470409e-38
0.33562669 -0.009830802557 0.8014172371 1.444837929e-38
0.33800378 -0.01183077256 0.8014286654 1.435654799e-38
0.33955428 -0.01183077256 0.8014286654 1.426434956e-38
0.3423619 -0.01483079256 0.8014458092 1.417251126e-38
0.34476 -0.01683083256 0.8014572374 1.417286579e-38
0.34632 -0.01683083256 0.8014572374 1.389699637e-38
0.34788001 -0.01683083256 0.8014572374 1.362112974e-38
0.35200003 -0.02283081256 0.8014915232 1.334526312e-38
0.35442859 -0.02483078256 0.8015029514 1.306941332e-38
0.35858667 -0.03083082256 0.8015372371 1.251626336e-38
0.36017337 -0.03083082256 0.8015372371 1.205493909e-38
0.28768003 -0.009830802557 0.8029639041 8.004043067e-39
0.28993905 -0.01183077256 0.8029791419 7.450168639e-39
0.29148951 -0.01183077256 0.8029791419 7.356906621e-39
0.29232001 -0.009830802557 0.8029639041 7.265429857e-39
0.29386669 -0.009830802557 0.8029639041 7.357625487e-39
0.29468572 -0.007830822557 0.8029486663 7.543085937e-39
0.29622862 -0.007830822557 0.8029486663 8.002260616e-39
0.2970362 -0.005830792557 0.802933428 8.554352592e-39
0.29783621 -0.003830812557 0.8029181901 9.106804703e-39
0.29937145 -0.003830812557 0.8029181901 9.658900883e-39
0.30090669 -0.003830812557 0.8029181901 1.021315086e-38
0.30169141 -0.001830782557 0.8029029514 1.076667496e-38
0.30322286 -0.001830782557 0.8029029514 1.113473441e-38
0.30475429 -0.001830782557 0.8029029514 1.1502082e-38
0.30628571 -0.001830782557 0.8029029514 1.205525158e-38
0.30781716 -0.001830782557 0.8029029514 1.260805541e-38
0.30934858 -0.001830782557 0.8029029514 1.297682953e-38
0.31088001 -0.001830782557 0.8029029514 1.334453445e-38
0.31241143 -0.001830782557 0.8029029514 1.334525612e-38
0.31394288 -0.001830782557 0.8029029514 1.334526312e-38
0.3154743 -0.001830782557 0.8029029514 1.343746576e-38
0.31700572 -0.001830782557 0.8029029514 1.35296712e-38
0.31853715 -0.001830782557 0.8029029514 1.37144296e-38
0.3200686 -0.001830782557 0.8029029514 1.389737191e-38
0.32160002 -0.001830782557 0.8029029514 1.398883607e-38
0.32393524 -0.003830812557 0.8029181901 1.408030582e-38
0.32547048 -0.003830812557 0.8029181901 1.407993868e-38
0.32781714 -0.005830792557 0.802933428 1.408137221e-38
0.33017144 -0.007830822557 0.8029486663 1.408172814e-38
0.3317143 -0.007830822557 0.8029486663 1.408137642e-38
0.33408001 -0.009830802557 0.8029639041 1.407994989e-38
0.33645332 -0.01183077256 0.8029791419 1.408139744e-38
0.33800378 -0.01183077256 0.8029791419 1.417288681e-38
0.33955428 -0.01183077256 0.8029791419 1.42647153e-38
0.34152383 -0.01283082256 0.8029867615 1.42647097e-38
0.34391811 -0.01483079256 0.8030019994 1.426470269e-38
0.3454743 -0.01483079256 0.8030019994 1.408138342e-38
0.34788001 -0.01683083256 0.8030172377 1.389771243e-38
0.34944001 -0.01683083256 0.8030172377 1.362220594e-38
0.35185716 -0.01883080256 0.8030324755 1.334598759e-38
0.35772571 -0.02883079256 0.8031086661 1.297829388e-38
0.36017337 -0.03083082256 0.8031239044 1.260737158e-38
0.36176002 -0.03083082256 0.8031239044 1.23307959e-38
0.29029527 -0.01283082256 0.8045391426 8.002613743e-39
0.29184765 -0.01283082256 0.8045391426 7.726758331e-39
0.29304001 -0.01183077256 0.8045296185 7.450888906e-39
0.29459047 -0.01183077256 0.8045296185 7.543078931e-39
0.29541335 -0.009830802557 0.8045105711 7.635271758e-39
0.29696 -0.009830802557 0.8045105711 7.910418113e-39
0.29777145 -0.007830822557 0.8044915232 8.185931608e-39
0.29931432 -0.007830822557 0.8044915232 8.739464119e-39
0.30085716 -0.007830822557 0.8044915232 9.200080734e-39
0.30165336 -0.005830792557 0.8044724753 9.66249101e-39
0.30244192 -0.003830812557 0.8044534279 1.012418102e-38
0.30397716 -0.003830812557 0.8044534279 1.058300117e-38
0.3055124 -0.003830812557 0.8044534279 1.113294075e-38
0.30628571 -0.001830782557 0.80443438 1.159463356e-38
0.30781716 -0.001830782557 0.80443438 1.205631937e-38
0.30934858 -0.001830782557 0.80443438 1.242437742e-38
0.31088001 -0.001830782557 0.80443438 1.28846353e-38
0.31241143 -0.001830782557 0.80443438 1.297719386e-38
0.31394288 -0.001830782557 0.80443438 1.307011397e-38
0.3154743 -0.001830782557 0.80443438 1.316195927e-38
0.31700572 -0.001830782557 0.80443438 1.334563587e-38
0.31853715 -0.001830782557 0.80443438 1.352895373e-38
0.3200686 -0.001830782557 0.80443438 1.371261632e-38
0.32160002 -0.001830782557 0.80443438 1.389699777e-38
0.32393524 -0.003830812557 0.8044534279 1.398882205e-38
0.32547048 -0.003830812557 0.8044534279 1.398917098e-38
0.32781714 -0.005830792557 0.8044724753 1.389769001e-38
0.33017144 -0.007830822557 0.8044915232 1.389768721e-38
0.3317143 -0.007830822557 0.8044915232 1.398989124e-38
0.33408001 -0.009830802557 0.8045105711 1.398990105e-38
0.33645332 -0.01183077256 0.8045296185 1.398992207e-38
0.33800378 -0.01183077256 0.8045296185 1.417361549e-38
0.33955428 -0.01183077256 0.8045296185 1.43576354e-38
0.34110478 -0.01183077256 0.8045296185 1.426543136e-38
0.3430762 -0.01283082256 0.8045391426 1.417430352e-38
0.34462857 -0.01283082256 0.8045391426 1.398990666e-38
0.34703049 -0.01483079256 0.8045581896 1.38984299e-38
0.34858668 -0.01483079256 0.8045581896 1.362184861e-38
0.35100001 -0.01683083256 0.8045772375 1.334669805e-38
0.35342097 -0.01883080256 0.8045962844 1.306975523e-38
0.36017337 -0.03083082256 0.8047105716 1.279282222e-38
0.36349714 -0.03483077256 0.8047486655 1.251553048e-38
0.36509144 -0.03483077256 0.8047486655 1.214498793e-38
0.36756194 -0.03683081256 0.8047677139 1.169444805e-38
0.36916 -0.03683081256 0.8047677139 1.11520993e-38
0.29172003 -0.01683083256 0.8061372377 8.556140649e-39
0.29328004 -0.01683083256 0.8061372377 8.09481778e-39
0.29339999 -0.01283082256 0.8060915237 7.634557096e-39
0.29495239 -0.01283082256 0.8060915237 7.635267554e-39
0.29614094 -0.01183077256 0.8060800936 7.727463184e-39
0.2976914 -0.01183077256 0.8060800936 7.820018948e-39
0.29850668 -0.009830802557 0.8060572371 7.912577514e-39
0.30005333 -0.009830802557 0.8060572371 8.372478065e-39
0.30160001 -0.009830802557 0.8060572371 8.832733144e-39
0.30165336 -0.005830792557 0.8060115231 9.203665255e-39
0.30319241 -0.005830792557 0.8060115231 9.571726106e-39
0.30397716 -0.003830812557 0.8059886666 1.012345935e-38
0.3055124 -0.003830812557 0.8059886666 1.076415823e-38
0.30704764 -0.003830812557 0.8059886666 1.112970936e-38
0.30781716 -0.001830782557 0.8059658091 1.159426782e-38
0.30934858 -0.001830782557 0.8059658091 1.196232867e-38
0.31088001 -0.001830782557 0.8059658091 1.242438302e-38
0.31241143 -0.001830782557 0.8059658091 1.260949455e-38
0.31394288 -0.001830782557 0.8059658091 1.279317395e-38
0.3154743 -0.001830782557 0.8059658091 1.297721208e-38
0.31700572 -0.001830782557 0.8059658091 1.325271717e-38
0.31853715 -0.001830782557 0.8059658091 1.343638816e-38
0.3200686 -0.001830782557 0.8059658091 1.362112834e-38
0.3224 -0.003830812557 0.8059886666 1.380515106e-38
0.32393524 -0.003830812557 0.8059886666 1.398916958e-38
0.32547048 -0.003830812557 0.8059886666 1.389839907e-38
0.32700571 -0.003830812557 0.8059886666 1.380620624e-38
0.32935619 -0.005830792557 0.8060115231 1.380584891e-38
0.3317143 -0.007830822557 0.8060343815 1.389841028e-38
0.33325714 -0.007830822557 0.8060343815 1.389877882e-38
0.33562669 -0.009830802557 0.8060572371 1.399063113e-38
0.33800378 -0.01183077256 0.8060800936 1.42668733e-38
0.33955428 -0.01183077256 0.8060800936 1.454093785e-38
0.34110478 -0.01183077256 0.8060800936 1.435690112e-38
0.34265524 -0.01183077256 0.8060800936 1.417321892e-38
0.34462857 -0.01283082256 0.8060915237 1.398989685e-38
0.34703049 -0.01483079256 0.8061143812 1.389771523e-38
0.34944001 -0.01683083256 0.8061372377 1.362186402e-38
0.35100001 -0.01683083256 0.8061372377 1.343782589e-38
0.35342097 -0.01883080256 0.8061600942 1.325306889e-38
0.35930857 -0.02883079256 0.8062743805 1.306868604e-38
0.36262858 -0.03283080256 0.8063200945 1.27006308e-38
0.36509144 -0.03483077256 0.8063429519 1.233114763e-38
0.36668572 -0.03483077256 0.8063429519 1.150284711e-38
0.36827999 -0.03483077256 0.8063429519 1.077467077e-38
0.29299429 -0.02483078256 0.8078039032 9.20437151e-39
0.29314476 -0.02083077256 0.8077505702 8.742685705e-39
0.29399621 -0.01883080256 0.8077239042 8.005134679e-39
0.29484004 -0.01683083256 0.8076972372 7.267212309e-39
0.2956762 -0.01483079256 0.8076705712 7.359037996e-39
0.29614094 -0.01183077256 0.8076305702 7.539844734e-39
0.2976914 -0.01183077256 0.8076305702 7.544156529e-39
0.2992419 -0.01183077256 0.8076305702 7.546311726e-39
0.30005333 -0.009830802557 0.8076039042 8.004774545e-39
0.30160001 -0.009830802557 0.8076039042 8.465386955e-39
0.30240002 -0.007830822557 0.8075772382 8.925640633e-39
0.30394286 -0.007830822557 0.8075772382 9.294061618e-39
0.30473143 -0.005830792557 0.8075505712 9.844718665e-39
0.30627048 -0.005830792557 0.8075505712 1.039573304e-38
0.30780953 -0.005830792557 0.8075505712 1.085598952e-38
0.30858287 -0.003830812557 0.8075239042 1.131624741e-38
0.31011811 -0.003830812557 0.8075239042 1.168682219e-38
0.31165335 -0.003830812557 0.8075239042 1.205596484e-38
0.31318858 -0.003830812557 0.8075239042 1.23332734e-38
0.31472382 -0.003830812557 0.8075239042 1.270026366e-38
0.31625906 -0.003830812557 0.8075239042 1.288430179e-38
0.31779429 -0.003830812557 0.8075239042 1.306868184e-38
0.31932953 -0.003830812557 0.8075239042 1.325234582e-38
0.32086477 -0.003830812557 0.8075239042 1.35299977e-38
0.3224 -0.003830812557 0.8075239042 1.371330435e-38
0.32393524 -0.003830812557 0.8075239042 1.38976802e-38
0.32547048 -0.003830812557 0.8075239042 1.380619223e-38
0.32700571 -0.003830812557 0.8075239042 1.380655656e-38
0.32935619 -0.005830792557 0.8075505712 1.380656357e-38
0.3317143 -0.007830822557 0.8075772382 1.371545395e-38
0.33408001 -0.009830802557 0.8076039042 1.380694052e-38
0.33562669 -0.009830802557 0.8076039042 1.389878863e-38
0.33800378 -0.01183077256 0.8076305702 1.40821135e-38
0.33955428 -0.01183077256 0.8076305702 1.426542156e-38
0.34110478 -0.01183077256 0.8076305702 1.417322312e-38
0.34265524 -0.01183077256 0.8076305702 1.408137501e-38
0.34420574 -0.01183077256 0.8076305702 1.40813638e-38
0.34703049 -0.01483079256 0.8076705712 1.417322593e-38
0.34944001 -0.01683083256 0.8076972372 1.38051931e-38
0.35185716 -0.01883080256 0.8077239042 1.352931106e-38
0.35342097 -0.01883080256 0.8077239042 1.343710142e-38
0.35844383 -0.02683082256 0.8078305712 1.32530731e-38
0.36176002 -0.03083082256 0.8078839042 1.297756801e-38
0.3633467 -0.03083082256 0.8078839042 1.261057915e-38
0.36668572 -0.03483077256 0.8079372372 1.205525718e-38
0.36827999 -0.03483077256 0.8079372372 1.140779283e-38
0.3698743 -0.03483077256 0.8079372372 1.215902614e-38
0.29228574 -0.02283081256 0.8093486662 9.482747857e-39
0.29314476 -0.02083077256 0.8093181892 8.927434295e-39
0.29471236 -0.02083077256 0.8093181892 7.91545438e-39
0.29556 -0.01883080256 0.8092877142 6.901666789e-39
0.2956762 -0.01483079256 0.8092267612 7.175012475e-39
0.29650477 -0.01283082256 0.8091962862 7.451243435e-39
0.2976914 -0.01183077256 0.8091810462 7.360489741e-39
0.2992419 -0.01183077256 0.8091810462 7.269374512e-39
0.30079237 -0.01183077256 0.8091810462 7.729273662e-39
0.30160001 -0.009830802557 0.8091505712 8.188808474e-39
0.30314669 -0.009830802557 0.8091505712 8.648343286e-39
0.30394286 -0.007830822557 0.8091200952 9.108957097e-39
0.30548573 -0.007830822557 0.8091200952 9.569212177e-39
0.30702859 -0.007830822557 0.8091200952 1.011986782e-38
0.30857146 -0.007830822557 0.8091200952 1.058263403e-38
0.30934858 -0.005830792557 0.8090896192 1.104289191e-38
0.31088763 -0.005830792557 0.8090896192 1.14113143e-38
0.31165335 -0.003830812557 0.8090591432 1.178081428e-38
0.31318858 -0.003830812557 0.8090591432 1.214923807e-38
0.31472382 -0.003830812557 0.8090591432 1.260842396e-38
0.31625906 -0.003830812557 0.8090591432 1.279210336e-38
0.31779429 -0.003830812557 0.8090591432 1.297648481e-38
0.31932953 -0.003830812557 0.8090591432 1.316050753e-38
0.32086477 -0.003830812557 0.8090591432 1.343673568e-38
0.3224 -0.003830812557 0.8090591432 1.362112834e-38
0.32393524 -0.003830812557 0.8090591432 1.380550559e-38
0.32547048 -0.003830812557 0.8090591432 1.380621044e-38
0.32700571 -0.003830812557 0.8090591432 1.389805014e-38
0.32935619 -0.005830792557 0.8090896192 1.371474209e-38
0.3317143 -0.007830822557 0.8091200952 1.362255206e-38
0.33408001 -0.009830802557 0.8091505712 1.371439316e-38
0.33562669 -0.009830802557 0.8091505712 1.389879143e-38
0.33800378 -0.01183077256 0.8091810462 1.39902794e-38
0.33955428 -0.01183077256 0.8091810462 1.40821107e-38
0.34110478 -0.01183077256 0.8091810462 1.3990271e-38
0.34265524 -0.01183077256 0.8091810462 1.399026119e-38
0.34420574 -0.01183077256 0.8091810462 1.417392377e-38
0.34703049 -0.01483079256 0.8092267612 1.444872681e-38
0.34944001 -0.01683083256 0.8092572382 1.408068277e-38
0.35100001 -0.01683083256 0.8092572382 1.371331837e-38
0.35342097 -0.01883080256 0.8092877142 1.362181918e-38
0.35671431 -0.02283081256 0.8093486662 1.352855997e-38
0.36002287 -0.02683082256 0.8094096192 1.325342482e-38
0.36160195 -0.02683082256 0.8094096192 1.297719807e-38
0.36493334 -0.03083082256 0.8094705712 1.251622552e-38
0.36740002 -0.03283080256 0.8095010472 1.214961642e-38
0.36899048 -0.03283080256 0.8095010472 1.150750223e-38
0.29157713 -0.02083077256 0.8108858082 9.573149825e-39
0.29314476 -0.02083077256 0.8108858082 9.112541619e-39
0.29614475 -0.02483078256 0.8109543812 8.468263821e-39
0.29556 -0.01883080256 0.8108515232 7.730342852e-39
0.29712382 -0.01883080256 0.8108515232 7.637782885e-39
0.29796001 -0.01683083256 0.8108172392 7.545594262e-39
0.29878861 -0.01483079256 0.8107829512 7.266866188e-39
0.2992419 -0.01183077256 0.8107315232 6.98956884e-39
0.30116194 -0.01283082256 0.8107486662 7.541662218e-39
0.30234283 -0.01183077256 0.8107315232 8.002271826e-39
0.30314669 -0.009830802557 0.8106972382 8.371763402e-39
0.30469334 -0.009830802557 0.8106972382 8.740540317e-39
0.30623999 -0.009830802557 0.8106972382 9.200435262e-39
0.30702859 -0.007830822557 0.8106629522 9.752165704e-39
0.30857146 -0.007830822557 0.8106629522 1.021206205e-38
0.31011429 -0.007830822557 0.8106629522 1.067698345e-38
0.31088763 -0.005830792557 0.8106286662 1.113616654e-38
0.31242666 -0.005830792557 0.8106286662 1.159749922e-38
0.31396571 -0.005830792557 0.8106286662 1.19659216e-38
0.31472382 -0.003830812557 0.8105943812 1.233470693e-38
0.31625906 -0.003830812557 0.8105943812 1.260806943e-38
0.31779429 -0.003830812557 0.8105943812 1.288428778e-38
0.31932953 -0.003830812557 0.8105943812 1.306795316e-38
0.32086477 -0.003830812557 0.8105943812 1.33438324e-38
0.3224 -0.003830812557 0.8105943812 1.352787754e-38
0.32393524 -0.003830812557 0.8105943812 1.371189465e-38
0.32547048 -0.003830812557 0.8105943812 1.38962719e-38
0.32700571 -0.003830812557 0.8105943812 1.408066175e-38
0.32935619 -0.005830792557 0.8106286662 1.37136799e-38
0.3317143 -0.007830822557 0.8106629522 1.334705538e-38
0.33408001 -0.009830802557 0.8106972382 1.362220454e-38
0.33562669 -0.009830802557 0.8106972382 1.380696014e-38
0.33800378 -0.01183077256 0.8107315232 1.389880404e-38
0.33955428 -0.01183077256 0.8107315232 1.408354703e-38
0.34110478 -0.01183077256 0.8107315232 1.38984369e-38
0.34265524 -0.01183077256 0.8107315232 1.371511764e-38
0.34420574 -0.01183077256 0.8107315232 1.389842429e-38
0.34703049 -0.01483079256 0.8107829512 1.417357485e-38
0.34858668 -0.01483079256 0.8107829512 1.398954793e-38
0.35100001 -0.01683083256 0.8108172392 1.380549018e-38
0.35342097 -0.01883080256 0.8108515232 1.371362665e-38
0.35498476 -0.01883080256 0.8108515232 1.371221274e-38
0.35828573 -0.02283081256 0.8109200942 1.343672868e-38
0.36072955 -0.02483078256 0.8109543812 1.316014599e-38
0.36318097 -0.02683082256 0.8109886662 1.279352287e-38
0.36564001 -0.02883079256 0.8110229512 1.242688294e-38
0.36899048 -0.03283080256 0.8110915232 1.169110736e-38
0.37146857 -0.03483077256 0.8111258082 1.09557914e-38
0.37306285 -0.03483077256 0.8111258082 1.151657563e-38
0.29157713 -0.02083077256 0.8124534282 9.66427206e-39
0.29172003 -0.01683083256 0.8123772382 9.388769776e-39
0.29614475 -0.02483078256 0.8125296202 9.021433396e-39
0.29772002 -0.02483078256 0.8125296202 8.651217349e-39
0.2978476 -0.02083077256 0.8124534282 8.188088206e-39
0.29868764 -0.01883080256 0.8124153312 7.727837331e-39
0.29878861 -0.01483079256 0.8123391422 7.26543266e-39
0.2992419 -0.01183077256 0.8122820002 6.806611109e-39
0.30116194 -0.01283082256 0.8123010482 7.358338748e-39
0.30271432 -0.01283082256 0.8123010482 7.911145387e-39
0.30389333 -0.01183077256 0.8122820002 8.095532443e-39
0.30544382 -0.01183077256 0.8122820002 8.372475262e-39
0.30623999 -0.009830802557 0.8122439052 8.832730341e-39
0.30778667 -0.009830802557 0.8122439052 9.383030057e-39
0.30857146 -0.007830822557 0.8122058092 9.84185301e-39
0.31011429 -0.007830822557 0.8122058092 1.039896444e-38
0.31165716 -0.007830822557 0.8122058092 1.095284727e-38
0.31242666 -0.005830792557 0.8121677132 1.150422879e-38
0.31396571 -0.005830792557 0.8121677132 1.178297508e-38
0.31550476 -0.005830792557 0.8121677132 1.214924788e-38
0.31704384 -0.005830792557 0.8121677132 1.242404391e-38
0.31779429 -0.003830812557 0.8121296182 1.279174042e-38
0.31932953 -0.003830812557 0.8121296182 1.297612327e-38
0.32086477 -0.003830812557 0.8121296182 1.325127803e-38
0.3224 -0.003830812557 0.8121296182 1.343495603e-38
0.32393524 -0.003830812557 0.8121296182 1.371117298e-38
0.32547048 -0.003830812557 0.8121296182 1.398667386e-38
0.32700571 -0.003830812557 0.8121296182 1.435545638e-38
0.32935619 -0.005830792557 0.8121677132 1.371333238e-38
0.3317143 -0.007830822557 0.8122058092 1.316267253e-38
0.33408001 -0.009830802557 0.8122439052 1.343853215e-38
0.33562669 -0.009830802557 0.8122439052 1.38065944e-38
0.33717334 -0.009830802557 0.8122439052 1.389915016e-38
0.33871999 -0.009830802557 0.8122439052 1.408246102e-38
0.34110478 -0.01183077256 0.8122820002 1.371511764e-38
0.34265524 -0.01183077256 0.8122820002 1.343853635e-38
0.34420574 -0.01183077256 0.8122820002 1.371260791e-38
0.34618098 -0.01283082256 0.8123010482 1.398990386e-38
0.34858668 -0.01483079256 0.8123391422 1.399025979e-38
0.35100001 -0.01683083256 0.8123772382 1.398952551e-38
0.35256001 -0.01683083256 0.8123772382 1.389731446e-38
0.35498476 -0.01883080256 0.8124153312 1.389589214e-38
0.35828573 -0.02283081256 0.8124915232 1.362039967e-38
0.35985717 -0.02283081256 0.8124915232 1.34370776e-38
0.36230478 -0.02483078256 0.8125296202 1.307008454e-38
0.36564001 -0.02883079256 0.8126058092 1.270239223e-38
0.36810669 -0.03083082256 0.8126439062 1.177794863e-38
0.37146857 -0.03483077256 0.8127200942 1.095540745e-38
0.37306285 -0.03483077256 0.8127200942 1.068208698e-38
0.29314476 -0.02083077256 0.8140210472 9.666434264e-39
0.29614475 -0.02483078256 0.8141048572 9.297304223e-39
0.29772002 -0.02483078256 0.8141048572 8.92924197e-39
0.29857147 -0.02283081256 0.8140629532 8.465399567e-39
0.29941526 -0.02083077256 0.8140210472 8.093749991e-39
0.29952002 -0.01683083256 0.8139372392 7.542735613e-39
0.30108002 -0.01683083256 0.8139372392 7.083548323e-39
0.30190095 -0.01483079256 0.8138953332 7.451599365e-39
0.30271432 -0.01283082256 0.8138534282 7.911854444e-39
0.30426666 -0.01283082256 0.8138534282 8.003332609e-39
0.30544382 -0.01183077256 0.8138324772 8.188439932e-39
0.30699429 -0.01183077256 0.8138324772 8.646902751e-39
0.30854478 -0.01183077256 0.8138324772 9.105728506e-39
0.30933335 -0.009830802557 0.8137905712 9.567066789e-39
0.31088001 -0.009830802557 0.8137905712 9.937633161e-39
0.31165716 -0.007830822557 0.8137486672 1.058370602e-38
0.3132 -0.007830822557 0.8137486672 1.113545328e-38
0.31396571 -0.005830792557 0.8137067612 1.150317081e-38
0.31550476 -0.005830792557 0.8137067612 1.187087713e-38
0.31704384 -0.005830792557 0.8137067612 1.223822613e-38
0.31858286 -0.005830792557 0.8137067612 1.260592264e-38
0.31932953 -0.003830812557 0.8136648572 1.278994816e-38
0.32086477 -0.003830812557 0.8136648572 1.306617071e-38
0.3224 -0.003830812557 0.8136648572 1.32509165e-38
0.32393524 -0.003830812557 0.8136648572 1.352749919e-38
0.32627809 -0.005830792557 0.8137067612 1.371117018e-38
0.32781714 -0.005830792557 0.8137067612 1.398776267e-38
0.32935619 -0.005830792557 0.8137067612 1.371262613e-38
0.3317143 -0.007830822557 0.8137486672 1.343746716e-38
0.33408001 -0.009830802557 0.8137905712 1.362184441e-38
0.33562669 -0.009830802557 0.8137905712 1.389842429e-38
0.33717334 -0.009830802557 0.8137905712 1.417392798e-38
0.33871999 -0.009830802557 0.8137905712 1.454091263e-38
0.3402667 -0.009830802557 0.8137905712 1.417321331e-38
0.34265524 -0.01183077256 0.8138324772 1.380516087e-38
0.34420574 -0.01183077256 0.8138324772 1.3989199e-38
0.34618098 -0.01283082256 0.8138534282 1.417357625e-38
0.34858668 -0.01483079256 0.8138953332 1.417356644e-38
0.35100001 -0.01683083256 0.8139372392 1.426539633e-38
0.35256001 -0.01683083256 0.8139372392 1.417248043e-38
0.35498476 -0.01883080256 0.8139791412 1.398773745e-38
0.35741714 -0.02083077256 0.8140210472 1.371223516e-38
0.35985717 -0.02283081256 0.8140629532 1.352962075e-38
0.36230478 -0.02483078256 0.8141048572 1.325373591e-38
0.36388001 -0.02483078256 0.8141048572 1.297826165e-38
0.36722288 -0.02883079256 0.8141886662 1.233401188e-38
0.37058097 -0.03283080256 0.8142724762 1.178154436e-38
0.37217146 -0.03283080256 0.8142724762 1.150673712e-38
0.37555239 -0.03683081256 0.8143562842 1.122665539e-38
0.37715051 -0.03683081256 0.8143562842 1.206582017e-38
0.29314476 -0.02083077256 0.8155886662 9.94193795e-39
0.29614475 -0.02483078256 0.8156800942 9.57316524e-39
0.29772002 -0.02483078256 0.8156800942 9.206537917e-39
0.29929525 -0.02483078256 0.8156800942 8.840267926e-39
0.30014288 -0.02283081256 0.8156343812 8.464673695e-39
0.30025142 -0.01883080256 0.8155429512 7.912943253e-39
0.30108002 -0.01683083256 0.8154972382 7.450887505e-39
0.30264002 -0.01683083256 0.8154972382 7.636345153e-39
0.30345714 -0.01483079256 0.8154515252 7.911851641e-39
0.30389333 -0.01183077256 0.8153829502 8.002969673e-39
0.30544382 -0.01183077256 0.8153829502 8.096244302e-39
0.30699429 -0.01183077256 0.8153829502 8.463591892e-39
0.30854478 -0.01183077256 0.8153829502 8.920984119e-39
0.30933335 -0.009830802557 0.8153372372 9.200446473e-39
0.31088001 -0.009830802557 0.8153372372 9.569217782e-39
0.31242666 -0.009830802557 0.8153372372 1.021457318e-38
0.31397337 -0.009830802557 0.8153372372 1.085958526e-38
0.31474286 -0.007830822557 0.8152915262 1.122729718e-38
0.31550476 -0.005830792557 0.8152458092 1.168612434e-38
0.3178286 -0.007830822557 0.8152915262 1.205347473e-38
0.31858286 -0.005830792557 0.8152458092 1.242152998e-38
0.32012191 -0.005830792557 0.8152458092 1.269810846e-38
0.32166097 -0.005830792557 0.8152458092 1.297504988e-38
0.32320002 -0.005830792557 0.8152458092 1.31590796e-38
0.32473907 -0.005830792557 0.8152458092 1.334417992e-38
0.32627809 -0.005830792557 0.8152458092 1.343565248e-38
0.32781714 -0.005830792557 0.8152458092 1.36196794e-38
0.33017144 -0.007830822557 0.8152915262 1.36207528e-38
0.3317143 -0.007830822557 0.8152915262 1.37125925e-38
0.33408001 -0.009830802557 0.8153372372 1.380550839e-38
0.33562669 -0.009830802557 0.8153372372 1.398953391e-38
0.33717334 -0.009830802557 0.8153372372 1.454162029e-38
0.33871999 -0.009830802557 0.8153372372 1.509192e-38
0.3402667 -0.009830802557 0.8153372372 1.463238799e-38
0.34265524 -0.01183077256 0.8153829502 1.426506002e-38
0.34420574 -0.01183077256 0.8153829502 1.426507403e-38
0.3457562 -0.01183077256 0.8153829502 1.435689552e-38
0.34773335 -0.01283082256 0.8154058102 1.444943587e-38
0.35014287 -0.01483079256 0.8154515252 1.463274532e-38
0.35256001 -0.01683083256 0.8154972382 1.435615983e-38
0.35412002 -0.01683083256 0.8154972382 1.417213431e-38
0.35741714 -0.02083077256 0.8155886662 1.38962719e-38
0.35898477 -0.02083077256 0.8155886662 1.362111293e-38
0.36230478 -0.02483078256 0.8156800942 1.343635313e-38
0.36476001 -0.02683082256 0.8157258112 1.325269755e-38
0.36633909 -0.02683082256 0.8157258112 1.288537238e-38
0.36969337 -0.03083082256 0.8158172372 1.260878269e-38
0.37217146 -0.03283080256 0.8158629522 1.233147693e-38
0.37465715 -0.03483077256 0.8159086662 1.205456774e-38
0.37715051 -0.03683081256 0.8159543812 1.140995924e-38
0.3787486 -0.03683081256 0.8159543812 1.087083208e-38
0.29614475 -0.02483078256 0.8172553332 9.574238634e-39
0.29772002 -0.02483078256 0.8172553332 9.394508093e-39
0.29929525 -0.02483078256 0.8172553332 8.934250211e-39
0.30014288 -0.02283081256 0.8172058092 8.560451043e-39
0.30098286 -0.02083077256 0.8171562852 8.096251309e-39
0.30034477 -0.01483079256 0.8170077132 7.634555695e-39
0.30264002 -0.01683083256 0.8170572392 7.544149523e-39
0.30345714 -0.01483079256 0.8170077132 7.544865586e-39
0.30426666 -0.01283082256 0.8169581912 7.728535177e-39
0.30581906 -0.01283082256 0.8169581912 7.912214578e-39
0.30699429 -0.01183077256 0.8169334272 8.186653277e-39
0.30854478 -0.01183077256 0.8169334272 8.552928873e-39
0.30933335 -0.009830802557 0.8168839052 8.923509258e-39
0.31088001 -0.009830802557 0.8168839052 9.2926393e-39
0.31242666 -0.009830802557 0.8168839052 9.847592728e-39
0.31397337 -0.009830802557 0.8168839052 1.040004624e-38
0.31474286 -0.007830822557 0.8168343812 1.085958806e-38
0.31628576 -0.007830822557 0.8168343812 1.140917591e-38
0.3178286 -0.007830822557 0.8168343812 1.168469361e-38
0.31937146 -0.007830822557 0.8168343812 1.205239013e-38
0.3209143 -0.007830822557 0.8168343812 1.24240341e-38
0.32166097 -0.005830792557 0.8167848572 1.270025805e-38
0.32320002 -0.005830792557 0.8167848572 1.288357171e-38
0.32473907 -0.005830792557 0.8167848572 1.306902656e-38
0.32627809 -0.005830792557 0.8167848572 1.316049351e-38
0.32781714 -0.005830792557 0.8167848572 1.334379036e-38
0.32935619 -0.005830792557 0.8167848572 1.343704537e-38
0.3317143 -0.007830822557 0.8168343812 1.352889908e-38
0.33408001 -0.009830802557 0.8168839052 1.371294843e-38
0.33562669 -0.009830802557 0.8168839052 1.389733268e-38
0.33717334 -0.009830802557 0.8168839052 1.41731951e-38
0.33871999 -0.009830802557 0.8168839052 1.444906592e-38
0.3402667 -0.009830802557 0.8168839052 1.43568787e-38
0.34265524 -0.01183077256 0.8169334272 1.417358746e-38
0.34420574 -0.01183077256 0.8169334272 1.417324975e-38
0.3457562 -0.01183077256 0.8169334272 1.426506843e-38
0.34773335 -0.01283082256 0.8169581912 1.435724584e-38
0.34928575 -0.01283082256 0.8169581912 1.444944007e-38
0.35169908 -0.01483079256 0.8170077132 1.426505161e-38
0.35412002 -0.01683083256 0.8170572392 1.408066596e-38
0.35654858 -0.01883080256 0.8171067612 1.389663904e-38
0.35898477 -0.02083077256 0.8171562852 1.371296384e-38
0.36142859 -0.02283081256 0.8172058092 1.343709441e-38
0.36388001 -0.02483078256 0.8172553332 1.325342202e-38
0.36633909 -0.02683082256 0.8173048572 1.30693909e-38
0.36880571 -0.02883079256 0.8173543812 1.288536678e-38
0.37306285 -0.03483077256 0.8175029532 1.260843236e-38
0.37555239 -0.03683081256 0.8175524752 1.233182726e-38
0.37715051 -0.03683081256 0.8175524752 1.177828073e-38
0.38055432 -0.04083081256 0.8176515232 1.13166678e-38
0.38216004 -0.04083081256 0.8176515232 1.215689616e-38
0.38376576 -0.04083081256 0.8176515232 1.309178645e-38
0.29772002 -0.02483078256 0.8188305702 9.576758169e-39
0.29929525 -0.02483078256 0.8188305702 9.120093216e-39
0.30087048 -0.02483078256 0.8188305702 8.747003105e-39
0.30025142 -0.01883080256 0.8186705712 8.279566371e-39
0.30108002 -0.01683083256 0.8186172382 7.911501317e-39
0.30264002 -0.01683083256 0.8186172382 7.543794994e-39
0.30420002 -0.01683083256 0.8186172382 7.176094277e-39
0.30501333 -0.01483079256 0.8185639042 7.451599365e-39
0.30581906 -0.01283082256 0.8185105712 7.818228088e-39
0.30699429 -0.01183077256 0.8184839042 8.001184418e-39
0.30854478 -0.01183077256 0.8184839042 8.185584086e-39
0.30933335 -0.009830802557 0.8184305712 8.555091077e-39
0.31088001 -0.009830802557 0.8184305712 9.017132811e-39
0.31242666 -0.009830802557 0.8184305712 9.480610877e-39
0.31397337 -0.009830802557 0.8184305712 1.003270426e-38
0.31474286 -0.007830822557 0.8183772392 1.058372144e-38
0.31628576 -0.007830822557 0.8183772392 1.113294355e-38
0.3178286 -0.007830822557 0.8183772392 1.140773538e-38
0.31937146 -0.007830822557 0.8183772392 1.17754375e-38
0.3209143 -0.007830822557 0.8183772392 1.215031567e-38
0.32245716 -0.007830822557 0.8183772392 1.251550946e-38
0.32320002 -0.005830792557 0.8183239042 1.26066317e-38
0.32473907 -0.005830792557 0.8183239042 1.279209074e-38
0.32708573 -0.007830822557 0.8183772392 1.288535697e-38
0.32781714 -0.005830792557 0.8183239042 1.306865521e-38
0.33017144 -0.007830822557 0.8183772392 1.316191303e-38
0.3317143 -0.007830822557 0.8183772392 1.33452365e-38
0.33408001 -0.009830802557 0.8184305712 1.35289187e-38
0.33562669 -0.009830802557 0.8184305712 1.380442799e-38
0.33717334 -0.009830802557 0.8184305712 1.38044322e-38
0.33871999 -0.009830802557 0.8184305712 1.389698656e-38
0.3402667 -0.009830802557 0.8184305712 1.398954092e-38
0.34265524 -0.01183077256 0.8184839042 1.417322593e-38
0.34420574 -0.01183077256 0.8184839042 1.41739574e-38
0.3457562 -0.01183077256 0.8184839042 1.417359026e-38
0.34730667 -0.01183077256 0.8184839042 1.426541595e-38
0.34928575 -0.01283082256 0.8185105712 1.435760878e-38
0.35169908 -0.01483079256 0.8185639042 1.417429652e-38
0.35325524 -0.01483079256 0.8185639042 1.3989192e-38
0.35654858 -0.01883080256 0.8186705712 1.38973593e-38
0.35898477 -0.02083077256 0.8187239042 1.38055182e-38
0.3605524 -0.02083077256 0.8187239042 1.353000611e-38
0.36212 -0.02083077256 0.8187239042 1.334596798e-38
0.36457145 -0.02283081256 0.8187772392 1.325376674e-38
0.3679181 -0.02683082256 0.8188839052 1.325234022e-38
0.37217146 -0.03283080256 0.8190439042 1.288500664e-38
0.37465715 -0.03483077256 0.8190972372 1.260804701e-38
0.37715051 -0.03683081256 0.8191505712 1.214669891e-38
0.37965143 -0.03883078256 0.8192039042 1.17786801e-38
0.38216004 -0.04083081256 0.8192572392 1.113551213e-38
0.38376576 -0.04083081256 0.8192572392 1.059531718e-38
0.3015981 -0.02683082256 0.8204629512 9.117226159e-39
0.30244571 -0.02483078256 0.8204058092 8.650858616e-39
0.30328572 -0.02283081256 0.8203486672 8.189523136e-39
0.3041181 -0.02083077256 0.8202915232 7.35905341e-39
0.30494285 -0.01883080256 0.8202343802 6.439263519e-39
0.30576003 -0.01683083256 0.8201772382 6.990276496e-39
0.30732003 -0.01683083256 0.8201772382 7.541288071e-39
0.30812573 -0.01483079256 0.8201200942 7.725675127e-39
0.30892384 -0.01283082256 0.8200629522 7.910076196e-39
0.31047621 -0.01283082256 0.8200629522 8.278508391e-39
0.31164572 -0.01183077256 0.8200343792 8.650150961e-39
0.31242666 -0.009830802557 0.8199772372 9.203312128e-39
0.31397337 -0.009830802557 0.8199772372 9.666438468e-39
0.31552002 -0.009830802557 0.8199772372 1.021601932e-38
0.31628576 -0.007830822557 0.8199200942 1.07648757e-38
0.31861335 -0.009830802557 0.8199772372 1.104037798e-38
0.31937146 -0.007830822557 0.8199200942 1.140700951e-38
0.3209143 -0.007830822557 0.8199200942 1.16846754e-38
0.32245716 -0.007830822557 0.8199200942 1.196270002e-38
0.324 -0.007830822557 0.8199200942 1.214709688e-38
0.32473907 -0.005830792557 0.8198629522 1.233148534e-38
0.32708573 -0.007830822557 0.8199200942 1.260878549e-38
0.3286286 -0.007830822557 0.8199200942 1.279352147e-38
0.33017144 -0.007830822557 0.8199200942 1.288642195e-38
0.3317143 -0.007830822557 0.8199200942 1.307081461e-38
0.33408001 -0.009830802557 0.8199772372 1.325341361e-38
0.33562669 -0.009830802557 0.8199772372 1.352785371e-38
0.33717334 -0.009830802557 0.8199772372 1.362005775e-38
0.33871999 -0.009830802557 0.8199772372 1.380408327e-38
0.3402667 -0.009830802557 0.8199772372 1.417249865e-38
0.34265524 -0.01183077256 0.8200343792 1.444872961e-38
0.34420574 -0.01183077256 0.8200343792 1.426434956e-38
0.3457562 -0.01183077256 0.8200343792 1.417215393e-38
0.34730667 -0.01183077256 0.8200343792 1.408067577e-38
0.34928575 -0.01283082256 0.8200629522 1.40810317e-38
0.35083812 -0.01283082256 0.8200629522 1.39891948e-38
0.35325524 -0.01483079256 0.8201200942 1.398955493e-38
0.35568002 -0.01683083256 0.8201772382 1.389736351e-38
0.35811239 -0.01883080256 0.8202343802 1.380516087e-38
0.3605524 -0.02083077256 0.8202915232 1.36218416e-38
0.36212 -0.02083077256 0.8202915232 1.343851533e-38
0.36457145 -0.02283081256 0.8203486672 1.352890329e-38
0.3679181 -0.02683082256 0.8204629512 1.371150789e-38
0.36949715 -0.02683082256 0.8204629512 1.343565248e-38
0.37286669 -0.03083082256 0.8205772382 1.306829648e-38
0.37535241 -0.03283080256 0.8206343802 1.260838892e-38
0.3787486 -0.03683081256 0.8207486682 1.214849678e-38
0.38125333 -0.03883078256 0.8208058102 1.141238209e-38
0.38285524 -0.03883078256 0.8208058102 1.067634026e-38
0.3015981 -0.02683082256 0.8220420012 9.485640137e-39
0.30317718 -0.02683082256 0.8220420012 9.022503988e-39
0.30475619 -0.02683082256 0.8220420012 8.559374846e-39
0.30485713 -0.02283081256 0.8219200952 7.174303418e-39
0.3056857 -0.02083077256 0.8218591422 5.797129708e-39
0.30650666 -0.01883080256 0.8217981902 6.532532543e-39
0.30732003 -0.01683083256 0.8217372392 7.266136111e-39
0.30888003 -0.01683083256 0.8217372392 7.448369372e-39
0.30968192 -0.01483079256 0.8216762862 7.726038064e-39
0.31047621 -0.01283082256 0.8216153342 8.001913094e-39
0.31164572 -0.01183077256 0.8215848562 8.372480867e-39
0.31319621 -0.01183077256 0.8215848562 8.834168074e-39
0.31397337 -0.009830802557 0.8215239052 9.386977515e-39
0.31552002 -0.009830802557 0.8215239052 9.848308792e-39
0.31706667 -0.009830802557 0.8215239052 1.039681485e-38
0.31861335 -0.009830802557 0.8215239052 1.06730416e-38
0.32016003 -0.009830802557 0.8215239052 1.103966892e-38
0.32170668 -0.009830802557 0.8215239052 1.122477765e-38
0.32245716 -0.007830822557 0.8214629532 1.150279947e-38
0.324 -0.007830822557 0.8214629532 1.168755226e-38
0.3255429 -0.007830822557 0.8214629532 1.196413355e-38
0.32708573 -0.007830822557 0.8214629532 1.22403575e-38
0.3286286 -0.007830822557 0.8214629532 1.260948334e-38
0.33017144 -0.007830822557 0.8214629532 1.270310269e-38
0.33253333 -0.009830802557 0.8215239052 1.279458646e-38
0.33408001 -0.009830802557 0.8215239052 1.297826446e-38
0.33562669 -0.009830802557 0.8215239052 1.325235423e-38
0.33717334 -0.009830802557 0.8215239052 1.352716147e-38
0.33871999 -0.009830802557 0.8215239052 1.380480494e-38
0.3402667 -0.009830802557 0.8215239052 1.426396701e-38
0.34265524 -0.01183077256 0.8215848562 1.481462546e-38
0.34420574 -0.01183077256 0.8215848562 1.444693034e-38
0.3457562 -0.01183077256 0.8215848562 1.417178539e-38
0.34730667 -0.01183077256 0.8215848562 1.398847733e-38
0.34885716 -0.01183077256 0.8215848562 1.389664044e-38
0.35083812 -0.01283082256 0.8216153342 1.389699777e-38
0.3523905 -0.01283082256 0.8216153342 1.398883887e-38
0.35568002 -0.01683083256 0.8217372392 1.389736911e-38
0.35724002 -0.01683083256 0.8217372392 1.380516507e-38
0.35967618 -0.01883080256 0.8217981902 1.362256047e-38
0.36212 -0.02083077256 0.8218591422 1.35300005e-38
0.36368763 -0.02083077256 0.8218591422 1.389590195e-38
0.3679181 -0.02683082256 0.8220420012 1.426289081e-38
0.3703886 -0.02883079256 0.8221029532 1.389627049e-38
0.37286669 -0.03083082256 0.8221639062 1.36196836e-38
0.37445337 -0.03083082256 0.8221639062 1.306830769e-38
0.3778457 -0.03483077256 0.8222858082 1.260913441e-38
0.38125333 -0.03883078256 0.8224077132 1.169114239e-38
0.38376576 -0.04083081256 0.8224686662 1.086106363e-38
0.38537145 -0.04083081256 0.8224686662 1.049052108e-38
0.38697717 -0.04083081256 0.8224686662 1.01350621e-38
0.30317718 -0.02683082256 0.8236210492 9.298009076e-39
0.30549145 -0.02883079256 0.8236858102 8.929226556e-39
0.30633524 -0.02683082256 0.8236210492 7.824325138e-39
0.30717143 -0.02483078256 0.8235562852 6.811623553e-39
0.30725333 -0.02083077256 0.8234267612 6.992426088e-39
0.30807051 -0.01883080256 0.8233620002 7.266492041e-39
0.30888003 -0.01683083256 0.8232972402 7.358321932e-39
0.30968192 -0.01483079256 0.8232324772 7.54199853e-39
0.31123811 -0.01483079256 0.8232324772 7.818946954e-39
0.31202862 -0.01283082256 0.8231677152 8.187006404e-39
0.31319621 -0.01183077256 0.8231353332 8.557578381e-39
0.31474668 -0.01183077256 0.8231353332 9.018909658e-39
0.31629714 -0.01183077256 0.8231353332 9.569924036e-39
0.31784761 -0.01183077256 0.8231353332 1.012094822e-38
0.31939811 -0.01183077256 0.8231353332 1.039646592e-38
0.32094857 -0.01183077256 0.8231353332 1.076416384e-38
0.32170668 -0.009830802557 0.8230705722 1.095034455e-38
0.32325333 -0.009830802557 0.8230705722 1.122693004e-38
0.32480001 -0.009830802557 0.8230705722 1.150387426e-38
0.32634667 -0.009830802557 0.8230705722 1.178045415e-38
0.32789335 -0.009830802557 0.8230705722 1.205631797e-38
0.3286286 -0.007830822557 0.8230058102 1.242544521e-38
0.33017144 -0.007830822557 0.8230058102 1.261054412e-38
0.33253333 -0.009830802557 0.8230705722 1.279458225e-38
0.33325714 -0.007830822557 0.8230058102 1.297790432e-38
0.33480003 -0.007830822557 0.8230058102 1.316052574e-38
0.33717334 -0.009830802557 0.8230705722 1.343570012e-38
0.33871999 -0.009830802557 0.8230705722 1.371368971e-38
0.3402667 -0.009830802557 0.8230705722 1.407992887e-38
0.34265524 -0.01183077256 0.8231353332 1.44465562e-38
0.34420574 -0.01183077256 0.8231353332 1.417141124e-38
0.3457562 -0.01183077256 0.8231353332 1.398810599e-38
0.34730667 -0.01183077256 0.8231353332 1.389663763e-38
0.34885716 -0.01183077256 0.8231353332 1.389663623e-38
0.35083812 -0.01283082256 0.8231677152 1.389663623e-38
0.3523905 -0.01283082256 0.8231677152 1.398884167e-38
0.35568002 -0.01683083256 0.8232972402 1.389737612e-38
0.35724002 -0.01683083256 0.8232972402 1.380552801e-38
0.35967618 -0.01883080256 0.8233620002 1.371332117e-38
0.36212 -0.02083077256 0.8234267612 1.362148708e-38
0.36368763 -0.02083077256 0.8234267612 1.380372454e-38
0.3670305 -0.02483078256 0.8235562852 1.398739553e-38
0.36949715 -0.02683082256 0.8236210492 1.371188904e-38
0.37197143 -0.02883079256 0.8236858102 1.352858099e-38
0.37535241 -0.03283080256 0.8238153332 1.306833291e-38
0.3778457 -0.03483077256 0.8238800952 1.270099513e-38
0.38125333 -0.03883078256 0.8240096182 1.205815086e-38
0.38376576 -0.04083081256 0.8240743822 1.141312898e-38
0.38537145 -0.04083081256 0.8240743822 1.104433104e-38
0.38789526 -0.04283079256 0.8241391422 1.076780861e-38
0.38950476 -0.04283079256 0.8241391422 1.151008762e-38
0.30549145 -0.02883079256 0.8252686652 9.389477432e-39
0.30633524 -0.02683082256 0.8252000962 8.560797164e-39
0.30791432 -0.02683082256 0.8252000962 7.82181261e-39
0.30800003 -0.02283081256 0.8250629512 7.544156529e-39
0.30882093 -0.02083077256 0.8249943792 7.268647238e-39
0.3096343 -0.01883080256 0.8249258102 7.360481333e-39
0.31044003 -0.01683083256 0.8248572402 7.452326638e-39
0.31200004 -0.01683083256 0.8248572402 7.72820307e-39
0.31202862 -0.01283082256 0.8247200962 8.004059883e-39
0.31358096 -0.01283082256 0.8247200962 8.280992893e-39
0.31474668 -0.01183077256 0.8246858082 8.650127138e-39
0.31629714 -0.01183077256 0.8246858082 9.202933777e-39
0.31784761 -0.01183077256 0.8246858082 9.84579206e-39
0.31939811 -0.01183077256 0.8246858082 1.012130976e-38
0.32094857 -0.01183077256 0.8246858082 1.048793568e-38
0.32249904 -0.01183077256 0.8246858082 1.067591286e-38
0.32404953 -0.01183077256 0.8246858082 1.095142215e-38
0.3256 -0.01183077256 0.8246858082 1.132020187e-38
0.32634667 -0.009830802557 0.8246172392 1.168789698e-38
0.32870096 -0.01183077256 0.8246858082 1.196411533e-38
0.32944003 -0.009830802557 0.8246172392 1.224141128e-38
0.33098668 -0.009830802557 0.8246172392 1.251798976e-38
0.33253333 -0.009830802557 0.8246172392 1.279350606e-38
0.33408001 -0.009830802557 0.8246172392 1.297754559e-38
0.33562669 -0.009830802557 0.8246172392 1.316051313e-38
0.33717334 -0.009830802557 0.8246172392 1.343639236e-38
0.33871999 -0.009830802557 0.8246172392 1.371223376e-38
0.3402667 -0.009830802557 0.8246172392 1.389623967e-38
0.34265524 -0.01183077256 0.8246858082 1.41710385e-38
0.34420574 -0.01183077256 0.8246858082 1.398881365e-38
0.3457562 -0.01183077256 0.8246858082 1.38044336e-38
0.34730667 -0.01183077256 0.8246858082 1.380479934e-38
0.34885716 -0.01183077256 0.8246858082 1.38962803e-38
0.35083812 -0.01283082256 0.8247200962 1.398812e-38
0.3523905 -0.01283082256 0.8247200962 1.408031423e-38
0.35568002 -0.01683083256 0.8248572402 1.39891976e-38
0.35724002 -0.01683083256 0.8248572402 1.389698516e-38
0.35967618 -0.01883080256 0.8249258102 1.380513284e-38
0.36124003 -0.01883080256 0.8249258102 1.371295543e-38
0.36368763 -0.02083077256 0.8249943792 1.371153872e-38
0.36614287 -0.02283081256 0.8250629512 1.380336721e-38
0.36771432 -0.02283081256 0.8250629512 1.361968921e-38
0.37197143 -0.02883079256 0.8252686652 1.343638956e-38
