# .PCD v0.7 - Point Cloud Data file format
VERSION 0.7
FIELDS x y z rgb
SIZE 4 4 4 4
TYPE F F F F
COUNT 1 1 1 1
WIDTH 879
HEIGHT 1
VIEWPOINT 0 0 0 1 0 0 0
POINTS 879
DATA ascii
0.2779531351 0.05815979504 0.78600001 8.926365105e-39
0.2779531351 0.05666262504 0.78600001 9.10860397e-39
0.2779531351 0.05516550504 0.78600001 9.199352059e-39
0.2780407541 0.05433881504 0.78400004 8.923118296e-39
0.2780407541 0.05284547504 0.78400004 8.647267088e-39
0.2781283731 0.05203023504 0.78200006 9.10609985e-39
0.2781283731 0.05054071504 0.78200006 9.565275929e-39
0.2781283731 0.04905119504 0.78200006 9.841858615e-39
0.2780407541 0.04687214504 0.78400004 1.021063693e-38
0.2781283731 0.04607215504 0.78200006 1.085348821e-38
0.2781283731 0.04458260504 0.78200006 1.149634649e-38
0.2781283731 0.04309308504 0.78200006 1.168182235e-38
0.2781283731 0.04160356504 0.78200006 1.195875817e-38
0.2780407541 0.03940549504 0.78400004 1.233075947e-38
0.2780407541 0.03791216504 0.78400004 1.279460748e-38
0.2780407541 0.03641879504 0.78400004 1.32530745e-38
0.2779531351 0.03420549504 0.78600001 1.371153732e-38
0.2779531351 0.03270834504 0.78600001 1.398704661e-38
0.2778655201 0.03048357504 0.78800005 1.426253488e-38
0.2778655201 0.02898264504 0.78800005 1.426502779e-38
0.2778655201 0.02748164504 0.78800005 1.435759056e-38
0.2778655201 0.02598071504 0.78800005 1.445015473e-38
0.2778655201 0.02447977504 0.78800005 1.454305802e-38
0.2778655201 0.02297881504 0.78800005 1.426467466e-38
0.2778217071 0.02110260504 0.78900003 1.407993308e-38
0.2777340881 0.01884549504 0.79100001 1.398702839e-38
0.2776464731 0.01658073504 0.79300004 1.380299306e-38
0.2774712321 0.01354643504 0.79700005 1.362003533e-38
0.2774274261 0.01164546504 0.79800004 1.343744474e-38
0.2772521851 0.008586435042 0.80200005 1.389842009e-38
0.2771645661 0.006285485042 0.80400002 1.435831083e-38
0.2771645661 0.004754065042 0.80400002 1.408208267e-38
0.2770769431 0.002441675042 0.80600005 1.389805715e-38
0.2770769431 0.0009064350418 0.80600005 1.389770262e-38
0.2770769431 -0.0006287949582 0.80600005 1.398918919e-38
0.2769893241 -0.002956414958 0.80800003 1.380552941e-38
0.2768140901 -0.006087834958 0.81200004 1.362185702e-38
0.2768140901 -0.007634514958 0.81200004 1.307048391e-38
0.2767264721 -0.009984964958 0.81400001 1.261129802e-38
0.2766826621 -0.01193928496 0.81500006 1.288643737e-38
0.2765950431 -0.01430308496 0.81700003 1.325375553e-38
0.2765950431 -0.01585927496 0.81700003 1.279455563e-38
0.2765950431 -0.01741549496 0.81700003 1.242730052e-38
0.2793245641 0.06769120504 0.78900003 9.483817048e-39
0.2793664691 0.06650644504 0.78800005 9.293695879e-39
0.2793664691 0.06500548504 0.78800005 9.014610474e-39
0.2793664691 0.06350451504 0.78800005 8.831289807e-39
0.2793664691 0.06200358504 0.78800005 8.465734477e-39
0.2793664691 0.06050264504 0.78800005 8.18987346e-39
0.2793664691 0.05900165504 0.78800005 8.465384153e-39
0.2793245641 0.05717119504 0.78900003 8.74233538e-39
0.2793245641 0.05566832504 0.78900003 8.83346322e-39
0.2793245641 0.05416548504 0.78900003 9.015686671e-39
0.2793664691 0.05299785504 0.78800005 9.016391525e-39
0.2794502811 0.05217120504 0.78600001 9.014604869e-39
0.2794502811 0.05067405504 0.78600001 9.199000333e-39
0.2795340891 0.04985880504 0.78400004 9.381596529e-39
0.2795340891 0.04836547504 0.78400004 9.567421317e-39
0.2795340891 0.04687214504 0.78400004 9.842930608e-39
0.2796178971 0.04607215504 0.78200006 9.843292143e-39
0.2795340891 0.04388550504 0.78400004 9.93620804e-39
0.2796178971 0.04309308504 0.78200006 1.012131817e-38
0.2796178971 0.04160356504 0.78200006 1.039647013e-38
0.2795340891 0.03940549504 0.78400004 1.094748871e-38
0.2795340891 0.03791216504 0.78400004 1.159464197e-38
0.2795340891 0.03641879504 0.78400004 1.233398946e-38
0.2794502811 0.03420549504 0.78600001 1.316051173e-38
0.2794502811 0.03270834504 0.78600001 1.343530496e-38
0.2793664691 0.03048357504 0.78800005 1.380371193e-38
0.2793664691 0.02898264504 0.78800005 1.352927183e-38
0.2793664691 0.02748164504 0.78800005 1.325341221e-38
0.2793245641 0.02561119504 0.78900003 1.362039967e-38
0.2793245641 0.02410832504 0.78900003 1.407957294e-38
0.2793245641 0.02260547504 0.78900003 1.389589775e-38
0.2792407561 0.02035218504 0.79100001 1.371187223e-38
0.2791569481 0.01809120504 0.79300004 1.37115177e-38
0.2791569481 0.01658073504 0.79300004 1.371115336e-38
0.2789893281 0.01354643504 0.79700005 1.371330155e-38
0.2789474231 0.01164546504 0.79800004 1.380585591e-38
0.2787798031 0.008586435042 0.80200005 1.389876901e-38
0.2786959951 0.006285485042 0.80400002 1.408208267e-38
0.2786959951 0.004754065042 0.80400002 1.398989124e-38
0.2786121841 0.002441675042 0.80600005 1.389805014e-38
0.2786121841 0.0009064350418 0.80600005 1.408171553e-38
0.2786121841 -0.0006287949582 0.80600005 1.426505161e-38
0.2785283761 -0.002956414958 0.80800003 1.399064514e-38
0.2783607571 -0.006087834958 0.81200004 1.380553221e-38
0.2782769451 -0.008434504958 0.81400001 1.297936448e-38
0.2782769451 -0.009984964958 0.81400001 1.22435931e-38
0.2782350431 -0.01193928496 0.81500006 1.288643176e-38
0.2781512311 -0.01430308496 0.81700003 1.352854035e-38
0.2781512311 -0.01585927496 0.81700003 1.306647199e-38
0.2778998041 -0.01987260496 0.82300001 1.260917085e-38
0.2778998041 -0.02144023496 0.82300001 1.252602761e-38
0.2808274241 0.06769120504 0.78900003 9.758970409e-39
0.2808674221 0.06650644504 0.78800005 9.573154029e-39
0.2808674221 0.06500548504 0.78800005 9.386261452e-39
0.2808274241 0.06318262504 0.78900003 9.199706587e-39
0.2808274241 0.06167978504 0.78900003 8.557562967e-39
0.2808274241 0.06017691504 0.78900003 8.006912926e-39
0.2807474231 0.05801883504 0.79100001 8.281707555e-39
0.2808274241 0.05717119504 0.78900003 8.650499884e-39
0.2808274241 0.05566832504 0.78900003 8.83239403e-39
0.2808274241 0.05416548504 0.78900003 9.107526372e-39
0.2808274241 0.05266261504 0.78900003 9.107512359e-39
0.2808274241 0.05115977504 0.78900003 9.106794894e-39
0.2808674221 0.04999595504 0.78800005 9.106796295e-39
0.2808674221 0.04849502504 0.78800005 9.198275861e-39
0.2809474231 0.04767978504 0.78600001 9.290472893e-39
0.2809474231 0.04618263504 0.78600001 9.474865554e-39
0.2810274241 0.04537883504 0.78400004 9.475587222e-39
0.2810274241 0.04388550504 0.78400004 9.478095547e-39
0.2810274241 0.04239213504 0.78400004 9.661405004e-39
0.2811074241 0.04160356504 0.78200006 9.936926907e-39
0.2810274241 0.03940549504 0.78400004 1.039683727e-38
0.2810274241 0.03791216504 0.78400004 1.094461465e-38
0.2809474231 0.03570261504 0.78600001 1.196663627e-38
0.2809474231 0.03420549504 0.78600001 1.306902375e-38
0.2809474231 0.03270834504 0.78600001 1.315978726e-38
0.2808674221 0.03048357504 0.78800005 1.334166179e-38
0.2808674221 0.02898264504 0.78800005 1.315834812e-38
0.2808274241 0.02711406504 0.78900003 1.297503446e-38
0.2808274241 0.02561119504 0.78900003 1.315978165e-38
0.2808274241 0.02410832504 0.78900003 1.334452744e-38
0.2808274241 0.02260547504 0.78900003 1.334416871e-38
0.2807474231 0.02035218504 0.79100001 1.325233461e-38
0.2806674231 0.01809120504 0.79300004 1.334309531e-38
0.2805874261 0.01582265504 0.79500002 1.343384901e-38
0.2805074221 0.01354643504 0.79700005 1.362217932e-38
0.2803874221 0.01087978504 0.80000001 1.380836003e-38
0.2803074221 0.008586435042 0.80200005 1.380728384e-38
0.2802274211 0.006285485042 0.80400002 1.389840888e-38
0.2802274211 0.004754065042 0.80400002 1.362255206e-38
0.2801474241 0.002441675042 0.80600005 1.343743073e-38
0.2801474241 0.0009064350418 0.80600005 1.398842829e-38
0.2801474241 -0.0006287949582 0.80600005 1.44476422e-38
0.2800674241 -0.002956414958 0.80800003 1.408069679e-38
0.2799074231 -0.006087834958 0.81200004 1.380589515e-38
0.2798274261 -0.008434504958 0.81400001 1.325451223e-38
0.2798274261 -0.009984964958 0.81400001 1.270276778e-38
0.2797874201 -0.01193928496 0.81500006 1.297790292e-38
0.2797074231 -0.01430308496 0.81700003 1.316083683e-38
0.2796274221 -0.01667451496 0.81900007 1.27909641e-38
0.2796274221 -0.01823452496 0.81900007 1.242370059e-38
0.2796274221 -0.01979452496 0.81900007 1.215437102e-38
0.2823302811 0.06318262504 0.78900003 9.572428157e-39
0.2823302811 0.06167978504 0.78900003 8.741236762e-39
0.2823302811 0.06017691504 0.78900003 7.914361367e-39
0.2821778991 0.05736357504 0.79300004 8.189872059e-39
0.2822540911 0.05651214504 0.79100001 8.556506388e-39
0.2822540911 0.05500549504 0.79100001 8.831663953e-39
0.2822540911 0.05349883504 0.79100001 9.19899753e-39
0.2822540911 0.05199214504 0.79100001 9.199346453e-39
0.2822540911 0.05048549504 0.79100001 9.198987721e-39
0.2822540911 0.04897883504 0.79100001 9.106794894e-39
0.2823302811 0.04815405504 0.78900003 9.014959398e-39
0.2823302811 0.04665121504 0.78900003 9.014960799e-39
0.2823683741 0.04549309504 0.78800005 9.107516562e-39
0.2824445671 0.04468548504 0.78600001 9.016402735e-39
0.2824445671 0.04318836504 0.78600001 9.018193594e-39
0.2825207571 0.04239213504 0.78400004 9.296209808e-39
0.2825207571 0.04089880504 0.78400004 9.571008641e-39
0.2825207571 0.03940549504 0.78400004 9.938001702e-39
0.2824445671 0.03719976504 0.78600001 1.030390736e-38
0.2824445671 0.03570261504 0.78600001 1.159964881e-38
0.2823683741 0.03348547504 0.78800005 1.297682252e-38
0.2823683741 0.03198450504 0.78800005 1.297646519e-38
0.2823683741 0.03048357504 0.78800005 1.297538619e-38
0.2823302811 0.02861690504 0.78900003 1.288283183e-38
0.2823302811 0.02711406504 0.78900003 1.279135506e-38
0.2823302811 0.02561119504 0.78900003 1.26998797e-38
0.2823302811 0.02410832504 0.78900003 1.269951396e-38
0.2822540911 0.02185884504 0.79100001 1.279134245e-38
0.2822540911 0.02035218504 0.79100001 1.288282622e-38
0.2821017101 0.01733690504 0.79500002 1.306614549e-38
0.2820255181 0.01506450504 0.79700005 1.325161855e-38
0.2819112341 0.01240360504 0.80000001 1.353143964e-38
0.2818350421 0.01011404504 0.80200005 1.380729785e-38
0.2818350421 0.008586435042 0.80200005 1.371581548e-38
0.2817588531 0.006285485042 0.80400002 1.371438476e-38
0.2817588531 0.004754065042 0.80400002 1.334704838e-38
0.2816826611 0.002441675042 0.80600005 1.307045728e-38
0.2816826611 0.0009064350418 0.80600005 1.389660961e-38
0.2816826611 -0.0006287949582 0.80600005 1.472314869e-38
0.2816064721 -0.002956414958 0.80800003 1.426435096e-38
0.2814540891 -0.006087834958 0.81200004 1.380516788e-38
0.2813778991 -0.008434504958 0.81400001 1.352965578e-38
0.2813778991 -0.009984964958 0.81400001 1.325378356e-38
0.2812636141 -0.01274689496 0.81700003 1.306974682e-38
0.2811874231 -0.01511454496 0.81900007 1.288499263e-38
0.2811874231 -0.01667451496 0.81900007 1.251549264e-38
0.2811112351 -0.01905357496 0.82100004 1.224075127e-38
0.2811112351 -0.02061739496 0.82100004 1.178305636e-38
0.2838331371 0.06318262504 0.78900003 9.854747758e-39
0.2837607571 0.06103214504 0.79100001 9.29799226e-39
0.2837607571 0.05952549504 0.79100001 8.835587589e-39
0.2836883761 0.05736357504 0.79300004 8.834155462e-39
0.2837607571 0.05651214504 0.79100001 8.9242015e-39
0.2836883761 0.05434262504 0.79300004 8.647623018e-39
0.2836883761 0.05283215504 0.79300004 8.371036129e-39
0.2836883761 0.05132168504 0.79300004 8.647257279e-39
0.2836883761 0.04981118504 0.79300004 8.833439398e-39
0.2836883761 0.04830071504 0.79300004 8.924198697e-39
0.2836883761 0.04679024504 0.79300004 8.923479831e-39
0.2836883761 0.04527977504 0.79300004 8.924554627e-39
0.2836883761 0.04376930504 0.79300004 9.017469123e-39
0.2837607571 0.04295215504 0.79100001 8.92563643e-39
0.2837607571 0.04144549504 0.79100001 8.925635028e-39
0.2838331371 0.04063975504 0.78900003 8.835593194e-39
0.2838693271 0.03948927504 0.78800005 8.745554163e-39
0.2838331371 0.03763404504 0.78900003 9.388048107e-39
0.2838693271 0.03648740504 0.78800005 1.003054345e-38
0.2838693271 0.03498643504 0.78800005 1.113544487e-38
0.2838331371 0.03312549504 0.78900003 1.214886252e-38
0.2838331371 0.03162261504 0.78900003 1.224105535e-38
0.2838331371 0.03011977504 0.78900003 1.242508227e-38
0.2838331371 0.02861690504 0.78900003 1.242185087e-38
0.2838331371 0.02711406504 0.78900003 1.251225424e-38
0.2837607571 0.02487218504 0.79100001 1.242042155e-38
0.2837607571 0.02336549504 0.79100001 1.242040754e-38
0.2836883761 0.02111214504 0.79300004 1.269805241e-38
0.2836159961 0.01885119504 0.79500002 1.288245348e-38
0.2835436131 0.01658260504 0.79700005 1.315904877e-38
0.2835074241 0.01468548504 0.79800004 1.343673148e-38
0.2834350431 0.01240360504 0.80000001 1.362114376e-38
0.2833626611 0.01011404504 0.80200005 1.389771383e-38
0.2832902821 0.007816915042 0.80400002 1.380586572e-38
0.2832902821 0.006285485042 0.80400002 1.380586853e-38
0.2832902821 0.004754065042 0.80400002 1.36218416e-38
0.2832902821 0.003222615042 0.80400002 1.343816921e-38
0.2832178981 0.0009064350418 0.80600005 1.389734529e-38
0.2832178981 -0.0006287949582 0.80600005 1.44487198e-38
0.2831455191 -0.002956414958 0.80800003 1.417285738e-38
0.2830731371 -0.005291664958 0.81000006 1.38962761e-38
0.2830007561 -0.007634514958 0.81200004 1.371296524e-38
0.2828921851 -0.01038691496 0.81500006 1.343889228e-38
0.2828198041 -0.01274689496 0.81700003 1.3161232e-38
0.2827474221 -0.01511454496 0.81900007 1.288501505e-38
0.2827474221 -0.01667451496 0.81900007 1.251732134e-38
0.2827474221 -0.01823452496 0.81900007 1.214963744e-38
0.2827474221 -0.01979452496 0.81900007 1.159900141e-38
0.2852674241 0.06103214504 0.79100001 9.944077733e-39
0.2852674241 0.05952549504 0.79100001 9.75610055e-39
0.2851988511 0.05736357504 0.79300004 9.570275762e-39
0.2851988511 0.05585309504 0.79300004 9.38481391e-39
0.2851302811 0.05367976504 0.79500002 8.463950625e-39
0.2851302811 0.05216550504 0.79500002 7.636708089e-39
0.2851988511 0.05132168504 0.79300004 8.095521232e-39
0.2851988511 0.04981118504 0.79300004 8.55720984e-39
0.2851988511 0.04830071504 0.79300004 8.741240966e-39
0.2851988511 0.04679024504 0.79300004 8.923838564e-39
0.2851302811 0.04459405504 0.79500002 8.927068557e-39
0.2851302811 0.04307976504 0.79500002 8.925996563e-39
0.2851302811 0.04156547504 0.79500002 8.924925971e-39
0.2851302811 0.04005122504 0.79500002 8.924560232e-39
0.2851988511 0.03923788504 0.79300004 8.465375745e-39
0.2851988511 0.03772738504 0.79300004 8.008356264e-39
0.2852674241 0.03692549504 0.79100001 8.929227958e-39
0.2852674241 0.03541880504 0.79100001 9.845797665e-39
0.2853359941 0.03462836504 0.78900003 1.057941525e-38
0.2853359941 0.03312549504 0.78900003 1.140809691e-38
0.2853359941 0.03162261504 0.78900003 1.159428884e-38
0.2853359941 0.03011977504 0.78900003 1.186942679e-38
0.2852674241 0.02788546504 0.79100001 1.205308937e-38
0.2852674241 0.02637884504 0.79100001 1.22360401e-38
0.2852674241 0.02487218504 0.79100001 1.223532123e-38
0.2851302811 0.02187976504 0.79500002 1.223674776e-38
0.2851302811 0.02036547504 0.79500002 1.260515753e-38
0.2850617081 0.01810073504 0.79700005 1.297501905e-38
0.2850274241 0.01620546504 0.79800004 1.325232761e-38
0.2850274241 0.01468548504 0.79800004 1.362040107e-38
0.2848902801 0.01164168504 0.80200005 1.380480494e-38
0.2848902801 0.01011404504 0.80200005 1.398918499e-38
0.2848902801 0.008586435042 0.80200005 1.389770122e-38
0.2848217101 0.006285485042 0.80400002 1.389734389e-38
0.2848217101 0.004754065042 0.80400002 1.380550979e-38
0.2847531371 0.002441675042 0.80600005 1.380586853e-38
0.2847531371 0.0009064350418 0.80600005 1.399025698e-38
0.2846845651 -0.001417364958 0.80800003 1.426540614e-38
0.2846845651 -0.002956414958 0.80800003 1.417321471e-38
0.2846159941 -0.005291664958 0.81000006 1.408030302e-38
0.2845474221 -0.007634514958 0.81200004 1.389663343e-38
0.2844788531 -0.009984964958 0.81400001 1.371403583e-38
0.2844445651 -0.01193928496 0.81500006 1.334489878e-38
0.2843759961 -0.01430308496 0.81700003 1.297684634e-38
0.2843759961 -0.01585927496 0.81700003 1.25169584e-38
0.2843074211 -0.01823452496 0.81900007 1.214962342e-38
0.2843074211 -0.01979452496 0.81900007 1.141530379e-38
0.2867093281 0.05736357504 0.79300004 1.00323245e-38
0.2867093281 0.05585309504 0.79300004 1.021420324e-38
0.2866445671 0.05367976504 0.79500002 9.293698682e-39
0.2865798031 0.05149883504 0.79700005 8.465018414e-39
0.2866445671 0.05065122504 0.79500002 8.464651274e-39
0.2866445671 0.04913693504 0.79500002 8.556488171e-39
0.2866445671 0.04762262504 0.79500002 8.556490974e-39
0.2865798031 0.04542642504 0.79700005 8.556855311e-39
0.2865798031 0.04390832504 0.79700005 8.647620216e-39
0.2865474231 0.04204550504 0.79800004 8.738743852e-39
0.2865798031 0.04087212504 0.79700005 8.831662552e-39
0.2865798031 0.03935405504 0.79700005 8.924560232e-39
0.2866445671 0.03853693504 0.79500002 8.740517896e-39
0.2866445671 0.03702265504 0.79500002 8.46430235e-39
0.2866445671 0.03550833504 0.79500002 9.108235429e-39
0.2867093281 0.03470644504 0.79300004 9.752171309e-39
0.2867740901 0.03391215504 0.79100001 1.03031969e-38
0.2867740901 0.03240549504 0.79100001 1.085423089e-38
0.2867740901 0.03089881504 0.79100001 1.113155206e-38
0.2867740901 0.02939215504 0.79100001 1.15006723e-38
0.2867740901 0.02788546504 0.79100001 1.159213365e-38
0.2867093281 0.02564355504 0.79300004 1.177579763e-38
0.2866445671 0.02339407504 0.79500002 1.195910429e-38
0.2865798031 0.02113691504 0.79700005 1.214492487e-38
0.2865798031 0.01961881504 0.79700005 1.242186349e-38
0.2865474231 0.01772546504 0.79800004 1.270060277e-38
0.2865474231 0.01620546504 0.79800004 1.334453164e-38
0.2864826621 0.01392740504 0.80000001 1.407993728e-38
0.2864178981 0.01164168504 0.80200005 1.407994289e-38
0.2863531381 0.009348335042 0.80400002 1.408101628e-38
0.2863531381 0.007816915042 0.80400002 1.398917798e-38
0.2863531381 0.006285485042 0.80400002 1.389734249e-38
0.2862883751 0.003976915042 0.80600005 1.389806135e-38
0.2862883751 0.002441675042 0.80600005 1.389913895e-38
0.2862883751 0.0009064350418 0.80600005 1.408281135e-38
0.2862236151 -0.001417364958 0.80800003 1.426648234e-38
0.2862236151 -0.002956414958 0.80800003 1.417357205e-38
0.2861588511 -0.005291664958 0.81000006 1.408066035e-38
0.2860940891 -0.007634514958 0.81200004 1.389734809e-38
0.2860293281 -0.009984964958 0.81400001 1.371403303e-38
0.2860293281 -0.01153546496 0.81400001 1.343709021e-38
0.2859969461 -0.01349168496 0.81500006 1.316051453e-38
0.2859321841 -0.01585927496 0.81700003 1.279353829e-38
0.2858674211 -0.01823452496 0.81900007 1.233507266e-38
0.2856731381 -0.02226310496 0.82500005 1.178333802e-38
0.2856731381 -0.02383452496 0.82500005 1.123203217e-38
0.2856731381 -0.02540594496 0.82500005 1.225520426e-38
0.2882198041 0.05585309504 0.79300004 1.104431423e-38
0.2880674231 0.05268550504 0.79800004 1.012561174e-38
0.2880674231 0.05116549504 0.79800004 9.29369728e-39
0.2880979001 0.04998073504 0.79700005 8.926341283e-39
0.2880674231 0.04812550504 0.79800004 8.648686604e-39
0.2880674231 0.04660549504 0.79800004 8.371390657e-39
0.2880674231 0.04508549504 0.79800004 8.187363735e-39
0.2880064721 0.04287979504 0.80000001 8.371038931e-39
0.2880064721 0.04135596504 0.80000001 8.555081268e-39
0.2880674231 0.04052549504 0.79800004 8.739123604e-39
0.2880674231 0.03900548504 0.79800004 9.01532934e-39
0.2880979001 0.03783595504 0.79700005 9.016028588e-39
0.2880979001 0.03631785504 0.79700005 9.016035595e-39
0.2881588531 0.03550833504 0.79500002 9.383384586e-39
0.2881588531 0.03399404504 0.79500002 9.750730774e-39
0.2882198041 0.03319594504 0.79300004 1.00266016e-38
0.2882807581 0.03240549504 0.79100001 1.03950366e-38
0.2882807581 0.03089881504 0.79100001 1.07634716e-38
0.2882807581 0.02939215504 0.79100001 1.113080657e-38
0.2882807581 0.02788546504 0.79100001 1.12229938e-38
0.2882198041 0.02564355504 0.79300004 1.140701792e-38
0.2881588531 0.02339407504 0.79500002 1.168323626e-38
0.2880979001 0.02113691504 0.79700005 1.205309078e-38
0.2880674231 0.01924547504 0.79800004 1.223855683e-38
0.2880674231 0.01772546504 0.79800004 1.242510189e-38
0.2880674231 0.01620546504 0.79800004 1.352856838e-38
0.2880064721 0.01392740504 0.80000001 1.463058872e-38
0.2879455191 0.01164168504 0.80200005 1.435507663e-38
0.2879455191 0.01011404504 0.80200005 1.417140844e-38
0.2878845671 0.007816915042 0.80400002 1.398809898e-38
0.2878845671 0.006285485042 0.80400002 1.389769421e-38
0.2878845671 0.004754065042 0.80400002 1.39906031e-38
0.2878236121 0.002441675042 0.80600005 1.408244701e-38
0.2878236121 0.0009064350418 0.80600005 1.417464964e-38
0.2877626611 -0.001417364958 0.80800003 1.426612361e-38
0.2877626611 -0.002956414958 0.80800003 1.417392798e-38
0.2877017081 -0.005291664958 0.81000006 1.417321051e-38
0.2876407561 -0.007634514958 0.81200004 1.389770402e-38
0.2876407561 -0.009181174958 0.81200004 1.37136757e-38
0.2875798051 -0.01153546496 0.81400001 1.352964738e-38
0.2875493271 -0.01349168496 0.81500006 1.343709441e-38
0.2874883751 -0.01585927496 0.81700003 1.29775596e-38
0.2873664711 -0.01905357496 0.82100004 1.261057215e-38
0.2873664711 -0.02061739496 0.82100004 1.22403561e-38
0.2873055191 -0.02300783496 0.82300001 1.18745135e-38
0.2873055191 -0.02457547496 0.82300001 1.224873726e-38
0.2895874241 0.05268550504 0.79800004 1.003343153e-38
0.2895302811 0.05049884504 0.80000001 9.479887807e-39
0.2895302811 0.04897502504 0.80000001 9.11180874e-39
0.2895302811 0.04745119504 0.80000001 8.741243769e-39
0.2895302811 0.04592737504 0.80000001 8.462514294e-39
0.2894731371 0.04372164504 0.80200005 8.092662583e-39
0.2894731371 0.04219403504 0.80200005 8.185218347e-39
0.2894731371 0.04066643504 0.80200005 8.186312761e-39
0.2895302811 0.03983214504 0.80000001 8.3714369e-39
0.2895874241 0.03900548504 0.79800004 8.6472797e-39
0.2895874241 0.03748551504 0.79800004 8.647974744e-39
0.2896159951 0.03631785504 0.79700005 8.740174578e-39
0.2896159951 0.03479978504 0.79700005 9.015327939e-39
0.2896159951 0.03328165504 0.79700005 9.290831625e-39
0.2896731391 0.03247976504 0.79500002 9.565976578e-39
0.2897302811 0.03168547504 0.79300004 9.841136946e-39
0.2897302811 0.03017500504 0.79300004 1.030068717e-38
0.2897302811 0.02866453504 0.79300004 1.066874802e-38
0.2897302811 0.02715405504 0.79300004 1.085349661e-38
0.2897302811 0.02564355504 0.79300004 1.10382382e-38
0.2896731391 0.02339407504 0.79500002 1.177614656e-38
0.2895874241 0.02076548504 0.79800004 1.260410515e-38
0.2895874241 0.01924547504 0.79800004 1.269773992e-38
0.2895302811 0.01697501504 0.80000001 1.279280961e-38
0.2895302811 0.01545119504 0.80000001 1.343566369e-38
0.2895302811 0.01392740504 0.80000001 1.417033224e-38
0.2894731371 0.01164168504 0.80200005 1.407991626e-38
0.2894731371 0.01011404504 0.80200005 1.389589354e-38
0.2894159951 0.007816915042 0.80400002 1.371294843e-38
0.2894159951 0.006285485042 0.80400002 1.362289958e-38
0.2894159951 0.004754065042 0.80400002 1.380656357e-38
0.2894159951 0.003222615042 0.80400002 1.40824428e-38
0.2893588511 0.0009064350418 0.80600005 1.417393498e-38
0.2893588511 -0.0006287949582 0.80600005 1.426540614e-38
0.2893017091 -0.002956414958 0.80800003 1.43568787e-38
0.2892445671 -0.005291664958 0.81000006 1.44487142e-38
0.2891874241 -0.007634514958 0.81200004 1.408101348e-38
0.2891874241 -0.009181174958 0.81200004 1.380515246e-38
0.2891302821 -0.01153546496 0.81400001 1.362148708e-38
0.2891302821 -0.01308593496 0.81400001 1.343816921e-38
0.2891017091 -0.01504406496 0.81500006 1.316229838e-38
0.2889874231 -0.01823452496 0.81900007 1.288642896e-38
0.2889302811 -0.02061739496 0.82100004 1.251621431e-38
0.2888159941 -0.02383452496 0.82500005 1.215001299e-38
0.2888159941 -0.02540594496 0.82500005 1.233805323e-38
0.2910540911 0.05049884504 0.80000001 9.665345455e-39
0.2910540911 0.04897502504 0.80000001 9.297276197e-39
0.2910007561 0.04677692504 0.80200005 8.927068557e-39
0.2910007561 0.04524928504 0.80200005 8.46179823e-39
0.2910007561 0.04372164504 0.80200005 8.093377246e-39
0.2909474231 0.04150834504 0.80400002 8.000464151e-39
0.2909474231 0.03997692504 0.80400002 7.911150992e-39
0.2910007561 0.03913882504 0.80200005 8.09555066e-39
0.2910540911 0.03830832504 0.80000001 8.279923702e-39
0.2911074221 0.03748551504 0.79800004 8.372103918e-39
0.2911074221 0.03596550504 0.79800004 8.464300949e-39
0.2911340901 0.03479978504 0.79700005 8.647617413e-39
0.2911074221 0.03292548504 0.79800004 8.831285603e-39
0.2911340901 0.03176355504 0.79700005 9.105714493e-39
0.2911874251 0.03096547504 0.79500002 9.38266572e-39
0.2911340901 0.02872738504 0.79700005 9.837549622e-39
0.2911340901 0.02720931504 0.79700005 1.030175496e-38
0.2911340901 0.02569118504 0.79700005 1.048328057e-38
0.2911340901 0.02417308504 0.79700005 1.076236737e-38
0.2911074221 0.02228546504 0.79800004 1.196124547e-38
0.2910540911 0.02002263504 0.80000001 1.315619012e-38
0.2910540911 0.01849883504 0.80000001 1.315727473e-38
0.2910540911 0.01697501504 0.80000001 1.315872507e-38
0.2910540911 0.01545119504 0.80000001 1.343460711e-38
0.2910007561 0.01316928504 0.80200005 1.380336581e-38
0.2909474231 0.01087978504 0.80400002 1.371294843e-38
0.2909474231 0.009348335042 0.80400002 1.371187783e-38
0.2909474231 0.007816915042 0.80400002 1.353000611e-38
0.2909474231 0.006285485042 0.80400002 1.334668964e-38
0.2908940901 0.003976915042 0.80600005 1.371438476e-38
0.2908940901 0.002441675042 0.80600005 1.408173515e-38
0.2908940901 0.0009064350418 0.80600005 1.417357765e-38
0.2908407571 -0.001417364958 0.80800003 1.43568759e-38
0.2908407571 -0.002956414958 0.80800003 1.454053148e-38
0.2907874221 -0.005291664958 0.81000006 1.472349621e-38
0.2907340901 -0.007634514958 0.81200004 1.435580671e-38
0.2907340901 -0.009181174958 0.81200004 1.398847313e-38
0.2906807571 -0.01153546496 0.81400001 1.371333378e-38
0.2906807571 -0.01308593496 0.81400001 1.343781889e-38
0.2906540901 -0.01504406496 0.81500006 1.325413808e-38
0.2905474231 -0.01823452496 0.81900007 1.316193405e-38
0.2904940901 -0.02061739496 0.82100004 1.279242986e-38
0.2904407571 -0.02300783496 0.82300001 1.242549986e-38
0.2904407571 -0.02457547496 0.82300001 1.233551127e-38
0.2924788521 0.04763406504 0.80400002 9.390192094e-39
0.2924788521 0.04610264504 0.80400002 9.112894746e-39
0.2924788521 0.04457122504 0.80400002 8.651210342e-39
0.2924788521 0.04303976504 0.80400002 8.281351626e-39
0.2924293281 0.04082259504 0.80600005 7.816787553e-39
0.2924293281 0.03928735504 0.80600005 7.452319632e-39
0.2924788521 0.03844550504 0.80400002 7.820383285e-39
0.2925283751 0.03761118504 0.80200005 8.188434327e-39
0.2925283751 0.03608358504 0.80200005 8.37173958e-39
0.2926274231 0.03596550504 0.79800004 8.464652675e-39
0.2926274231 0.03444549504 0.79800004 8.739444501e-39
0.2926521851 0.03328165504 0.79700005 8.923112691e-39
0.2926521851 0.03176355504 0.79700005 9.383006235e-39
0.2926521851 0.03024548504 0.79700005 9.751072691e-39
0.2926274231 0.02836546504 0.79800004 1.030209408e-38
0.2925283751 0.02539023504 0.80200005 1.0853477e-38
0.2925283751 0.02386263504 0.80200005 1.112935343e-38
0.2925283751 0.02233499504 0.80200005 1.149704574e-38
0.2925283751 0.02080738504 0.80200005 1.223961481e-38
0.2925283751 0.01927974504 0.80200005 1.306829648e-38
0.2925283751 0.01775214504 0.80200005 1.315799079e-38
0.2925283751 0.01622453504 0.80200005 1.334204714e-38
0.2925283751 0.01469692504 0.80200005 1.352610489e-38
0.2924788521 0.01241120504 0.80400002 1.380374276e-38
0.2924788521 0.01087978504 0.80400002 1.380372314e-38
0.2924788521 0.009348335042 0.80400002 1.389556284e-38
0.2924788521 0.007816915042 0.80400002 1.371225478e-38
0.2924788521 0.006285485042 0.80400002 1.362077522e-38
0.2924293281 0.003976915042 0.80600005 1.398990806e-38
0.2924293281 0.002441675042 0.80600005 1.444872681e-38
0.2924293281 0.0009064350418 0.80600005 1.435689271e-38
0.2924293281 -0.0006287949582 0.80600005 1.435686749e-38
0.2923798041 -0.002956414958 0.80800003 1.435684367e-38
0.2923302801 -0.005291664958 0.81000006 1.444762539e-38
0.2922807561 -0.007634514958 0.81200004 1.417178259e-38
0.2922807561 -0.009181174958 0.81200004 1.389592858e-38
0.2922312341 -0.01153546496 0.81400001 1.371334639e-38
0.2922312341 -0.01308593496 0.81400001 1.353002152e-38
0.2922064701 -0.01504406496 0.81500006 1.343745595e-38
0.2921074221 -0.01823452496 0.81900007 1.325376814e-38
0.2920579001 -0.02061739496 0.82100004 1.288533455e-38
0.2920579001 -0.02218118496 0.82100004 1.260951136e-38
0.2920579001 -0.02374499496 0.82100004 1.214965846e-38
0.2920579001 -0.02530881496 0.82100004 1.169768085e-38
0.2940102801 0.04763406504 0.80400002 9.574944889e-39
0.2939645651 0.04542833504 0.80600005 9.296572745e-39
0.2939645651 0.04389309504 0.80600005 8.837400869e-39
0.2939645651 0.04235786504 0.80600005 8.465751293e-39
0.2939188521 0.04013693504 0.80800003 7.72496607e-39
0.2938731351 0.03790831504 0.81000006 7.084984654e-39
0.2939188521 0.03705883504 0.80800003 7.637429758e-39
0.2939188521 0.03551977504 0.80800003 8.188076996e-39
0.2939645651 0.03468164504 0.80600005 8.37173958e-39
0.2940102801 0.03385120504 0.80400002 8.555414777e-39
0.2940102801 0.03231978504 0.80400002 8.831285603e-39
0.2940102801 0.03078833504 0.80400002 9.107508155e-39
0.2941017101 0.03068930504 0.80000001 9.660314794e-39
0.2941017101 0.02916550504 0.80000001 1.021133618e-38
0.2940102801 0.02619403504 0.80400002 1.076235756e-38
0.2940102801 0.02466261504 0.80400002 1.140593331e-38
0.2940102801 0.02313119504 0.80400002 1.177400257e-38
0.2940559951 0.02233499504 0.80200005 1.223532404e-38
0.2940102801 0.02006834504 0.80400002 1.260983226e-38
0.2940102801 0.01853692504 0.80400002 1.306722309e-38
0.2940559951 0.01775214504 0.80200005 1.325054375e-38
0.2940102801 0.01547408504 0.80400002 1.352570973e-38
0.2940559951 0.01469692504 0.80200005 1.361756204e-38
0.2940102801 0.01241120504 0.80400002 1.380265535e-38
0.2940102801 0.01087978504 0.80400002 1.38951957e-38
0.2940102801 0.009348335042 0.80400002 1.407922963e-38
0.2940102801 0.007816915042 0.80400002 1.39881158e-38
0.2940102801 0.006285485042 0.80400002 1.389699777e-38
0.2939645651 0.003976915042 0.80600005 1.435761158e-38
0.2939645651 0.002441675042 0.80600005 1.481643033e-38
0.2939645651 0.0009064350418 0.80600005 1.453912878e-38
0.2939645651 -0.0006287949582 0.80600005 1.435652277e-38
0.2939188521 -0.002956414958 0.80800003 1.42650348e-38
0.2938731351 -0.005291664958 0.81000006 1.426432434e-38
0.2938274241 -0.007634514958 0.81200004 1.398810739e-38
0.2938274241 -0.009181174958 0.81200004 1.380480074e-38
0.2937817111 -0.01153546496 0.81400001 1.371333098e-38
0.2937817111 -0.01308593496 0.81400001 1.371332257e-38
0.2937588511 -0.01504406496 0.81500006 1.352928444e-38
0.2936674231 -0.01823452496 0.81900007 1.343744474e-38
0.2936217101 -0.02061739496 0.82100004 1.306937968e-38
0.2935759951 -0.02300783496 0.82300001 1.279389281e-38
0.2935759951 -0.02457547496 0.82300001 1.196416438e-38
0.2935759951 -0.02614307496 0.82300001 1.114414273e-38
0.2950179001 0.03925311504 0.82900006 9.847947257e-39
0.2950598041 0.03834834504 0.82700002 9.480610877e-39
0.2950598041 0.03677308504 0.82700002 9.11363323e-39
0.2951017081 0.03587979504 0.82500005 8.741986457e-39
0.2953112331 0.03773689504 0.81500006 8.189179818e-39
0.2953740901 0.03721883504 0.81200004 7.63636337e-39
0.2953740901 0.03567212504 0.81200004 7.91186145e-39
0.2954159941 0.03482261504 0.81000006 8.279195027e-39
0.2954579001 0.03398069504 0.80800003 8.464293943e-39
0.2954998041 0.03314641504 0.80600005 8.649406871e-39
0.2954998041 0.03161117504 0.80600005 9.016755862e-39
0.2954998041 0.03007593504 0.80600005 9.384099248e-39
0.2955417101 0.02925691504 0.80400002 9.935831091e-39
0.2955417101 0.02772548504 0.80400002 1.048721121e-38
0.2955417101 0.02619403504 0.80400002 1.103930879e-38
0.2955417101 0.02466261504 0.80400002 1.159140637e-38
0.2955417101 0.02313119504 0.80400002 1.195947423e-38
0.2955417101 0.02159980504 0.80400002 1.242258796e-38
0.2955417101 0.02006834504 0.80400002 1.279028027e-38
0.2955417101 0.01853692504 0.80400002 1.315834532e-38
0.2955417101 0.01700550504 0.80400002 1.352497545e-38
0.2955417101 0.01547408504 0.80400002 1.389160697e-38
0.2955417101 0.01394263504 0.80400002 1.389269158e-38
0.2955417101 0.01241120504 0.80400002 1.389376217e-38
0.2955417101 0.01087978504 0.80400002 1.389519149e-38
0.2954998041 0.008582625042 0.80600005 1.389591316e-38
0.2955417101 0.007816915042 0.80400002 1.39881116e-38
0.2955417101 0.006285485042 0.80400002 1.398955073e-38
0.2954998041 0.003976915042 0.80600005 1.426578029e-38
0.2954998041 0.002441675042 0.80600005 1.454128397e-38
0.2954998041 0.0009064350418 0.80600005 1.444872961e-38
0.2954998041 -0.0006287949582 0.80600005 1.444801355e-38
0.2954579001 -0.002956414958 0.80800003 1.435725705e-38
0.2954159941 -0.005291664958 0.81000006 1.426612921e-38
0.2953740901 -0.007634514958 0.81200004 1.399025558e-38
0.2953740901 -0.009181174958 0.81200004 1.380658459e-38
0.2953321841 -0.01153546496 0.81400001 1.380622726e-38
0.2953321841 -0.01308593496 0.81400001 1.380586432e-38
0.2953112331 -0.01504406496 0.81500006 1.362147306e-38
0.2952274221 -0.01823452496 0.81900007 1.343780768e-38
0.2951855201 -0.02061739496 0.82100004 1.325414369e-38
0.2951436141 -0.02300783496 0.82300001 1.2978633e-38
0.2951436141 -0.02457547496 0.82300001 1.233578172e-38
0.2951436141 -0.02614307496 0.82300001 1.16929907e-38
0.2965969471 0.03925311504 0.82900006 1.003126652e-38
0.2965969471 0.03767404504 0.82900006 9.756477499e-39
0.2966350411 0.03677308504 0.82700002 9.390213113e-39
0.2966731381 0.03587979504 0.82500005 9.111832562e-39
0.2967112331 0.03499406504 0.82300001 8.647630025e-39
0.2968636131 0.03618452504 0.81500006 8.279207639e-39
0.2968826611 0.03497883504 0.81400001 8.278127238e-39
0.2969207561 0.03412547504 0.81200004 8.37139346e-39
0.2969207561 0.03257882504 0.81200004 8.557211241e-39
0.2969969481 0.03244167504 0.80800003 8.832366004e-39
0.2969969481 0.03090262504 0.80800003 9.199714995e-39
0.2970350431 0.03007593504 0.80600005 9.659971475e-39
0.2970350431 0.02854070504 0.80600005 1.021170472e-38
0.2970731381 0.02772548504 0.80400002 1.076415543e-38
0.2970350431 0.02547022504 0.80600005 1.122512937e-38
0.2970350431 0.02393499504 0.80600005 1.177686682e-38
0.2970731381 0.02313119504 0.80400002 1.214529201e-38
0.2970731381 0.02159980504 0.80400002 1.260517995e-38
0.2970731381 0.02006834504 0.80400002 1.297359113e-38
0.2970731381 0.01853692504 0.80400002 1.334129605e-38
0.2970731381 0.01700550504 0.80400002 1.38001204e-38
0.2970731381 0.01547408504 0.80400002 1.425966502e-38
0.2970731381 0.01394263504 0.80400002 1.407636117e-38
0.2970731381 0.01241120504 0.80400002 1.398666966e-38
0.2970731381 0.01087978504 0.80400002 1.389554322e-38
0.2970731381 0.009348335042 0.80400002 1.38044322e-38
0.2970731381 0.007816915042 0.80400002 1.398846893e-38
0.2970731381 0.006285485042 0.80400002 1.417394199e-38
0.2970350431 0.003976915042 0.80600005 1.426650476e-38
0.2970350431 0.002441675042 0.80600005 1.435725985e-38
0.2970350431 0.0009064350418 0.80600005 1.444909115e-38
0.2969969481 -0.001417364958 0.80800003 1.454092804e-38
0.2969969481 -0.002956414958 0.80800003 1.435761578e-38
0.2969588521 -0.005291664958 0.81000006 1.426541735e-38
0.2969207561 -0.007634514958 0.81200004 1.398990666e-38
0.2969207561 -0.009181174958 0.81200004 1.380623286e-38
0.2968826611 -0.01153546496 0.81400001 1.380623006e-38
0.2968826611 -0.01308593496 0.81400001 1.389734669e-38
0.2968255191 -0.01585927496 0.81700003 1.37136743e-38
0.2967874231 -0.01823452496 0.81900007 1.352965578e-38
0.2967493301 -0.02061739496 0.82100004 1.33459974e-38
0.2967493301 -0.02218118496 0.82100004 1.325378776e-38
0.2967493301 -0.02374499496 0.82100004 1.270276077e-38
0.2967493301 -0.02530881496 0.82100004 1.224325959e-38
0.2981759951 0.03925311504 0.82900006 1.003342592e-38
0.2981759951 0.03767404504 0.82900006 9.850468193e-39
0.2982102801 0.03677308504 0.82700002 9.574241437e-39
0.2982102801 0.03519785504 0.82700002 9.392714431e-39
0.2982445671 0.03430831504 0.82500005 8.927790225e-39
0.2984159951 0.03618452504 0.81500006 8.554709923e-39
0.2984159951 0.03463211504 0.81500006 8.369605403e-39
0.2984331381 0.03342834504 0.81400001 8.280278231e-39
0.2984674231 0.03257882504 0.81200004 8.464306554e-39
0.2984674231 0.03103217504 0.81200004 8.648700617e-39
0.2985359951 0.03090262504 0.80800003 9.016767073e-39
0.2985359951 0.02936357504 0.80800003 9.476666222e-39
0.2985702801 0.02854070504 0.80600005 1.01205965e-38
0.2985702801 0.02700546504 0.80600005 1.076631203e-38
0.2985702801 0.02547022504 0.80600005 1.122620417e-38
0.2985702801 0.02393499504 0.80600005 1.168646205e-38
0.2985702801 0.02239975504 0.80600005 1.205488584e-38
0.2986045671 0.02159980504 0.80400002 1.242473335e-38
0.2986045671 0.02006834504 0.80400002 1.279135366e-38
0.2985702801 0.01779404504 0.80600005 1.315834112e-38
0.2986045671 0.01700550504 0.80400002 1.352568871e-38
0.2986045671 0.01547408504 0.80400002 1.398523333e-38
0.2986045671 0.01394263504 0.80400002 1.389448244e-38
0.2986045671 0.01241120504 0.80400002 1.389626489e-38
0.2985702801 0.01011785504 0.80600005 1.371294142e-38
0.2985702801 0.008582625042 0.80600005 1.352963897e-38
0.2985702801 0.007047385042 0.80600005 1.380587413e-38
0.2985702801 0.005512145042 0.80600005 1.408282816e-38
0.2985702801 0.003976915042 0.80600005 1.426615303e-38
0.2985702801 0.002441675042 0.80600005 1.444910096e-38
0.2985702801 0.0009064350418 0.80600005 1.463240761e-38
0.2985359951 -0.001417364958 0.80800003 1.481428354e-38
0.2985017091 -0.003748804958 0.81000006 1.444873522e-38
0.2984674231 -0.006087834958 0.81200004 1.417287e-38
0.2984674231 -0.007634514958 0.81200004 1.40810359e-38
0.2984331381 -0.009984964958 0.81400001 1.408102889e-38
0.2984331381 -0.01153546496 0.81400001 1.38973523e-38
0.2984331381 -0.01308593496 0.81400001 1.38055168e-38
0.2984159951 -0.01504406496 0.81500006 1.343781748e-38
0.2983817101 -0.01741549496 0.81700003 1.306977485e-38
0.2983474221 -0.01979452496 0.81900007 1.316126843e-38
0.2983131381 -0.02218118496 0.82100004 1.32530773e-38
0.2983131381 -0.02374499496 0.82100004 1.279351587e-38
0.2983131381 -0.02530881496 0.82100004 1.23332762e-38
0.2997550421 0.03925311504 0.82900006 1.003520838e-38
0.2997550421 0.03767404504 0.82900006 9.94266102e-39
0.2997550421 0.03609499504 0.82900006 9.7586369e-39
0.2997855191 0.03519785504 0.82700002 9.666792996e-39
0.2998159951 0.03430831504 0.82500005 9.299801336e-39
0.2998464721 0.03342646504 0.82300001 8.924925971e-39
0.2999683751 0.03463211504 0.81500006 8.552921867e-39
0.2999836151 0.03342834504 0.81400001 8.188444136e-39
0.2999836151 0.03187787504 0.81400001 8.371752192e-39
0.3000140901 0.03103217504 0.81200004 8.556144853e-39
0.3000445661 0.03019404504 0.81000006 8.925644837e-39
0.3000445661 0.02865117504 0.81000006 9.292630892e-39
0.3000750421 0.02782452504 0.80800003 1.002983019e-38
0.3001055181 0.02700546504 0.80600005 1.085778599e-38
0.3001055181 0.02547022504 0.80600005 1.122728177e-38
0.3001055181 0.02393499504 0.80600005 1.168646065e-38
0.3001055181 0.02239975504 0.80600005 1.196447827e-38
0.3001055181 0.02086451504 0.80600005 1.233218038e-38
0.3001055181 0.01932928504 0.80600005 1.27009587e-38
0.3001055181 0.01779404504 0.80600005 1.306794195e-38
0.3001055181 0.01625880504 0.80600005 1.334344844e-38
0.3001055181 0.01472357504 0.80600005 1.371116457e-38
0.3001359961 0.01394263504 0.80400002 1.371189745e-38
0.3001055181 0.01165309504 0.80600005 1.380479653e-38
0.3001055181 0.01011785504 0.80600005 1.352963476e-38
0.3001055181 0.008582625042 0.80600005 1.325341922e-38
0.3001055181 0.007047385042 0.80600005 1.362328074e-38
0.3001055181 0.005512145042 0.80600005 1.399062833e-38
0.3001055181 0.003976915042 0.80600005 1.426614182e-38
0.3001055181 0.002441675042 0.80600005 1.454128537e-38
0.3001055181 0.0009064350418 0.80600005 1.481571146e-38
0.3000750421 -0.001417364958 0.80800003 1.509122075e-38
0.3000445661 -0.003748804958 0.81000006 1.463204748e-38
0.3000140901 -0.006087834958 0.81200004 1.41728798e-38
0.3000140901 -0.007634514958 0.81200004 1.426472651e-38
0.2999836151 -0.009984964958 0.81400001 1.435654659e-38
0.2999836151 -0.01153546496 0.81400001 1.399026679e-38
0.2999683751 -0.01349168496 0.81500006 1.371404144e-38
0.2999379001 -0.01585927496 0.81700003 1.316195226e-38
0.2999379001 -0.01741549496 0.81700003 1.270278459e-38
0.2999074231 -0.01979452496 0.81900007 1.297686596e-38
0.2999074231 -0.02135452496 0.81900007 1.325235984e-38
0.2998769471 -0.02374499496 0.82100004 1.279317115e-38
0.2998769471 -0.02530881496 0.82100004 1.242547744e-38
0.3013340901 0.03925311504 0.82900006 1.003412097e-38
0.3013340901 0.03767404504 0.82900006 9.85369258e-39
0.3013340901 0.03609499504 0.82900006 9.758643907e-39
0.3013607581 0.03519785504 0.82700002 9.667157334e-39
0.3013607581 0.03362265504 0.82700002 9.391283705e-39
0.3013874231 0.03273689504 0.82500005 9.019636932e-39
0.3014674241 0.03324547504 0.81900007 8.466112828e-39
0.3015340911 0.03342834504 0.81400001 7.91294045e-39
0.3015340911 0.03187787504 0.81400001 8.188439932e-39
0.3015340911 0.03032741504 0.81400001 8.372113727e-39
0.3015607571 0.02948546504 0.81200004 8.740175979e-39
0.3015607571 0.02793881504 0.81200004 9.108595562e-39
0.3015874231 0.02710834504 0.81000006 9.752881768e-39
0.3016140901 0.02628550504 0.80800003 1.049008247e-38
0.3016140901 0.02474644504 0.80800003 1.095034315e-38
0.3016140901 0.02320739504 0.80800003 1.150278686e-38
0.3016407571 0.02239975504 0.80600005 1.178044294e-38
0.3016407571 0.02086451504 0.80600005 1.21474332e-38
0.3016407571 0.01932928504 0.80600005 1.242509908e-38
0.3016407571 0.01779404504 0.80600005 1.279387179e-38
0.3016407571 0.01625880504 0.80600005 1.316156831e-38
0.3016407571 0.01472357504 0.80600005 1.343745595e-38
0.3016407571 0.01318833504 0.80600005 1.362079063e-38
0.3016407571 0.01165309504 0.80600005 1.371332818e-38
0.3016407571 0.01011785504 0.80600005 1.36207598e-38
0.3016407571 0.008582625042 0.80600005 1.343673568e-38
0.3016407571 0.007047385042 0.80600005 1.371332397e-38
0.3016407571 0.005512145042 0.80600005 1.408174215e-38
0.3016407571 0.003976915042 0.80600005 1.417393778e-38
0.3016407571 0.002441675042 0.80600005 1.435796331e-38
0.3016140901 0.0001216550418 0.80800003 1.444943727e-38
0.3016140901 -0.001417364958 0.80800003 1.454127977e-38
0.3015874231 -0.003748804958 0.81000006 1.40821107e-38
0.3015874231 -0.005291664958 0.81000006 1.371478833e-38
0.3015607571 -0.007634514958 0.81200004 1.426474613e-38
0.3015607571 -0.009181174958 0.81200004 1.481609542e-38
0.3015607571 -0.01072785496 0.81200004 1.435725425e-38
0.3015340911 -0.01308593496 0.81400001 1.38065972e-38
0.3014940901 -0.01585927496 0.81700003 1.343853495e-38
0.3014940901 -0.01741549496 0.81700003 1.297900154e-38
0.3014674241 -0.01979452496 0.81900007 1.306976504e-38
0.3014674241 -0.02135452496 0.81900007 1.316196067e-38
0.3014674241 -0.02291452496 0.81900007 1.288573812e-38
0.3014674241 -0.02447453496 0.81900007 1.270170839e-38
0.3029131373 0.03767404504 0.82900006 9.850106658e-39
0.3029131373 0.03609499504 0.82900006 9.758653716e-39
0.3029131373 0.03451594504 0.82900006 9.758643907e-39
0.3029359957 0.03362265504 0.82700002 9.483127609e-39
0.3029588522 0.03273689504 0.82500005 9.204751262e-39
0.3030045671 0.03255215504 0.82100004 8.468272229e-39
0.3030274236 0.03168547504 0.81900007 7.73070719e-39
0.3030731376 0.03152740504 0.81500006 8.005845137e-39
0.3030845677 0.03032741504 0.81400001 8.280634161e-39
0.3031074242 0.02948546504 0.81200004 8.647618814e-39
0.3031074242 0.02793881504 0.81200004 9.016401334e-39
0.3031074242 0.02639216504 0.81200004 9.56778005e-39
0.3031302798 0.02556547504 0.81000006 1.012023777e-38
0.3031531382 0.02474644504 0.80800003 1.067305561e-38
0.3031531382 0.02320739504 0.80800003 1.131840961e-38
0.3031759947 0.02239975504 0.80600005 1.159678035e-38
0.3031759947 0.02086451504 0.80600005 1.196340908e-38
0.3031759947 0.01932928504 0.80600005 1.224143089e-38
0.3031759947 0.01779404504 0.80600005 1.260948194e-38
0.3031759947 0.01625880504 0.80600005 1.288569748e-38
0.3031759947 0.01472357504 0.80600005 1.325305628e-38
0.3031759947 0.01318833504 0.80600005 1.343674549e-38
0.3031759947 0.01165309504 0.80600005 1.371152611e-38
0.3031759947 0.01011785504 0.80600005 1.371116037e-38
0.3031759947 0.008582625042 0.80600005 1.371223657e-38
0.3031759947 0.007047385042 0.80600005 1.389555023e-38
0.3031759947 0.005512145042 0.80600005 1.417321892e-38
0.3031759947 0.003976915042 0.80600005 1.417322873e-38
0.3031759947 0.002441675042 0.80600005 1.417358186e-38
0.3031531382 0.0001216550418 0.80800003 1.408209949e-38
0.3031302798 -0.002205964958 0.81000006 1.408174075e-38
0.3031302798 -0.003748804958 0.81000006 1.362364087e-38
0.3031074242 -0.006087834958 0.81200004 1.32552353e-38
0.3031074242 -0.007634514958 0.81200004 1.426472231e-38
0.3030845677 -0.009984964958 0.81400001 1.536708597e-38
0.3030845677 -0.01153546496 0.81400001 1.463238239e-38
0.3030845677 -0.01308593496 0.81400001 1.398989545e-38
0.3030502801 -0.01585927496 0.81700003 1.3622915e-38
0.3030502801 -0.01741549496 0.81700003 1.334633512e-38
0.3030274236 -0.01979452496 0.81900007 1.3161232e-38
0.3030274236 -0.02135452496 0.81900007 1.307011817e-38
0.3030274236 -0.02291452496 0.81900007 1.297900434e-38
0.3029817096 -0.02614307496 0.82300001 1.297721628e-38
0.3029817096 -0.02771067496 0.82300001 1.242262159e-38
0.3044540897 0.03473880504 0.83300006 9.942334517e-39
0.3044921854 0.03451594504 0.82900006 9.850489212e-39
0.3044921854 0.03293690504 0.82900006 9.483137418e-39
0.3045112328 0.03204742504 0.82700002 9.206194599e-39
0.3045302812 0.03116548504 0.82500005 8.652669094e-39
0.3045683769 0.03098833504 0.82100004 8.191323804e-39
0.3045874238 0.03012547504 0.81900007 8.097680633e-39
0.3046255187 0.02997499504 0.81500006 8.097320499e-39
0.3046350428 0.02877691504 0.81400001 8.372825587e-39
0.3046540902 0.02793881504 0.81200004 8.740536113e-39
0.3046540902 0.02639216504 0.81200004 9.200442269e-39
0.3046731381 0.02556547504 0.81000006 9.659633763e-39
0.3046731381 0.02402261504 0.81000006 1.030536751e-38
0.304692186 0.02320739504 0.80800003 1.09507187e-38
0.304692186 0.02166834504 0.80800003 1.131912988e-38
0.304692186 0.02012929504 0.80800003 1.177938496e-38
0.3047112334 0.01932928504 0.80600005 1.205561171e-38
0.3047112334 0.01779404504 0.80600005 1.242365715e-38
0.3047112334 0.01625880504 0.80600005 1.269986849e-38
0.3047112334 0.01472357504 0.80600005 1.306829928e-38
0.3047112334 0.01318833504 0.80600005 1.334417712e-38
0.3047112334 0.01165309504 0.80600005 1.352820684e-38
0.3047112334 0.01011785504 0.80600005 1.362004234e-38
0.3047112334 0.008582625042 0.80600005 1.380406786e-38
0.3047112334 0.007047385042 0.80600005 1.417140704e-38
0.3047112334 0.005512145042 0.80600005 1.454020217e-38
0.304692186 0.003199785042 0.80800003 1.435619066e-38
0.304692186 0.001660735042 0.80800003 1.417251266e-38
0.304692186 0.0001216550418 0.80800003 1.408102889e-38
0.3046731381 -0.002205964958 0.81000006 1.398990386e-38
0.3046731381 -0.003748804958 0.81000006 1.371403163e-38
0.3046540902 -0.006087834958 0.81200004 1.343853075e-38
0.3046540902 -0.007634514958 0.81200004 1.408138623e-38
0.3046540902 -0.009181174958 0.81200004 1.481641071e-38
0.3046540902 -0.01072785496 0.81200004 1.435685768e-38
0.3046350428 -0.01308593496 0.81400001 1.39895227e-38
0.3046255187 -0.01504406496 0.81500006 1.380586012e-38
0.3046064717 -0.01741549496 0.81700003 1.36218318e-38
0.3046064717 -0.01897165496 0.81700003 1.343672868e-38
0.3045874238 -0.02135452496 0.81900007 1.325378215e-38
0.3045683769 -0.02374499496 0.82100004 1.334526733e-38
0.3045493286 -0.02614307496 0.82300001 1.34367539e-38
0.3045493286 -0.02771067496 0.82300001 1.242478099e-38
0.3045493286 -0.02927830496 0.82300001 1.1413157e-38
0.3059493285 0.03388929504 0.84500003 1.031033651e-38
0.3059493285 0.03227979504 0.84500003 1.030964007e-38
0.3060102812 0.03338262504 0.83700001 1.012527263e-38
0.3060559952 0.03383404504 0.83100003 9.941954765e-39
0.306071233 0.03293690504 0.82900006 9.575326042e-39
0.306071233 0.03135785504 0.82900006 9.298383222e-39
0.3061017096 0.03116548504 0.82500005 8.929247576e-39
0.3061321858 0.03098833504 0.82100004 8.651215947e-39
0.3061321858 0.02942451504 0.82100004 8.281348823e-39
0.3061626619 0.02927026504 0.81700003 8.005839532e-39
0.3061778998 0.02842262504 0.81500006 8.189866454e-39
0.3061855194 0.02722644504 0.81400001 8.465388357e-39
0.3062007572 0.02639216504 0.81200004 8.833104488e-39
