# .PCD v0.7 - Point Cloud Data file format
VERSION 0.7
FIELDS x y z rgb
SIZE 4 4 4 4
TYPE F F F F
COUNT 1 1 1 1
WIDTH 858
HEIGHT 1
VIEWPOINT 0 0 0 1 0 0 0
POINTS 858
DATA ascii
-0.45008001 -0.03964799576 0.7899336156 9.387758038e-39
-0.44853336 -0.03964799576 0.7899336156 9.02149085e-39
-0.44698668 -0.03964799576 0.7899336156 8.655223661e-39
-0.44544002 -0.03964799576 0.7899336156 8.008787864e-39
-0.44280002 -0.03764801576 0.7902040856 7.362308626e-39
-0.44125718 -0.03764801576 0.7902040856 7.452308422e-39
-0.43862858 -0.03564798576 0.7904745656 7.534839296e-39
-0.43708956 -0.03564798576 0.7904745656 9.480627693e-39
-0.43447241 -0.03364800576 0.7907450456 1.133133519e-38
-0.43293718 -0.03364800576 0.7907450456 1.206710376e-38
-0.43033144 -0.03164797576 0.7910155256 1.271101722e-38
-0.42773336 -0.02964800576 0.7912859956 1.270992981e-38
-0.42620572 -0.02964800576 0.7912859956 1.280071293e-38
-0.42361906 -0.02764796576 0.7915564756 1.243016618e-38
-0.42209524 -0.02764796576 0.7915564756 1.20617494e-38
-0.42057142 -0.02764796576 0.7915564756 1.187843994e-38
-0.41904762 -0.02764796576 0.7915564756 1.169513469e-38
-0.4175238 -0.02764796576 0.7915564756 1.178410873e-38
-0.41600001 -0.02764796576 0.7915564756 1.187740999e-38
-0.41447619 -0.02764796576 0.7915564756 1.15108163e-38
-0.41295239 -0.02764796576 0.7915564756 1.114414974e-38
-0.41245717 -0.02964800576 0.7912859956 1.040727274e-38
-0.41092953 -0.02964800576 0.7912859956 9.762636206e-39
-0.40940192 -0.02964800576 0.7912859956 8.650212618e-39
-0.40889141 -0.03164797576 0.7910155256 7.453465894e-39
-0.40735999 -0.03164797576 0.7910155256 7.178304125e-39
-0.4058286 -0.03164797576 0.7910155256 6.901329076e-39
-0.40530288 -0.03364800576 0.7907450456 6.534312192e-39
-0.40376765 -0.03364800576 0.7907450456 6.075866189e-39
-0.40323049 -0.03564798576 0.7904745656 5.98440484e-39
-0.40368 -0.03964799576 0.7899336156 5.892935083e-39
-0.40361905 -0.04264801576 0.7895279056 5.984061522e-39
-0.40206671 -0.04264801576 0.7895279056 6.075185158e-39
-0.4005143 -0.04264801576 0.7895279056 5.704261455e-39
-0.39994097 -0.04464798576 0.7892574256 5.425878101e-39
-0.39838478 -0.04464798576 0.7892574256 5.518424055e-39
-0.40168571 -0.05464797576 0.7879050456 5.611317532e-39
-0.40011048 -0.05464797576 0.7879050456 5.333999164e-39
-0.40046287 -0.05864798576 0.7873640956 4.966685206e-39
-0.39984003 -0.06064801576 0.7870936156 4.784118436e-39
-0.39920953 -0.06264799576 0.7868231356 4.601526444e-39
-0.39761907 -0.06264799576 0.7868231356 5.059273199e-39
-0.39697716 -0.06464796576 0.7865526656 5.425145222e-39
-0.39727238 -0.06864797576 0.7860117156 5.332199897e-39
-0.39661145 -0.07064800576 0.7857412356 5.147454109e-39
-0.39734861 -0.07564800576 0.7850650456 4.228383084e-39
-0.39666668 -0.07764797576 0.7847945656 3.217514397e-39
-0.39504763 -0.07764797576 0.7847945656 6.626587696e-39
-0.46748576 -0.03764801576 0.7917469456 1.233872024e-38
-0.4647924 -0.03564798576 0.7920136256 1.215541639e-38
-0.46325335 -0.03564798576 0.7920136256 1.206355287e-38
-0.4617143 -0.03564798576 0.7920136256 1.188021258e-38
-0.46017525 -0.03564798576 0.7920136256 1.178696878e-38
-0.45863619 -0.03564798576 0.7920136256 1.160188949e-38
-0.45822862 -0.03764801576 0.7917469456 1.141677936e-38
-0.45781335 -0.03964799576 0.7914802856 1.104835697e-38
-0.45514289 -0.03764801576 0.7917469456 1.068028912e-38
-0.45472002 -0.03964799576 0.7914802856 1.031257999e-38
-0.45317337 -0.03964799576 0.7914802856 1.003419804e-38
-0.45162666 -0.03964799576 0.7914802856 9.665416921e-39
-0.45008001 -0.03964799576 0.7914802856 9.295561007e-39
-0.4496381 -0.04164796576 0.7912136256 8.836021991e-39
-0.44808763 -0.04164796576 0.7912136256 8.466533218e-39
-0.44544002 -0.03964799576 0.7914802856 7.5463916e-39
-0.44280002 -0.03764801576 0.7917469456 6.625847811e-39
-0.44125718 -0.03764801576 0.7917469456 7.175389424e-39
-0.43862858 -0.03564798576 0.7920136256 7.724639568e-39
-0.43708956 -0.03564798576 0.7920136256 1.013463471e-38
-0.43447241 -0.03364800576 0.7922802856 1.261599657e-38
-0.43293718 -0.03364800576 0.7922802856 1.26228223e-38
-0.43033144 -0.03164797576 0.7925469556 1.261670983e-38
-0.42880002 -0.03164797576 0.7925469556 1.270781385e-38
-0.42620572 -0.02964800576 0.7928136156 1.279931584e-38
-0.42361906 -0.02764796576 0.7930802856 1.252383457e-38
-0.42209524 -0.02764796576 0.7930802856 1.224723507e-38
-0.42057142 -0.02764796576 0.7930802856 1.19709943e-38
-0.41904762 -0.02764796576 0.7930802856 1.169405709e-38
-0.4175238 -0.02764796576 0.7930802856 1.1601151e-38
-0.41600001 -0.02764796576 0.7930802856 1.150932531e-38
-0.41447619 -0.02764796576 0.7930802856 1.123383004e-38
-0.41295239 -0.02764796576 0.7930802856 1.10487059e-38
-0.41245717 -0.02964800576 0.7928136156 9.84872778e-39
-0.41092953 -0.02964800576 0.7928136156 8.744193502e-39
-0.40940192 -0.02964800576 0.7928136156 8.28286783e-39
-0.40889141 -0.03164797576 0.7925469556 7.821525344e-39
-0.40735999 -0.03164797576 0.7925469556 7.362693983e-39
-0.4058286 -0.03164797576 0.7925469556 6.903126942e-39
-0.40429717 -0.03164797576 0.7925469556 6.443561301e-39
-0.40376765 -0.03364800576 0.7922802856 5.984755165e-39
-0.40323049 -0.03564798576 0.7920136256 5.709978753e-39
-0.40268573 -0.03764801576 0.7917469456 5.524165175e-39
-0.4031238 -0.04164796576 0.7912136256 5.431263291e-39
-0.40157333 -0.04164796576 0.7912136256 5.428407444e-39
-0.4005143 -0.04264801576 0.7910802856 5.150403842e-39
-0.39896193 -0.04264801576 0.7910802856 4.873089679e-39
-0.39740956 -0.04264801576 0.7910802856 4.596135649e-39
-0.39585716 -0.04264801576 0.7910802856 4.322047274e-39
-0.39817524 -0.05064796576 0.7900136156 4.507496514e-39
-0.39853525 -0.05464797576 0.7894802856 4.692617851e-39
-0.39888 -0.05864798576 0.7889469456 4.419280572e-39
-0.39825338 -0.06064801576 0.7886802756 4.143790899e-39
-0.39761907 -0.06264799576 0.7884136156 5.062164078e-39
-0.39792573 -0.06664800576 0.7878802756 5.979044873e-39
-0.39727238 -0.06864797576 0.7876136156 5.977572109e-39
-0.39567047 -0.06864797576 0.7876136156 5.977207771e-39
-0.39594287 -0.07264798576 0.7870802856 5.058488472e-39
-0.39433333 -0.07264798576 0.7870802856 4.231301988e-39
-0.39597717 -0.07964801576 0.7861469456 8.201445383e-39
-0.47134477 -0.04164796576 0.7927640956 1.160224401e-38
-0.46748576 -0.03764801576 0.7932898056 1.187704985e-38
-0.46594289 -0.03764801576 0.7932898056 1.178523117e-38
-0.46440002 -0.03764801576 0.7932898056 1.169373339e-38
-0.46285716 -0.03764801576 0.7932898056 1.141605349e-38
-0.46131432 -0.03764801576 0.7932898056 1.123023851e-38
-0.45977145 -0.03764801576 0.7932898056 1.113913029e-38
-0.46049142 -0.04164796576 0.7927640956 1.104835838e-38
-0.45894095 -0.04164796576 0.7927640956 1.077284068e-38
-0.45626667 -0.03964799576 0.7930269456 1.049661392e-38
-0.45584002 -0.04164796576 0.7927640956 1.012747547e-38
-0.45428953 -0.04164796576 0.7927640956 9.848733385e-39
-0.45273906 -0.04164796576 0.7927640956 9.389190165e-39
-0.45118859 -0.04164796576 0.7927640956 9.019692984e-39
-0.4496381 -0.04164796576 0.7927640956 8.651630732e-39
-0.44808763 -0.04164796576 0.7927640956 8.283583894e-39
-0.44544002 -0.03964799576 0.7930269456 7.546042677e-39
-0.44389334 -0.03964799576 0.7930269456 6.899936185e-39
-0.44125718 -0.03764801576 0.7932898056 7.635308192e-39
-0.43862858 -0.03564798576 0.7935526656 8.37361732e-39
-0.43600765 -0.03364800576 0.7938155256 1.041018043e-38
-0.43447241 -0.03364800576 0.7938155256 1.252348425e-38
-0.43186286 -0.03164797576 0.7940783856 1.252313673e-38
-0.43033144 -0.03164797576 0.7940783856 1.261459668e-38
-0.42773336 -0.02964800576 0.7943412256 1.298299804e-38
-0.42514285 -0.02764796576 0.7946041056 1.344220215e-38
-0.42361906 -0.02764796576 0.7946041056 1.307488679e-38
-0.42209524 -0.02764796576 0.7946041056 1.27078685e-38
-0.42057142 -0.02764796576 0.7946041056 1.224614486e-38
-0.42009526 -0.02964800576 0.7943412256 1.178517512e-38
-0.41856766 -0.02964800576 0.7943412256 1.16011468e-38
-0.41600001 -0.02764796576 0.7946041056 1.141603107e-38
-0.41551241 -0.02964800576 0.7943412256 1.114015604e-38
-0.41398478 -0.02964800576 0.7943412256 1.095326066e-38
-0.41245717 -0.02964800576 0.7943412256 1.012423567e-38
-0.41092953 -0.02964800576 0.7943412256 9.294130282e-39
-0.40940192 -0.02964800576 0.7943412256 8.649490949e-39
-0.40889141 -0.03164797576 0.7940783856 8.005913801e-39
-0.40837336 -0.03364800576 0.7938155256 7.454172149e-39
-0.40683812 -0.03364800576 0.7938155256 6.902773814e-39
-0.40530288 -0.03364800576 0.7938155256 6.350299283e-39
-0.40376765 -0.03364800576 0.7938155256 5.705668358e-39
-0.40323049 -0.03564798576 0.7935526656 5.430531813e-39
-0.40268573 -0.03764801576 0.7932898056 5.155754e-39
-0.4031238 -0.04164796576 0.7927640956 5.062136052e-39
-0.40206671 -0.04264801576 0.7926326656 4.965300723e-39
-0.4005143 -0.04264801576 0.7926326656 4.688383127e-39
-0.39896193 -0.04264801576 0.7926326656 4.503614918e-39
-0.39838478 -0.04464798576 0.7923698156 4.045135283e-39
-0.39682859 -0.04464798576 0.7923698156 3.678496751e-39
-0.39817524 -0.05064796576 0.7915812356 4.140171345e-39
-0.39853525 -0.05464797576 0.7910555356 4.694417118e-39
-0.39888 -0.05864798576 0.7905298156 4.602585826e-39
-0.39825338 -0.06064801576 0.7902669456 4.602616654e-39
-0.39761907 -0.06264799576 0.7900040956 5.246573554e-39
-0.39697716 -0.06464796576 0.7897412456 5.983367879e-39
-0.39632761 -0.06664800576 0.7894783756 6.075161336e-39
-0.39567047 -0.06864797576 0.7892155256 6.258818316e-39
-0.39594287 -0.07264798576 0.7886898156 5.614163569e-39
-0.39760002 -0.07964801576 0.7877698056 4.969584492e-39
-0.39597717 -0.07964801576 0.7877698056 8.66566894e-39
-0.47619432 -0.04464798576 0.7939259956 1.105339885e-38
-0.4746381 -0.04464798576 0.7939259956 1.114271621e-38
-0.47134477 -0.04164796576 0.7943145756 1.132494667e-38
-0.46979427 -0.04164796576 0.7943145756 1.150754847e-38
-0.46594289 -0.03764801576 0.7948326656 1.141500251e-38
-0.4655467 -0.03964799576 0.7945736156 1.141534723e-38
-0.46514285 -0.04164796576 0.7943145756 1.10487101e-38
-0.46245334 -0.03964799576 0.7945736156 1.06810234e-38
-0.46204191 -0.04164796576 0.7943145756 1.068103881e-38
-0.46049142 -0.04164796576 0.7943145756 1.077285329e-38
-0.45894095 -0.04164796576 0.7943145756 1.049732718e-38
-0.45739049 -0.04164796576 0.7943145756 1.031221565e-38
-0.45584002 -0.04164796576 0.7943145756 9.942715671e-39
-0.45428953 -0.04164796576 0.7943145756 9.66433652e-39
-0.45273906 -0.04164796576 0.7943145756 9.204796103e-39
-0.45118859 -0.04164796576 0.7943145756 8.742733349e-39
-0.4496381 -0.04164796576 0.7943145756 8.373582288e-39
-0.44808763 -0.04164796576 0.7943145756 8.099528946e-39
-0.44653714 -0.04164796576 0.7943145756 7.637501224e-39
-0.44389334 -0.03964799576 0.7945736156 7.269423558e-39
-0.44125718 -0.03764801576 0.7948326656 8.095567475e-39
-0.43862858 -0.03564798576 0.7950917156 9.016114067e-39
-0.43600765 -0.03364800576 0.7953507656 1.077788815e-38
-0.43447241 -0.03364800576 0.7953507656 1.252240665e-38
-0.43186286 -0.03164797576 0.7956098156 1.252240805e-38
-0.43033144 -0.03164797576 0.7956098156 1.261495261e-38
-0.42773336 -0.02964800576 0.7958688556 1.335034563e-38
-0.42620572 -0.02964800576 0.7958688556 1.417688051e-38
-0.42361906 -0.02764796576 0.7961279056 1.362588435e-38
-0.42209524 -0.02764796576 0.7961279056 1.316631731e-38
-0.4216229 -0.02964800576 0.7958688556 1.252164575e-38
-0.42009526 -0.02964800576 0.7958688556 1.187700361e-38
-0.4175238 -0.02764796576 0.7961279056 1.160113839e-38
-0.41600001 -0.02764796576 0.7961279056 1.132383263e-38
-0.41447619 -0.02764796576 0.7961279056 1.113872251e-38
-0.41398478 -0.02964800576 0.7958688556 1.095254039e-38
-0.41245717 -0.02964800576 0.7958688556 1.039973515e-38
-0.41092953 -0.02964800576 0.7958688556 9.845136252e-39
-0.40940192 -0.02964800576 0.7958688556 9.016107061e-39
-0.40990859 -0.03364800576 0.7953507656 8.188148462e-39
-0.40837336 -0.03364800576 0.7953507656 7.539197334e-39
-0.40683812 -0.03364800576 0.7953507656 6.989952796e-39
-0.40530288 -0.03364800576 0.7953507656 6.257038667e-39
-0.40376765 -0.03364800576 0.7953507656 5.522005774e-39
-0.40323049 -0.03564798576 0.7950917156 5.154673598e-39
-0.40268573 -0.03764801576 0.7948326656 4.878090913e-39
-0.40213335 -0.03964799576 0.7945736156 4.693343723e-39
-0.40157333 -0.04164796576 0.7943145756 4.505012012e-39
-0.4005143 -0.04264801576 0.7941850456 4.320627759e-39
-0.39896193 -0.04264801576 0.7941850456 4.22843353e-39
-0.39740956 -0.04264801576 0.7941850456 3.585945191e-39
-0.39780003 -0.04664802576 0.7936669456 3.0359958e-39
-0.39914289 -0.05264800576 0.7928898156 3.864655048e-39
-0.39853525 -0.05464797576 0.7926307656 4.692254914e-39
-0.39792004 -0.05664801576 0.7923717056 4.87736504e-39
-0.39729714 -0.05864798576 0.7921126656 5.152536618e-39
-0.39666671 -0.06064801576 0.7918536156 5.522772284e-39
-0.39697716 -0.06464796576 0.7913355256 5.982639204e-39
-0.39632761 -0.06664800576 0.7910764756 6.259193864e-39
-0.39472955 -0.06664800576 0.7910764756 6.533968874e-39
-0.39500573 -0.07064800576 0.7905583756 6.164460482e-39
-0.39340004 -0.07064800576 0.7905583756 5.797892014e-39
-0.39504763 -0.07764797576 0.7896517156 9.130214795e-39
-0.39342856 -0.07764797576 0.7896517156 1.244169046e-38
-0.47775051 -0.04464798576 0.7954821856 1.087082647e-38
-0.4750286 -0.04264801576 0.7957374256 1.06853436e-38
-0.4746381 -0.04464798576 0.7954821856 1.040660151e-38
-0.47192383 -0.04264801576 0.7957374256 1.095689142e-38
-0.46979427 -0.04164796576 0.7958650456 1.159901963e-38
-0.46709335 -0.03964799576 0.7961202856 1.141534583e-38
-0.46669334 -0.04164796576 0.7958650456 1.132350333e-38
-0.46514285 -0.04164796576 0.7958650456 1.095615574e-38
-0.46359238 -0.04164796576 0.7958650456 1.06810276e-38
-0.46204191 -0.04164796576 0.7958650456 1.049737763e-38
-0.46049142 -0.04164796576 0.7958650456 1.040694904e-38
-0.45950478 -0.04264801576 0.7957374256 1.022145636e-38
-0.45795241 -0.04264801576 0.7957374256 1.003634203e-38
-0.45640004 -0.04264801576 0.7957374256 9.665045577e-39
-0.45428953 -0.04164796576 0.7958650456 9.388462892e-39
-0.45273906 -0.04164796576 0.7958650456 9.018968512e-39
-0.45118859 -0.04164796576 0.7958650456 8.649444706e-39
-0.45019051 -0.04264801576 0.7957374256 8.46610442e-39
-0.44863814 -0.04264801576 0.7957374256 8.37465288e-39
-0.44708574 -0.04264801576 0.7957374256 8.099171615e-39
-0.44389334 -0.03964799576 0.7961202856 7.915495017e-39
-0.44125718 -0.03764801576 0.7963755256 8.463273797e-39
-0.43862858 -0.03564798576 0.7966307656 8.923926845e-39
-0.43600765 -0.03364800576 0.7968859956 1.05935081e-38
-0.43447241 -0.03364800576 0.7968859956 1.215506327e-38
-0.43186286 -0.03164797576 0.7971412356 1.215505626e-38
-0.43033144 -0.03164797576 0.7971412356 1.215613105e-38
-0.42880002 -0.03164797576 0.7971412356 1.26149498e-38
-0.42620572 -0.02964800576 0.7973964756 1.307377416e-38
-0.42361906 -0.02764796576 0.7976517156 1.270643778e-38
-0.42209524 -0.02764796576 0.7976517156 1.224759381e-38
-0.4216229 -0.02964800576 0.7973964756 1.187843434e-38
-0.42009526 -0.02964800576 0.7973964756 1.141782052e-38
-0.4175238 -0.02764796576 0.7976517156 1.095577178e-38
-0.41600001 -0.02764796576 0.7976517156 1.040224628e-38
-0.41551241 -0.02964800576 0.7973964756 1.058519981e-38
-0.41398478 -0.02964800576 0.7973964756 1.067631363e-38
-0.41348571 -0.03164797576 0.7971412356 1.058304041e-38
-0.41092953 -0.02964800576 0.7973964756 1.039649955e-38
-0.40940192 -0.02964800576 0.7973964756 9.477428528e-39
-0.40990859 -0.03364800576 0.7968859956 8.554412848e-39
-0.40837336 -0.03364800576 0.7968859956 7.999458019e-39
-0.40683812 -0.03364800576 0.7968859956 7.447345022e-39
-0.40530288 -0.03364800576 0.7968859956 6.529326372e-39
-0.40376765 -0.03364800576 0.7968859956 5.70353278e-39
-0.40323049 -0.03564798576 0.7966307656 5.151452013e-39
-0.40169144 -0.03564798576 0.7966307656 4.691187125e-39
-0.40213335 -0.03964799576 0.7961202856 4.413875764e-39
-0.40157333 -0.04164796576 0.7958650456 4.136918932e-39
-0.4005143 -0.04264801576 0.7957374256 4.136544785e-39
-0.39896193 -0.04264801576 0.7957374256 4.136207072e-39
-0.39838478 -0.04464798576 0.7954821856 3.769244839e-39
-0.39780003 -0.04664802576 0.7952269456 3.404044039e-39
-0.39817524 -0.05064796576 0.7947164756 3.86321171e-39
-0.39853525 -0.05464797576 0.7942060056 4.414586222e-39
-0.39792004 -0.05664801576 0.7939507556 4.415666623e-39
-0.39729714 -0.05864798576 0.7936955256 4.508593731e-39
-0.39666671 -0.06064801576 0.7934402856 4.96814676e-39
-0.39508003 -0.06064801576 0.7934402856 5.519504456e-39
-0.39538285 -0.06464796576 0.7929298056 5.614913263e-39
-0.39472955 -0.06664800576 0.7926745756 5.798928975e-39
-0.39406857 -0.06864797576 0.7924193356 5.156425222e-39
-0.39433333 -0.07264798576 0.7919088656 4.606178755e-39
-0.39272383 -0.07264798576 0.7919088656 8.019925384e-39
-0.39342856 -0.07764797576 0.7912707656 1.143293353e-38
-0.47775051 -0.04464798576 0.7970383856 1.077932729e-38
-0.47619432 -0.04464798576 0.7970383856 1.022578076e-38
-0.4746381 -0.04464798576 0.7970383856 9.764096359e-39
-0.47192383 -0.04264801576 0.7972898056 1.0681022e-38
-0.47037145 -0.04264801576 0.7972898056 1.169049219e-38
-0.46824381 -0.04164796576 0.7974155356 1.150538206e-38
-0.46726671 -0.04264801576 0.7972898056 1.13220656e-38
-0.46571431 -0.04264801576 0.7972898056 1.095543687e-38
-0.46416193 -0.04264801576 0.7972898056 1.068030033e-38
-0.46260953 -0.04264801576 0.7972898056 1.040552392e-38
-0.46105719 -0.04264801576 0.7972898056 1.013179147e-38
-0.45950478 -0.04264801576 0.7972898056 9.942362543e-39
-0.45795241 -0.04264801576 0.7972898056 9.75688808e-39
-0.45640004 -0.04264801576 0.7972898056 9.479579522e-39
-0.45484763 -0.04264801576 0.7972898056 9.204791899e-39
-0.45273906 -0.04164796576 0.7974155356 8.924621889e-39
-0.45118859 -0.04164796576 0.7974155356 8.650176184e-39
-0.45019051 -0.04264801576 0.7972898056 8.651594298e-39
-0.45084006 -0.04664802576 0.7967869456 8.65125098e-39
-0.44818285 -0.04464798576 0.7970383856 8.651266394e-39
-0.44498664 -0.04164796576 0.7974155356 8.650553133e-39
-0.44125718 -0.03764801576 0.7979183756 8.739164242e-39
-0.43862858 -0.03564798576 0.7981698056 8.924286979e-39
-0.43600765 -0.03364800576 0.7984212356 1.040945596e-38
-0.43447241 -0.03364800576 0.7984212356 1.187846376e-38
-0.43293718 -0.03364800576 0.7984212356 1.178662687e-38
-0.43033144 -0.03164797576 0.7986726656 1.178552545e-38
-0.42880002 -0.03164797576 0.7986726656 1.187625952e-38
-0.42620572 -0.02964800576 0.7989240956 1.206103334e-38
-0.42361906 -0.02764796576 0.7991755356 1.168726219e-38
-0.42209524 -0.02764796576 0.7991755356 1.141101582e-38
-0.42057142 -0.02764796576 0.7991755356 1.122696367e-38
-0.41904762 -0.02764796576 0.7991755356 1.10400795e-38
-0.4175238 -0.02764796576 0.7991755356 1.030254109e-38
-0.41600001 -0.02764796576 0.7991755356 9.574673037e-39
-0.41447619 -0.02764796576 0.7991755356 1.003169952e-38
-0.41295239 -0.02764796576 0.7991755356 1.049085879e-38
-0.41348571 -0.03164797576 0.7986726656 1.076634706e-38
-0.41092953 -0.02964800576 0.7989240956 1.10414794e-38
-0.40940192 -0.02964800576 0.7989240956 1.00309148e-38
-0.40889141 -0.03164797576 0.7986726656 9.015709092e-39
-0.40735999 -0.03164797576 0.7986726656 8.460038199e-39
-0.40683812 -0.03364800576 0.7984212356 7.905435096e-39
-0.40530288 -0.03364800576 0.7984212356 6.892014645e-39
-0.40376765 -0.03364800576 0.7984212356 5.887206575e-39
-0.40223241 -0.03364800576 0.7984212356 5.146425556e-39
-0.40169144 -0.03564798576 0.7981698056 4.502854013e-39
-0.40213335 -0.03964799576 0.7976669556 4.135149092e-39
-0.40157333 -0.04164796576 0.7974155356 3.861069125e-39
-0.4005143 -0.04264801576 0.7972898056 3.952178749e-39
-0.39896193 -0.04264801576 0.7972898056 4.044378582e-39
-0.39936003 -0.04664802576 0.7967869456 3.952550093e-39
-0.39877144 -0.04864799576 0.7965355256 3.862143921e-39
-0.39817524 -0.05064796576 0.7962840956 3.954691277e-39
-0.39853525 -0.05464797576 0.7957812456 4.138000734e-39
-0.39792004 -0.05664801576 0.7955298056 3.953969608e-39
-0.39729714 -0.05864798576 0.7952783856 3.86250966e-39
-0.39666671 -0.06064801576 0.7950269556 4.414256917e-39
-0.39508003 -0.06064801576 0.7950269556 5.058175982e-39
-0.39538285 -0.06464796576 0.7945240956 5.062833898e-39
-0.39472955 -0.06664800576 0.7942726656 5.061036032e-39
-0.39313143 -0.06664800576 0.7942726656 4.233078835e-39
-0.39340004 -0.07064800576 0.7937698056 3.498420089e-39
-0.39179432 -0.07064800576 0.7937698056 6.909990502e-39
-0.47892001 -0.04664802576 0.7983469456 1.08714991e-38
-0.47619432 -0.04464798576 0.7985945756 1.050126063e-38
-0.4746381 -0.04464798576 0.7985945756 1.022361856e-38
-0.47192383 -0.04264801576 0.7988421956 1.086540765e-38
-0.47037145 -0.04264801576 0.7988421956 1.141462276e-38
-0.46824381 -0.04164796576 0.7989660056 1.12302301e-38
-0.46726671 -0.04264801576 0.7988421956 1.113803307e-38
-0.46571431 -0.04264801576 0.7988421956 1.086180631e-38
-0.46416193 -0.04264801576 0.7988421956 1.067777939e-38
-0.46260953 -0.04264801576 0.7988421956 1.040407077e-38
-0.46105719 -0.04264801576 0.7988421956 1.013250053e-38
-0.45950478 -0.04264801576 0.7988421956 9.943797473e-39
-0.45795241 -0.04264801576 0.7988421956 9.847288646e-39
-0.45640004 -0.04264801576 0.7988421956 9.847280239e-39
-0.45484763 -0.04264801576 0.7988421956 9.939475868e-39
-0.45329526 -0.04264801576 0.7988421956 9.480299789e-39
-0.45174289 -0.04264801576 0.7988421956 9.1129536e-39
-0.45129526 -0.04464798576 0.7985945756 9.021115302e-39
-0.45084006 -0.04664802576 0.7983469456 9.021479639e-39
-0.44928005 -0.04664802576 0.7983469456 9.01933285e-39
-0.44662666 -0.04464798576 0.7985945756 9.018627997e-39
-0.44125718 -0.03764801576 0.7994612356 9.109401309e-39
-0.43862858 -0.03564798576 0.7997088556 9.200153601e-39
-0.43600765 -0.03364800576 0.7999564716 1.003850563e-38
-0.43447241 -0.03364800576 0.7999564716 1.095722213e-38
-0.43293718 -0.03364800576 0.7999564716 1.114089732e-38
-0.43140191 -0.03364800576 0.7999564716 1.14167121e-38
-0.42880002 -0.03164797576 0.8002040916 1.150813982e-38
-0.42620572 -0.02964800576 0.8004517116 1.169150112e-38
-0.42467812 -0.02964800576 0.8004517116 1.159541128e-38
-0.42315048 -0.02964800576 0.8004517116 1.159144421e-38
-0.4216229 -0.02964800576 0.8004517116 1.159070572e-38
-0.41904762 -0.02764796576 0.8006993396 1.159002049e-38
-0.4175238 -0.02764796576 0.8006993396 1.150036962e-38
-0.41600001 -0.02764796576 0.8006993396 1.141068792e-38
-0.41447619 -0.02764796576 0.8006993396 1.159615537e-38
-0.41295239 -0.02764796576 0.8006993396 1.187378062e-38
-0.41245717 -0.02964800576 0.8004517116 1.196917121e-38
-0.40990475 -0.02764796576 0.8006993396 1.215675744e-38
-0.40838096 -0.02764796576 0.8006993396 1.150849715e-38
-0.40787432 -0.02964800576 0.8004517116 1.086063483e-38
-0.40735999 -0.03164797576 0.8002040916 9.480242336e-39
-0.4058286 -0.03164797576 0.8002040916 8.099858251e-39
-0.40429717 -0.03164797576 0.8002040916 7.36088771e-39
-0.40376765 -0.03364800576 0.7999564716 6.714087575e-39
-0.40223241 -0.03364800576 0.7999564716 6.067288841e-39
-0.40169144 -0.03564798576 0.7997088556 5.420853044e-39
-0.4011429 -0.03764801576 0.7994612356 4.962035697e-39
-0.40157333 -0.04164796576 0.7989660056 4.412097516e-39
-0.4005143 -0.04264801576 0.7988421956 4.136232295e-39
-0.39994097 -0.04464798576 0.7985945756 3.952551494e-39
-0.39936003 -0.04664802576 0.7983469456 3.86070759e-39
-0.39877144 -0.04864799576 0.7980993356 3.769588157e-39
-0.39914289 -0.05264800576 0.7976040956 3.95325915e-39
-0.39853525 -0.05464797576 0.7973564756 4.136923135e-39
-0.39792004 -0.05664801576 0.7971088556 4.136916129e-39
-0.39729714 -0.05864798576 0.7968612356 4.139085339e-39
-0.39666671 -0.06064801576 0.7966136156 4.505369343e-39
-0.39602858 -0.06264799576 0.7963659956 4.780518501e-39
-0.39538285 -0.06464796576 0.7961183756 4.7815975e-39
-0.39378858 -0.06464796576 0.7961183756 4.69120394e-39
-0.39313143 -0.06664800576 0.7958707556 3.864332749e-39
-0.39340004 -0.07064800576 0.7953755256 3.125704125e-39
-0.39179432 -0.07064800576 0.7953755256 6.629087613e-39
-0.47775051 -0.04464798576 0.8001507606 1.096549259e-38
-0.47619432 -0.04464798576 0.8001507606 1.086897816e-38
-0.4746381 -0.04464798576 0.8001507606 1.077464415e-38
-0.47192383 -0.04264801576 0.8003945656 1.095832775e-38
-0.47037145 -0.04264801576 0.8003945656 1.123167204e-38
-0.46824381 -0.04164796576 0.8005164796 1.105408969e-38
-0.46726671 -0.04264801576 0.8003945656 1.095184254e-38
-0.46571431 -0.04264801576 0.8003945656 1.085892384e-38
-0.46416193 -0.04264801576 0.8003945656 1.076961209e-38
-0.46260953 -0.04264801576 0.8003945656 1.049483707e-38
-0.46105719 -0.04264801576 0.8003945656 1.022003964e-38
-0.45950478 -0.04264801576 0.8003945656 1.003707771e-38
-0.45795241 -0.04264801576 0.8003945656 9.944160409e-39
-0.45752001 -0.04464798576 0.8001507606 1.031042059e-38
-0.45596382 -0.04464798576 0.8001507606 1.076959527e-38
-0.45329526 -0.04264801576 0.8003945656 1.012674399e-38
-0.45174289 -0.04264801576 0.8003945656 9.574291883e-39
-0.45129526 -0.04464798576 0.8001507606 9.481375986e-39
-0.45084006 -0.04664802576 0.7999069476 9.389183159e-39
-0.44928005 -0.04664802576 0.7999069476 9.3873923e-39
-0.44662666 -0.04464798576 0.8001507606 9.478157204e-39
-0.44343618 -0.04164796576 0.8005164796 9.477088013e-39
-0.43971431 -0.03764801576 0.8010040906 9.47887607e-39
-0.43600765 -0.03364800576 0.8014917086 9.759400608e-39
-0.43555048 -0.03564798576 0.8012479036 1.012818733e-38
-0.43293718 -0.03364800576 0.8014917086 1.058881095e-38
-0.43140191 -0.03364800576 0.8014917086 1.104545489e-38
-0.42880002 -0.03164797576 0.8017355286 1.113475683e-38
-0.42620572 -0.02964800576 0.8019793346 1.132597662e-38
-0.42467812 -0.02964800576 0.8019793346 1.151253289e-38
-0.42315048 -0.02964800576 0.8019793346 1.178874283e-38
-0.42057142 -0.02764796576 0.8022231476 1.197311867e-38
-0.41904762 -0.02764796576 0.8022231476 1.224864338e-38
-0.4175238 -0.02764796576 0.8022231476 1.279967457e-38
-0.41600001 -0.02764796576 0.8022231476 1.335249663e-38
-0.41447619 -0.02764796576 0.8022231476 1.326247021e-38
-0.41295239 -0.02764796576 0.8022231476 1.326208345e-38
-0.41142857 -0.02764796576 0.8022231476 1.326169669e-38
-0.40990475 -0.02764796576 0.8022231476 1.335210006e-38
-0.40838096 -0.02764796576 0.8022231476 1.307552158e-38
-0.40787432 -0.02964800576 0.8019793346 1.279568367e-38
-0.40634668 -0.02964800576 0.8019793346 1.058730175e-38
-0.4058286 -0.03164797576 0.8017355286 8.379320605e-39
-0.40429717 -0.03164797576 0.8017355286 7.914778954e-39
-0.40376765 -0.03364800576 0.8014917086 7.546723708e-39
-0.40223241 -0.03364800576 0.8014917086 7.001813386e-39
-0.40169144 -0.03564798576 0.8012479036 6.439665692e-39
-0.4011429 -0.03764801576 0.8010040906 5.697075596e-39
-0.40058669 -0.03964799576 0.8007602856 5.054587257e-39
-0.4005143 -0.04264801576 0.8003945656 4.409589192e-39
-0.39994097 -0.04464798576 0.8001507606 3.859634195e-39
-0.39936003 -0.04664802576 0.7999069476 3.768858081e-39
-0.39877144 -0.04864799576 0.7996631456 3.769228024e-39
-0.39914289 -0.05264800576 0.7991755256 3.953629092e-39
-0.39853525 -0.05464797576 0.7989317156 4.136924537e-39
-0.39792004 -0.05664801576 0.7986878956 4.320221382e-39
-0.39729714 -0.05864798576 0.7984440956 4.506062986e-39
-0.39666671 -0.06064801576 0.7982002856 4.505003604e-39
-0.39602858 -0.06264799576 0.7979564756 4.596476164e-39
-0.39538285 -0.06464796576 0.7977126656 4.504637865e-39
-0.39472955 -0.06664800576 0.7974688556 4.415670827e-39
-0.39406857 -0.06864797576 0.7972250556 3.587716432e-39
-0.39340004 -0.07064800576 0.7969812356 2.758334114e-39
-0.39272383 -0.07264798576 0.7967374256 6.256699552e-39
-0.39111429 -0.07264798576 0.7967374256 9.862739363e-39
-0.47775051 -0.04464798576 0.8017069556 1.105948609e-38
-0.47619432 -0.04464798576 0.8017069556 1.077751821e-38
-0.4746381 -0.04464798576 0.8017069556 1.05913445e-38
-0.47192383 -0.04264801576 0.8019469466 1.068247094e-38
-0.47152573 -0.04464798576 0.8017069556 1.086540905e-38
-0.46881908 -0.04264801576 0.8019469466 1.086682857e-38
-0.46726671 -0.04264801576 0.8019469466 1.094968314e-38
-0.46571431 -0.04264801576 0.8019469466 1.113513518e-38
-0.46416193 -0.04264801576 0.8019469466 1.132062366e-38
-0.46374476 -0.04464798576 0.8017069556 1.076999324e-38
-0.46105719 -0.04264801576 0.8019469466 1.031116608e-38
-0.45950478 -0.04264801576 0.8019469466 1.012928175e-38
-0.45907623 -0.04464798576 0.8017069556 9.946326817e-39
-0.45864004 -0.04664802576 0.8014669506 1.003529105e-38
-0.45708004 -0.04664802576 0.8014669506 1.022002983e-38
-0.45440763 -0.04464798576 0.8017069556 9.576098157e-39
-0.45174289 -0.04264801576 0.8019469466 9.024003378e-39
-0.45019051 -0.04264801576 0.8019469466 9.298788198e-39
-0.45084006 -0.04664802576 0.8014669506 9.481740324e-39
-0.44928005 -0.04664802576 0.8014669506 9.848722175e-39
-0.44662666 -0.04464798576 0.8017069556 1.021606276e-38
-0.44398096 -0.04264801576 0.8019469466 9.849079506e-39
-0.44080001 -0.03964799576 0.8023069516 9.573928947e-39
-0.43708956 -0.03564798576 0.8027869476 9.573567412e-39
-0.43555048 -0.03564798576 0.8027869476 9.573225495e-39
-0.43293718 -0.03364800576 0.8030269526 1.049052108e-38
-0.43140191 -0.03364800576 0.8030269526 1.140780404e-38
-0.42880002 -0.03164797576 0.8032669586 1.205675657e-38
-0.42514285 -0.02764796576 0.8037469546 1.270568388e-38
-0.42361906 -0.02764796576 0.8037469546 1.280072975e-38
-0.42315048 -0.02964800576 0.8035069566 1.2987265e-38
-0.42057142 -0.02764796576 0.8037469546 1.280035981e-38
-0.41904762 -0.02764796576 0.8037469546 1.261812795e-38
-0.4175238 -0.02764796576 0.8037469546 1.289184498e-38
-0.41600001 -0.02764796576 0.8037469546 1.316809836e-38
-0.41447619 -0.02764796576 0.8037469546 1.325852835e-38
-0.41295239 -0.02764796576 0.8037469546 1.334926383e-38
-0.41142857 -0.02764796576 0.8037469546 1.325955831e-38
-0.40990475 -0.02764796576 0.8037469546 1.32635408e-38
-0.40838096 -0.02764796576 0.8037469546 1.261570791e-38
-0.40685716 -0.02764796576 0.8037469546 1.206355848e-38
-0.40634668 -0.02964800576 0.8035069566 1.003379026e-38
-0.40481907 -0.02964800576 0.8035069566 8.107769982e-39
-0.40429717 -0.03164797576 0.8032669586 7.727529045e-39
-0.40376765 -0.03364800576 0.8030269526 7.362352067e-39
-0.40223241 -0.03364800576 0.8030269526 7.089011986e-39
-0.40169144 -0.03564798576 0.8027869476 6.723792968e-39
-0.4011429 -0.03764801576 0.8025469496 6.438572679e-39
-0.3996 -0.03764801576 0.8025469496 6.248450108e-39
-0.40002286 -0.04164796576 0.8020669536 5.423012445e-39
-0.39896193 -0.04264801576 0.8019469466 4.597901285e-39
-0.39936003 -0.04664802576 0.8014669506 3.863190691e-39
-0.39877144 -0.04864799576 0.8012269526 3.220724772e-39
-0.39914289 -0.05264800576 0.8007469486 3.585939586e-39
-0.39949906 -0.05664801576 0.8002669446 4.044015646e-39
-0.39792004 -0.05664801576 0.8002669446 3.952873793e-39
-0.39729714 -0.05864798576 0.8000269546 3.863207506e-39
-0.39666671 -0.06064801576 0.7997869486 4.229491511e-39
-0.39602858 -0.06264799576 0.7995469556 4.596106221e-39
-0.39538285 -0.06464796576 0.7993069556 4.322024854e-39
-0.39472955 -0.06664800576 0.7990669556 4.140139115e-39
-0.39313143 -0.06664800576 0.7990669556 3.58732547e-39
-0.39340004 -0.07064800576 0.7985869556 3.126006805e-39
-0.39272383 -0.07264798576 0.7983469556 6.533258416e-39
-0.39111429 -0.07264798576 0.7983469556 9.951336459e-39
-0.47619432 -0.04464798576 0.8032631436 1.077822447e-38
-0.4746381 -0.04464798576 0.8032631436 1.040336171e-38
-0.47192383 -0.04264801576 0.8034993346 1.049269869e-38
-0.47037145 -0.04264801576 0.8034993346 1.058631524e-38
-0.46881908 -0.04264801576 0.8034993346 1.077176868e-38
-0.46726671 -0.04264801576 0.8034993346 1.09536362e-38
-0.46571431 -0.04264801576 0.8034993346 1.141137035e-38
-0.46416193 -0.04264801576 0.8034993346 1.187306736e-38
-0.46374476 -0.04464798576 0.8032631436 1.113982673e-38
-0.46218857 -0.04464798576 0.8032631436 1.040514557e-38
-0.46063241 -0.04464798576 0.8032631436 1.013000061e-38
-0.45907623 -0.04464798576 0.8032631436 9.945613556e-39
-0.45864004 -0.04664802576 0.8030269526 9.760510436e-39
-0.45708004 -0.04664802576 0.8030269526 9.66866373e-39
-0.45440763 -0.04464798576 0.8032631436 9.117639543e-39
-0.45285144 -0.04464798576 0.8032631436 8.564827298e-39
-0.45129526 -0.04464798576 0.8032631436 9.111888614e-39
-0.45084006 -0.04664802576 0.8030269526 9.666844844e-39
-0.44928005 -0.04664802576 0.8030269526 1.031148558e-38
-0.44662666 -0.04464798576 0.8032631436 1.095432985e-38
-0.44398096 -0.04264801576 0.8034993346 1.03118359e-38
-0.44080001 -0.03964799576 0.8038536176 9.666123176e-39
-0.43708956 -0.03564798576 0.8043260066 9.390622292e-39
-0.43662858 -0.03764801576 0.8040898006 9.111535486e-39
-0.43401143 -0.03564798576 0.8043260066 1.039401225e-38
-0.43033144 -0.03164797576 0.8047983886 1.178267801e-38
-0.42773336 -0.02964800576 0.8050345716 1.298946644e-38
-0.42514285 -0.02764796576 0.8052707626 1.418188175e-38
-0.42361906 -0.02764796576 0.8052707626 1.418079574e-38
-0.42209524 -0.02764796576 0.8052707626 1.417970973e-38
-0.42057142 -0.02764796576 0.8052707626 1.362761075e-38
-0.41904762 -0.02764796576 0.8052707626 1.307729982e-38
-0.4175238 -0.02764796576 0.8052707626 1.298401538e-38
-0.41600001 -0.02764796576 0.8052707626 1.298297562e-38
-0.41447619 -0.02764796576 0.8052707626 1.325708361e-38
-0.41295239 -0.02764796576 0.8052707626 1.353293762e-38
-0.41142857 -0.02764796576 0.8052707626 1.334961415e-38
-0.40990475 -0.02764796576 0.8052707626 1.316595858e-38
-0.40838096 -0.02764796576 0.8052707626 1.224761903e-38
-0.40685716 -0.02764796576 0.8052707626 1.142106453e-38
-0.40634668 -0.02964800576 0.8050345716 9.572122673e-39
-0.4058286 -0.03164797576 0.8047983886 7.829402042e-39
-0.40429717 -0.03164797576 0.8047983886 7.540625257e-39
-0.40376765 -0.03364800576 0.8045621896 7.267271163e-39
-0.40323049 -0.03564798576 0.8043260066 7.177588062e-39
-0.40169144 -0.03564798576 0.8043260066 7.086813348e-39
-0.4011429 -0.03764801576 0.8040898006 7.271905257e-39
-0.3996 -0.03764801576 0.8040898006 7.446264621e-39
-0.40002286 -0.04164796576 0.8036174266 6.436807043e-39
-0.39847237 -0.04164796576 0.8036174266 5.426943087e-39
-0.39838478 -0.04464798576 0.8032631436 4.05009588e-39
-0.39877144 -0.04864799576 0.8027907546 2.670066324e-39
-0.39914289 -0.05264800576 0.8023183806 3.310058951e-39
-0.39853525 -0.05464797576 0.8020821896 4.044733111e-39
-0.39888 -0.05864798576 0.8016098076 3.585905955e-39
-0.39825338 -0.06064801576 0.8013736166 3.219652779e-39
-0.39761907 -0.06264799576 0.8011374266 3.859285272e-39
-0.39602858 -0.06264799576 0.8011374266 4.597549559e-39
-0.39538285 -0.06464796576 0.8009012426 4.231278166e-39
-0.39472955 -0.06664800576 0.8006650516 3.86465785e-39
-0.39313143 -0.06664800576 0.8006650516 3.6791974e-39
-0.39246666 -0.06864797576 0.8004288606 3.492300619e-39
-0.39179432 -0.07064800576 0.8001926626 6.718025224e-39
-0.3901886 -0.07064800576 0.8001926626 1.004569289e-38
-0.47619432 -0.04464798576 0.8048193316 1.068637916e-38
-0.4746381 -0.04464798576 0.8048193316 1.003170793e-38
-0.47308192 -0.04464798576 0.8048193316 1.003244221e-38
-0.47152573 -0.04464798576 0.8048193316 1.003494493e-38
-0.46881908 -0.04264801576 0.8050517076 1.022004385e-38
-0.46726671 -0.04264801576 0.8050517076 1.040514276e-38
-0.46571431 -0.04264801576 0.8050517076 1.068064365e-38
-0.46416193 -0.04264801576 0.8050517076 1.095614313e-38
-0.46260953 -0.04264801576 0.8050517076 1.040333088e-38
-0.46105719 -0.04264801576 0.8050517076 9.942372352e-39
-0.45950478 -0.04264801576 0.8050517076 9.851625665e-39
-0.45795241 -0.04264801576 0.8050517076 9.761230704e-39
-0.45864004 -0.04664802576 0.8045869486 9.668326017e-39
-0.45708004 -0.04664802576 0.8045869486 9.575398909e-39
-0.45440763 -0.04464798576 0.8048193316 9.391713904e-39
-0.45285144 -0.04464798576 0.8048193316 9.299871401e-39
-0.45129526 -0.04464798576 0.8048193316 9.577165947e-39
-0.45084006 -0.04664802576 0.8045869486 9.946656122e-39
-0.44928005 -0.04664802576 0.8045869486 1.013032431e-38
-0.44772005 -0.04664802576 0.8045869486 1.040618112e-38
-0.44507048 -0.04464798576 0.8048193316 9.574991131e-39
-0.44242859 -0.04264801576 0.8050517076 8.748485679e-39
-0.44087622 -0.04264801576 0.8050517076 9.018983927e-39
-0.43555048 -0.03564798576 0.8058650506 9.287314366e-39
-0.43401143 -0.03564798576 0.8058650506 1.076887921e-38
-0.43140191 -0.03364800576 0.8060974266 1.234122296e-38
-0.42880002 -0.03164797576 0.8063298106 1.298516865e-38
-0.42514285 -0.02764796576 0.8067945776 1.372092602e-38
-0.42361906 -0.02764796576 0.8067945776 1.371984702e-38
-0.42209524 -0.02764796576 0.8067945776 1.381095104e-38
-0.42057142 -0.02764796576 0.8067945776 1.335211827e-38
-0.41800001 -0.02564799576 0.8070269536 1.298581886e-38
-0.4175238 -0.02764796576 0.8067945776 1.289144e-38
-0.41496 -0.02564799576 0.8070269536 1.279821162e-38
-0.41344002 -0.02564799576 0.8070269536 1.288937309e-38
-0.41192001 -0.02564799576 0.8070269536 1.298085125e-38
-0.4104 -0.02564799576 0.8070269536 1.279682293e-38
-0.40888 -0.02564799576 0.8070269536 1.261314493e-38
-0.40736002 -0.02564799576 0.8070269536 1.178769606e-38
-0.40685716 -0.02764796576 0.8067945776 1.096224158e-38
-0.40533334 -0.02764796576 0.8067945776 9.113683677e-39
-0.40481907 -0.02964800576 0.8065621866 7.275886346e-39
-0.40429717 -0.03164797576 0.8063298106 6.990325541e-39
-0.40276572 -0.03164797576 0.8063298106 6.71337011e-39
-0.40223241 -0.03364800576 0.8060974266 6.532915098e-39
-0.40169144 -0.03564798576 0.8058650506 6.350679035e-39
-0.40015239 -0.03564798576 0.8058650506 6.441079602e-39
-0.3996 -0.03764801576 0.8056326666 6.531864124e-39
-0.39904001 -0.03964799576 0.8054002906 5.889399607e-39
-0.39847237 -0.04164796576 0.8051679076 5.24687063e-39
-0.39740956 -0.04264801576 0.8050517076 4.417802202e-39
-0.39780003 -0.04664802576 0.8045869486 3.680968641e-39
-0.39817524 -0.05064796576 0.8041221956 4.231268357e-39
-0.39853525 -0.05464797576 0.8036574286 4.873763703e-39
-0.39792004 -0.05664801576 0.8034250446 4.68902352e-39
-0.39825338 -0.06064801576 0.8029602856 4.596477566e-39
-0.39761907 -0.06264799576 0.8027279086 4.964904155e-39
-0.39602858 -0.06264799576 0.8027279086 5.425513763e-39
-0.39538285 -0.06464796576 0.8024955326 5.058168976e-39
-0.39472955 -0.06664800576 0.8022631416 4.691202539e-39
-0.39406857 -0.06864797576 0.8020307586 4.503961038e-39
-0.39340004 -0.07064800576 0.8017983746 4.409607409e-39
-0.39179432 -0.07064800576 0.8017983746 7.643574452e-39
-0.3901886 -0.07064800576 0.8017983746 1.078289639e-38
-0.47619432 -0.04464798576 0.8063755266 1.059451284e-38
-0.4746381 -0.04464798576 0.8063755266 9.761201277e-39
-0.47192383 -0.04264801576 0.8066040956 9.571095522e-39
-0.47037145 -0.04264801576 0.8066040956 9.481771152e-39
-0.46881908 -0.04264801576 0.8066040956 9.668313405e-39
-0.46726671 -0.04264801576 0.8066040956 9.851257124e-39
-0.46571431 -0.04264801576 0.8066040956 9.936266895e-39
-0.46530095 -0.04464798576 0.8063755266 1.00305953e-38
-0.46374476 -0.04464798576 0.8063755266 9.757940455e-39
-0.46218857 -0.04464798576 0.8063755266 9.573933151e-39
-0.46063241 -0.04464798576 0.8063755266 9.573598241e-39
-0.45907623 -0.04464798576 0.8063755266 9.665058189e-39
-0.45864004 -0.04664802576 0.8061469506 9.572847145e-39
-0.45708004 -0.04664802576 0.8061469506 9.572498221e-39
-0.45440763 -0.04464798576 0.8063755266 9.756180424e-39
-0.45285144 -0.04464798576 0.8063755266 1.003241138e-38
-0.45240003 -0.04664802576 0.8061469506 1.012963487e-38
-0.45084006 -0.04664802576 0.8061469506 1.022217242e-38
-0.44928005 -0.04664802576 0.8061469506 1.003956221e-38
-0.44772005 -0.04664802576 0.8061469506 9.852306696e-39
-0.44616005 -0.04664802576 0.8061469506 8.838531717e-39
-0.44351432 -0.04464798576 0.8063755266 7.82438119e-39
-0.44195813 -0.04464798576 0.8063755266 8.647300719e-39
-0.43555048 -0.03564798576 0.8074040946 9.568910897e-39
-0.43401143 -0.03564798576 0.8074040946 1.123596702e-38
-0.43033144 -0.03164797576 0.8078612396 1.289260588e-38
-0.42773336 -0.02964800576 0.8080898086 1.307844188e-38
-0.42620572 -0.02964800576 0.8080898086 1.326176115e-38
-0.42361906 -0.02764796576 0.8083183856 1.335216872e-38
-0.42209524 -0.02764796576 0.8083183856 1.353546557e-38
-0.42057142 -0.02764796576 0.8083183856 1.31684669e-38
-0.41800001 -0.02564799576 0.8085469536 1.2891873e-38
-0.4175238 -0.02764796576 0.8083183856 1.270747474e-38
-0.41496 -0.02564799576 0.8085469536 1.261565045e-38
-0.41344002 -0.02564799576 0.8085469536 1.25241849e-38
-0.41192001 -0.02564799576 0.8085469536 1.242911941e-38
-0.4104 -0.02564799576 0.8085469536 1.224580715e-38
-0.40888 -0.02564799576 0.8085469536 1.215396465e-38
-0.40736002 -0.02564799576 0.8085469536 1.132815704e-38
-0.40584001 -0.02564799576 0.8085469536 1.050233963e-38
-0.40533334 -0.02764796576 0.8083183856 8.655569782e-39
-0.40380952 -0.02764796576 0.8083183856 6.813110331e-39
-0.40329143 -0.02964800576 0.8080898086 6.440377551e-39
-0.40276572 -0.03164797576 0.8078612396 6.162706057e-39
-0.40223241 -0.03364800576 0.8076326636 5.888264555e-39
-0.40169144 -0.03564798576 0.8074040946 5.70531383e-39
-0.40015239 -0.03564798576 0.8074040946 5.614200003e-39
-0.3996 -0.03764801576 0.8071755256 5.613856684e-39
-0.40002286 -0.04164796576 0.8067183876 5.338008279e-39
-0.39847237 -0.04164796576 0.8067183876 5.153593197e-39
-0.39740956 -0.04264801576 0.8066040956 4.877702753e-39
-0.39682859 -0.04464798576 0.8063755266 4.690811577e-39
-0.39720765 -0.04864799576 0.8059183816 5.152509994e-39
-0.39757144 -0.05264800576 0.8054612366 5.704243238e-39
-0.39792004 -0.05664801576 0.8050040986 5.888635899e-39
-0.39729714 -0.05864798576 0.8047755296 6.070525841e-39
-0.39761907 -0.06264799576 0.8043183846 6.160939019e-39
-0.39697716 -0.06464796576 0.8040898086 6.251329777e-39
-0.39538285 -0.06464796576 0.8040898086 5.882544455e-39
-0.39472955 -0.06664800576 0.8038612316 5.513777349e-39
-0.39406857 -0.06864797576 0.8036326626 5.420875465e-39
-0.39340004 -0.07064800576 0.8034040936 5.433813654e-39
-0.39179432 -0.07064800576 0.8034040936 8.477681948e-39
-0.4746381 -0.04464798576 0.8079317146 9.9498707e-39
-0.47134477 -0.04164796576 0.8082688616 9.571797572e-39
-0.47152573 -0.04464798576 0.8079317146 9.109399908e-39
-0.46996954 -0.04464798576 0.8079317146 9.295231702e-39
-0.46841335 -0.04464798576 0.8079317146 9.481041076e-39
-0.46571431 -0.04264801576 0.8081564766 9.480669732e-39
-0.46530095 -0.04464798576 0.8079317146 9.480638903e-39
-0.46374476 -0.04464798576 0.8079317146 9.38877398e-39
-0.46218857 -0.04464798576 0.8079317146 9.388807611e-39
-0.46176004 -0.04664802576 0.8077069536 9.387765045e-39
-0.46020004 -0.04664802576 0.8077069536 9.386649611e-39
-0.45864004 -0.04664802576 0.8077069536 9.480598266e-39
-0.45708004 -0.04664802576 0.8077069536 9.571751329e-39
-0.45552003 -0.04664802576 0.8077069536 1.003060511e-38
-0.45396003 -0.04664802576 0.8077069536 1.048980221e-38
-0.45240003 -0.04664802576 0.8077069536 1.01264273e-38
-0.45194098 -0.04864799576 0.8074821916 9.855197575e-39
-0.45037717 -0.04864799576 0.8074821916 9.759030665e-39
-0.44881335 -0.04864799576 0.8074821916 9.662904393e-39
-0.44616005 -0.04664802576 0.8077069536 9.291630365e-39
-0.44460005 -0.04664802576 0.8077069536 8.828464789e-39
-0.44304004 -0.04664802576 0.8077069536 9.568847839e-39
-0.43555048 -0.03564798576 0.8089431466 1.040152041e-38
-0.43401143 -0.03564798576 0.8089431466 1.151149312e-38
-0.42926097 -0.02964800576 0.8096174316 1.270966357e-38
-0.42666668 -0.02764796576 0.8098421926 1.280222213e-38
-0.42514285 -0.02764796576 0.8098421926 1.298662741e-38
-0.42361906 -0.02764796576 0.8098421926 1.326107451e-38
-0.42209524 -0.02764796576 0.8098421926 1.344365249e-38
-0.41952002 -0.02564799576 0.8100669546 1.316705299e-38
-0.41800001 -0.02564799576 0.8100669546 1.279864602e-38
-0.41648 -0.02564799576 0.8100669546 1.252386821e-38
-0.41496 -0.02564799576 0.8100669546 1.22494183e-38
-0.41344002 -0.02564799576 0.8100669546 1.215541079e-38
-0.41192001 -0.02564799576 0.8100669546 1.19695832e-38
-0.4104 -0.02564799576 0.8100669546 1.160223841e-38
-0.40888 -0.02564799576 0.8100669546 1.123489082e-38
-0.40736002 -0.02564799576 0.8100669546 1.031724772e-38
-0.40584001 -0.02564799576 0.8100669546 9.49178343e-39
-0.40432 -0.02564799576 0.8100669546 8.004457852e-39
-0.40380952 -0.02764796576 0.8098421926 6.526111794e-39
-0.40329143 -0.02964800576 0.8096174316 5.888994631e-39
-0.40276572 -0.03164797576 0.8093926696 5.336536916e-39
-0.40223241 -0.03364800576 0.8091679006 5.336168374e-39
-0.40169144 -0.03564798576 0.8089431466 5.427650743e-39
-0.4011429 -0.03764801576 0.8087183766 5.42765775e-39
-0.3996 -0.03764801576 0.8087183766 5.427664756e-39
-0.40002286 -0.04164796576 0.8082688616 5.152166675e-39
-0.39847237 -0.04164796576 0.8082688616 4.876646174e-39
-0.39740956 -0.04264801576 0.8081564766 4.783720468e-39
-0.39682859 -0.04464798576 0.8079317146 4.690824189e-39
-0.39527237 -0.04464798576 0.8079317146 5.151093281e-39
-0.39757144 -0.05264800576 0.8070326686 5.612064424e-39
-0.39792004 -0.05664801576 0.8065831376 5.887929645e-39
-0.39729714 -0.05864798576 0.8063583756 6.162376751e-39
-0.39761907 -0.06264799576 0.8059088526 6.621931181e-39
-0.39697716 -0.06464796576 0.8056840986 7.081810713e-39
-0.39538285 -0.06464796576 0.8056840986 6.619747958e-39
-0.39472955 -0.06664800576 0.8054593296 6.249538917e-39
-0.39406857 -0.06864797576 0.8052345746 6.528636934e-39
-0.39340004 -0.07064800576 0.8050098056 6.736396247e-39
-0.39179432 -0.07064800576 0.8050098056 9.221031547e-39
-0.47134477 -0.04164796576 0.8098193346 9.481062095e-39
-0.47152573 -0.04464798576 0.8094879026 8.833904629e-39
-0.46996954 -0.04464798576 0.8094879026 9.020801411e-39
-0.46841335 -0.04464798576 0.8094879026 9.205177256e-39
-0.46685714 -0.04464798576 0.8094879026 9.115124212e-39
-0.46644002 -0.04664802576 0.8092669486 9.022908964e-39
-0.46488005 -0.04664802576 0.8092669486 9.114364708e-39
-0.46332005 -0.04664802576 0.8092669486 9.20442616e-39
-0.46288761 -0.04864799576 0.8090459936 9.203728314e-39
-0.46020004 -0.04664802576 0.8092669486 9.202631097e-39
-0.45976001 -0.04864799576 0.8090459936 9.388433464e-39
-0.45708004 -0.04664802576 0.8092669486 9.572125476e-39
-0.45663241 -0.04864799576 0.8090459936 1.021714876e-38
-0.45506859 -0.04864799576 0.8090459936 1.094861815e-38
-0.45350477 -0.04864799576 0.8090459936 1.02128734e-38
-0.45304191 -0.05064796576 0.8088250466 9.56892491e-39
-0.45037717 -0.04864799576 0.8090459936 9.567826292e-39
-0.44881335 -0.04864799576 0.8090459936 9.56640958e-39
-0.44724956 -0.04864799576 0.8090459936 9.74866526e-39
-0.44568574 -0.04864799576 0.8090459936 9.932659953e-39
-0.44412193 -0.04864799576 0.8090459936 1.058874789e-38
-0.44255811 -0.04864799576 0.8090459936 1.12337894e-38
-0.42971429 -0.02764796576 0.8113660006 1.187919104e-38
-0.42819047 -0.02764796576 0.8113660006 1.252455204e-38
-0.42666668 -0.02764796576 0.8113660006 1.26181826e-38
-0.42514285 -0.02764796576 0.8113660006 1.280222634e-38
-0.42361906 -0.02764796576 0.8113660006 1.30784643e-38
-0.42209524 -0.02764796576 0.8113660006 1.344507341e-38
-0.42057142 -0.02764796576 0.8113660006 1.307412869e-38
-0.41800001 -0.02564799576 0.8115869546 1.279791594e-38
-0.41648 -0.02564799576 0.8115869546 1.233803221e-38
-0.41600001 -0.02764796576 0.8113660006 1.196923708e-38
-0.41344002 -0.02564799576 0.8115869546 1.178447307e-38
-0.41192001 -0.02564799576 0.8115869546 1.16011538e-38
-0.4104 -0.02564799576 0.8115869546 1.095901579e-38
-0.40888 -0.02564799576 0.8115869546 1.040225609e-38
-0.40736002 -0.02564799576 0.8115869546 9.386320306e-39
-0.40584001 -0.02564799576 0.8115869546 8.46149555e-39
-0.40432 -0.02564799576 0.8115869546 7.353358533e-39
-0.40380952 -0.02764796576 0.8113660006 6.345312062e-39
-0.4022857 -0.02764796576 0.8113660006 5.429459819e-39
-0.40276572 -0.03164797576 0.8109240986 4.508579718e-39
-0.40223241 -0.03364800576 0.8107031376 4.874474161e-39
-0.40169144 -0.03564798576 0.8104821906 5.241824554e-39
-0.40015239 -0.03564798576 0.8104821906 5.241834363e-39
-0.3996 -0.03764801576 0.8102612356 5.242197299e-39
-0.39805716 -0.03764801576 0.8102612356 4.967412479e-39
-0.39847237 -0.04164796576 0.8098193346 4.690099717e-39
-0.39740956 -0.04264801576 0.8097088496 4.688293444e-39
