# .PCD v0.7 - Point Cloud Data file format
VERSION 0.7
FIELDS x y z rgb
SIZE 4 4 4 4
TYPE F F F F
COUNT 1 1 1 1
WIDTH 905
HEIGHT 1
VIEWPOINT 0 0 0 1 0 0 0
POINTS 905
DATA ascii
0.27161905 0.1033251422 0.8195663871 1.1311923e-38
0.27379999 0.1013251722 0.8199092471 1.057795369e-38
0.27457145 0.1033251422 0.8195663871 1.048611539e-38
0.27675998 0.1013251722 0.8199092471 1.048576086e-38
0.2789562 0.09932514217 0.8202520971 1.021025998e-38
0.27971998 0.1013251722 0.8199092471 1.002623726e-38
0.28192383 0.09932514217 0.8202520971 1.002265695e-38
0.28377146 0.09832515217 0.8204235371 1.011592177e-38
0.28525716 0.09832515217 0.8204235371 9.383027255e-39
0.28674287 0.09832515217 0.8204235371 8.741972444e-39
0.28822857 0.09832515217 0.8204235371 9.111109492e-39
0.28971431 0.09832515217 0.8204235371 9.478459884e-39
0.12757334 0.1423251222 0.8142825871 1.150276864e-38
0.12950096 0.1393251622 0.8148025771 1.150384344e-38
0.13090858 0.1393251622 0.8148025771 1.150527556e-38
0.1323162 0.1393251622 0.8148025771 1.150455529e-38
0.13390477 0.1383251722 0.8149759271 1.150384063e-38
0.13531429 0.1383251722 0.8149759271 1.141165061e-38
0.13709335 0.1363251422 0.8153225871 1.141164781e-38
0.13850667 0.1363251422 0.8153225871 1.150419936e-38
0.14416 0.1363251422 0.8153225871 1.1231197e-38
0.14557333 0.1363251422 0.8153225871 1.17836435e-38
0.14698668 0.1363251422 0.8153225871 1.113684897e-38
0.15387429 0.1303251522 0.8163625771 1.113649304e-38
0.15529905 0.1303251522 0.8163625771 1.104466455e-38
0.17846857 0.1103251722 0.8198292471 1.271652572e-38
0.17993143 0.1103251722 0.8198292471 1.493852827e-38
0.18139429 0.1103251722 0.8198292471 1.585438611e-38
0.18261905 0.1113251622 0.8196559171 1.677057187e-38
0.18408 0.1113251622 0.8196559171 1.685700956e-38
0.18554096 0.1113251622 0.8196559171 1.685192004e-38
0.18700191 0.1113251622 0.8196559171 1.601887753e-38
0.18870857 0.1103251722 0.8198292471 1.527778403e-38
0.19017144 0.1103251722 0.8198292471 1.435588938e-38
0.19163428 0.1103251722 0.8198292471 1.352608668e-38
0.19309714 0.1103251722 0.8198292471 1.352387963e-38
0.19430667 0.1113251622 0.8196559171 1.343027289e-38
0.19576761 0.1113251622 0.8196559171 1.361647743e-38
0.19722858 0.1113251622 0.8196559171 1.370973525e-38
0.19817144 0.1133251322 0.8193092571 1.343421755e-38
0.19962859 0.1133251322 0.8193092571 1.325053955e-38
0.20108573 0.1133251322 0.8193092571 1.297323379e-38
0.20254287 0.1133251322 0.8193092571 1.278920407e-38
0.20400001 0.1133251322 0.8193092571 1.260625054e-38
0.20545715 0.1133251322 0.8193092571 1.233145591e-38
0.20637333 0.1153251722 0.8189625771 1.223746242e-38
0.20837143 0.1133251322 0.8193092571 1.223639463e-38
0.20928 0.1153251722 0.8189625771 1.214241655e-38
0.21073334 0.1153251722 0.8189625771 1.204841885e-38
0.21218666 0.1153251722 0.8189625771 1.214060467e-38
0.21308 0.1173251422 0.8186159171 1.232499032e-38
0.21509334 0.1153251722 0.8189625771 1.195764553e-38
0.21654667 0.1153251722 0.8189625771 1.168213484e-38
0.21800001 0.1153251722 0.8189625771 1.17736074e-38
0.21945333 0.1153251722 0.8189625771 1.186151926e-38
0.22148572 0.1133251322 0.8193092571 1.14023642e-38
0.22294286 0.1133251322 0.8193092571 1.094353144e-38
0.22440001 0.1133251322 0.8193092571 1.103535292e-38
0.22585715 0.1133251322 0.8193092571 1.103534592e-38
0.22790857 0.1113251622 0.8196559171 1.075947369e-38
0.22936954 0.1113251622 0.8196559171 1.048397281e-38
0.23083048 0.1113251622 0.8196559171 1.066800814e-38
0.23259428 0.1103251722 0.8198292471 1.094387476e-38
0.23405714 0.1103251722 0.8198292471 1.121974278e-38
0.23552001 0.1103251722 0.8198292471 1.158782465e-38
0.23698285 0.1103251722 0.8198292471 1.131521044e-38
0.23844571 0.1103251722 0.8198292471 1.11311625e-38
0.23990858 0.1103251722 0.8198292471 1.122333852e-38
0.24137142 0.1103251722 0.8198292471 1.122548811e-38
0.24283428 0.1103251722 0.8198292471 1.150135193e-38
0.24429713 0.1103251722 0.8198292471 1.177793181e-38
0.24576001 0.1103251722 0.8198292471 1.195801408e-38
0.24722287 0.1103251722 0.8198292471 1.214059486e-38
0.2486857 0.1103251722 0.8198292471 1.177359899e-38
0.25080001 0.1083251422 0.8201759271 1.131336213e-38
0.25161144 0.1103251722 0.8198292471 1.149705134e-38
0.25373334 0.1083251422 0.8201759271 1.168108387e-38
0.25520003 0.1083251422 0.8201759271 1.177399977e-38
0.25666666 0.1083251422 0.8201759271 1.195838402e-38
0.25880381 0.1063251722 0.8205225871 1.177578642e-38
0.26061144 0.1053251222 0.8206959171 1.168466138e-38
0.26208383 0.1053251222 0.8206959171 1.150170225e-38
0.26355618 0.1053251222 0.8206959171 1.131874312e-38
0.26571429 0.1033251422 0.8210425771 1.122439089e-38
0.26719049 0.1033251422 0.8210425771 1.11314848e-38
0.26866665 0.1033251422 0.8210425771 1.122153224e-38
0.27014288 0.1033251422 0.8210425771 1.131156707e-38
0.27161905 0.1033251422 0.8210425771 1.076090722e-38
0.27379999 0.1013251722 0.8213892471 1.03024416e-38
0.27528 0.1013251722 0.8213892471 1.011840767e-38
0.27675998 0.1013251722 0.8213892471 1.002478552e-38
0.2789562 0.09932514217 0.8217359271 9.566692642e-39
0.28044 0.09932514217 0.8217359271 9.108246639e-39
0.28228572 0.09832515217 0.8219092571 9.474886573e-39
0.28377146 0.09832515217 0.8219092571 9.841509692e-39
0.28525716 0.09832515217 0.8219092571 9.475959968e-39
0.28674287 0.09832515217 0.8219092571 9.111482237e-39
0.28822857 0.09832515217 0.8219092571 9.295506357e-39
0.1782362 0.1113251622 0.8211168671 1.658831618e-38
0.17969714 0.1113251622 0.8211168671 1.685663962e-38
0.1811581 0.1113251622 0.8211168671 1.648247331e-38
0.18261905 0.1113251622 0.8211168671 1.610362947e-38
0.18408 0.1113251622 0.8211168671 1.535744364e-38
0.18554096 0.1113251622 0.8211168671 1.462380924e-38
0.18700191 0.1113251622 0.8211168671 1.425751683e-38
0.18846285 0.1113251622 0.8211168671 1.389234265e-38
0.18992381 0.1113251622 0.8211168671 1.371083807e-38
0.19138476 0.1113251622 0.8211168671 1.352498526e-38
0.19284572 0.1113251622 0.8211168671 1.352423976e-38
0.1938 0.1133251322 0.8207663971 1.361573054e-38
0.19525716 0.1133251322 0.8207663971 1.352391046e-38
0.1967143 0.1133251322 0.8207663971 1.352605445e-38
0.19817144 0.1133251322 0.8207663971 1.325125701e-38
0.19962859 0.1133251322 0.8207663971 1.306686435e-38
0.20108573 0.1133251322 0.8207663971 1.297287226e-38
0.20254287 0.1133251322 0.8207663971 1.288212417e-38
0.20400001 0.1133251322 0.8207663971 1.260806382e-38
0.20491999 0.1153251722 0.8204159071 1.242222502e-38
0.20637333 0.1153251722 0.8204159071 1.232858185e-38
0.20782667 0.1153251722 0.8204159071 1.232607353e-38
0.20928 0.1153251722 0.8204159071 1.214061308e-38
0.21073334 0.1153251722 0.8204159071 1.195658055e-38
0.21218666 0.1153251722 0.8204159071 1.177398295e-38
0.21364 0.1153251722 0.8204159071 1.158959029e-38
0.21509334 0.1153251722 0.8204159071 1.140519903e-38
0.21654667 0.1153251722 0.8204159071 1.131336353e-38
0.21800001 0.1153251722 0.8204159071 1.122188677e-38
0.21945333 0.1153251722 0.8204159071 1.121866939e-38
0.22148572 0.1133251322 0.8207663971 1.084990368e-38
0.22294286 0.1133251322 0.8207663971 1.048327356e-38
0.22498667 0.1113251622 0.8211168671 1.048398682e-38
0.22585715 0.1133251322 0.8207663971 1.048505741e-38
0.22790857 0.1113251622 0.8211168671 9.934754894e-39
0.22936954 0.1113251622 0.8211168671 9.477024954e-39
0.23113143 0.1103251722 0.8212920971 1.01216783e-38
0.23259428 0.1103251722 0.8212920971 1.076236597e-38
0.23466668 0.1083251422 0.8216425871 1.131265308e-38
0.23552001 0.1103251722 0.8212920971 1.186331713e-38
0.23698285 0.1103251722 0.8212920971 1.149921495e-38
0.23844571 0.1103251722 0.8212920971 1.113186175e-38
0.23990858 0.1103251722 0.8212920971 1.113185054e-38
0.24137142 0.1103251722 0.8212920971 1.113257081e-38
0.24283428 0.1103251722 0.8212920971 1.131767953e-38
0.24429713 0.1103251722 0.8212920971 1.14999226e-38
0.24576001 0.1103251722 0.8212920971 1.16825258e-38
0.24722287 0.1103251722 0.8212920971 1.186546392e-38
0.24933335 0.1083251422 0.8216425871 1.168213765e-38
0.25080001 0.1083251422 0.8216425871 1.15895987e-38
0.25161144 0.1103251722 0.8212920971 1.168073074e-38
0.25373334 0.1083251422 0.8216425871 1.186475766e-38
0.25520003 0.1083251422 0.8216425871 1.205093698e-38
0.25733334 0.1063251722 0.8219930571 1.223353598e-38
0.25880381 0.1063251722 0.8219930571 1.196018609e-38
0.26061144 0.1053251222 0.8221682971 1.177686402e-38
0.26208383 0.1053251222 0.8221682971 1.150170786e-38
0.26355618 0.1053251222 0.8221682971 1.122475803e-38
0.26571429 0.1033251422 0.8225187771 1.10396451e-38
0.26719049 0.1033251422 0.8225187771 1.094638729e-38
0.26936001 0.1013251722 0.8228692471 1.076093525e-38
0.27083999 0.1013251722 0.8228692471 1.057725444e-38
0.27232 0.1013251722 0.8228692471 1.030173815e-38
0.27379999 0.1013251722 0.8228692471 1.002622465e-38
0.27528 0.1013251722 0.8228692471 9.750712558e-39
0.27675998 0.1013251722 0.8228692471 9.566331107e-39
0.27931428 0.09832515217 0.8233949571 8.831295412e-39
0.28044 0.09932514217 0.8232197371 8.190253212e-39
0.28228572 0.09832515217 0.8233949571 8.926384723e-39
0.28377146 0.09832515217 0.8233949571 9.661072896e-39
0.28525716 0.09832515217 0.8233949571 9.569243005e-39
0.28674287 0.09832515217 0.8233949571 9.571022654e-39
0.17631429 0.1133251322 0.8222235371 1.548341336e-38
0.1782362 0.1113251622 0.8225778271 1.537938097e-38
0.17922859 0.1133251322 0.8222235371 1.527567647e-38
0.1811581 0.1113251622 0.8225778271 1.490292267e-38
0.18214287 0.1133251322 0.8222235371 1.443833478e-38
0.18360001 0.1133251322 0.8222235371 1.398020547e-38
0.18554096 0.1113251622 0.8225778271 1.35221182e-38
0.18651429 0.1133251322 0.8222235371 1.343101418e-38
0.18797144 0.1133251322 0.8222235371 1.334346526e-38
0.18992381 0.1113251622 0.8225778271 1.334165338e-38
0.19138476 0.1113251622 0.8225778271 1.334021424e-38
0.19234286 0.1133251322 0.8222235371 1.334128764e-38
0.1938 0.1133251322 0.8222235371 1.343456507e-38
0.19525716 0.1133251322 0.8222235371 1.371007857e-38
0.19620001 0.1153251722 0.8218692471 1.398557945e-38
0.19765334 0.1153251722 0.8218692471 1.352639776e-38
0.19910666 0.1153251722 0.8218692471 1.315869565e-38
0.20055999 0.1153251722 0.8218692471 1.288318776e-38
0.20201333 0.1153251722 0.8218692471 1.260806102e-38
0.20346667 0.1153251722 0.8218692471 1.242082512e-38
0.20491999 0.1153251722 0.8218692471 1.223354299e-38
0.20637333 0.1153251722 0.8218692471 1.20523593e-38
0.20782667 0.1153251722 0.8218692471 1.186474085e-38
0.20928 0.1153251722 0.8218692471 1.168106845e-38
0.21073334 0.1153251722 0.8218692471 1.149740026e-38
0.21218666 0.1153251722 0.8218692471 1.131444954e-38
0.21364 0.1153251722 0.8218692471 1.121938125e-38
0.21509334 0.1153251722 0.8218692471 1.112682408e-38
0.21654667 0.1153251722 0.8218692471 1.094243983e-38
0.21800001 0.1153251722 0.8218692471 1.085096727e-38
0.21945333 0.1153251722 0.8218692471 1.075949051e-38
0.22148572 0.1133251322 0.8222235371 1.048290782e-38
0.22294286 0.1133251322 0.8222235371 1.020561187e-38
0.22498667 0.1113251622 0.8225778271 1.020848734e-38
0.22644763 0.1113251622 0.8225778271 1.02102754e-38
0.22820571 0.1103251722 0.8227549671 1.002731626e-38
0.22966857 0.1103251722 0.8227549671 9.937292645e-39
0.23113143 0.1103251722 0.8227549671 1.012169932e-38
0.23259428 0.1103251722 0.8227549671 1.030391576e-38
0.23405714 0.1103251722 0.8227549671 1.05779677e-38
0.23552001 0.1103251722 0.8227549671 1.094530829e-38
0.23698285 0.1103251722 0.8227549671 1.085383152e-38
0.23844571 0.1103251722 0.8227549671 1.067087379e-38
0.23990858 0.1103251722 0.8227549671 1.076342255e-38
0.24137142 0.1103251722 0.8227549671 1.085598252e-38
0.24283428 0.1103251722 0.8227549671 1.103966052e-38
0.24429713 0.1103251722 0.8227549671 1.113151423e-38
0.24576001 0.1103251722 0.8227549671 1.122265048e-38
0.24786668 0.1083251422 0.8231092471 1.140558719e-38
0.24933335 0.1083251422 0.8231092471 1.131516981e-38
0.25080001 0.1083251422 0.8231092471 1.131518102e-38
0.25226668 0.1083251422 0.8231092471 1.140631026e-38
0.25373334 0.1083251422 0.8231092471 1.149741848e-38
0.25520003 0.1083251422 0.8231092471 1.15896029e-38
0.25733334 0.1063251722 0.8234635171 1.177400257e-38
0.25913906 0.1053251222 0.8236406771 1.158998546e-38
0.26061144 0.1053251222 0.8236406771 1.149813735e-38
0.26276192 0.1033251422 0.8239949671 1.131302022e-38
0.26423809 0.1033251422 0.8239949671 1.122009871e-38
0.26571429 0.1033251422 0.8239949671 1.094458382e-38
0.26788002 0.1013251722 0.8243492471 1.076129117e-38
0.26936001 0.1013251722 0.8243492471 1.057728107e-38
0.27083999 0.1013251722 0.8243492471 1.039359606e-38
0.27232 0.1013251722 0.8243492471 1.00266002e-38
0.27379999 0.1013251722 0.8243492471 9.751802768e-39
0.27528 0.1013251722 0.8243492471 9.660317596e-39
0.27675998 0.1013251722 0.8243492471 9.569206571e-39
0.27931428 0.09832515217 0.8248806771 9.109677365e-39
0.27971998 0.1013251722 0.8243492471 8.741986457e-39
0.28119999 0.1013251722 0.8243492471 9.478115165e-39
0.28377146 0.09832515217 0.8248806771 1.030536331e-38
0.17294668 0.1153251722 0.8233225871 1.721748658e-38
0.17439999 0.1153251722 0.8233225871 1.593032108e-38
0.17631429 0.1133251322 0.8236806771 1.463924174e-38
0.1782362 0.1113251622 0.8240387671 1.417504201e-38
0.17922859 0.1133251322 0.8236806771 1.380697275e-38
0.18068573 0.1133251322 0.8236806771 1.33327201e-38
0.18214287 0.1133251322 0.8236806771 1.287389014e-38
0.18360001 0.1133251322 0.8236806771 1.2690924e-38
0.18505715 0.1133251322 0.8236806771 1.25115648e-38
0.18651429 0.1133251322 0.8236806771 1.269667773e-38
0.18797144 0.1133251322 0.8236806771 1.287925992e-38
0.18893334 0.1153251722 0.8233225871 1.297036534e-38
0.19038667 0.1153251722 0.8233225871 1.315583139e-38
0.19184001 0.1153251722 0.8233225871 1.325053815e-38
0.19329333 0.1153251722 0.8233225871 1.334237925e-38
0.19474667 0.1153251722 0.8233225871 1.389590896e-38
0.19620001 0.1153251722 0.8233225871 1.453766862e-38
0.19765334 0.1153251722 0.8233225871 1.389373274e-38
0.19910666 0.1153251722 0.8233225871 1.32501654e-38
0.20055999 0.1153251722 0.8233225871 1.279385638e-38
0.20201333 0.1153251722 0.8233225871 1.242258095e-38
0.20346667 0.1153251722 0.8233225871 1.223246679e-38
0.20491999 0.1153251722 0.8233225871 1.214205361e-38
0.20637333 0.1153251722 0.8233225871 1.177649268e-38
0.20782667 0.1153251722 0.8233225871 1.149739466e-38
0.20928 0.1153251722 0.8233225871 1.122152664e-38
0.21073334 0.1153251722 0.8233225871 1.103821718e-38
0.21218666 0.1153251722 0.8233225871 1.094674182e-38
0.21364 0.1153251722 0.8233225871 1.094351182e-38
0.21509334 0.1153251722 0.8233225871 1.076055549e-38
0.21654667 0.1153251722 0.8233225871 1.066907873e-38
0.21800001 0.1153251722 0.8233225871 1.048576507e-38
0.21945333 0.1153251722 0.8233225871 1.039177718e-38
0.22148572 0.1133251322 0.8236806771 1.020810759e-38
0.22352572 0.1113251622 0.8240387671 1.002479673e-38
0.22528 0.1103251722 0.8242178171 9.933322767e-39
0.22674286 0.1103251722 0.8242178171 9.935112225e-39
0.22820571 0.1103251722 0.8242178171 1.021205084e-38
0.22966857 0.1103251722 0.8242178171 1.048828741e-38
0.23173334 0.1083251422 0.8245759271 1.01216769e-38
0.23320001 0.1083251422 0.8245759271 9.844725672e-39
0.23466668 0.1083251422 0.8245759271 9.935476563e-39
0.23613335 0.1083251422 0.8245759271 1.011915036e-38
0.23760001 0.1083251422 0.8245759271 1.021134599e-38
0.23906668 0.1083251422 0.8245759271 1.030281715e-38
0.24053334 0.1083251422 0.8245759271 1.04861238e-38
0.242 0.1083251422 0.8245759271 1.067051646e-38
0.24346668 0.1083251422 0.8245759271 1.076343096e-38
0.24493335 0.1083251422 0.8245759271 1.085492173e-38
0.2464 0.1083251422 0.8245759271 1.085493575e-38
0.24786668 0.1083251422 0.8245759271 1.094568664e-38
0.24933335 0.1083251422 0.8245759271 1.104038359e-38
0.25080001 0.1083251422 0.8245759271 1.113114849e-38
0.25292191 0.1063251722 0.8249340171 1.113366522e-38
0.25439239 0.1063251722 0.8249340171 1.113078696e-38
0.25586286 0.1063251722 0.8249340171 1.122297278e-38
0.25766668 0.1053251222 0.8251130671 1.140664937e-38
0.25913906 0.1053251222 0.8251130671 1.131517822e-38
0.26128572 0.1033251422 0.8254711571 1.122297698e-38
0.26276192 0.1033251422 0.8254711571 1.122296997e-38
0.26423809 0.1033251422 0.8254711571 1.122224971e-38
0.26640001 0.1013251722 0.8258292471 1.094638308e-38
0.26788002 0.1013251722 0.8258292471 1.06708836e-38
0.27005336 0.09932514217 0.8261873471 1.039538412e-38
0.27153715 0.09932514217 0.8261873471 1.020991246e-38
0.27302098 0.09932514217 0.8261873471 9.843280933e-39
0.27379999 0.1013251722 0.8258292471 9.568124769e-39
0.27528 0.1013251722 0.8258292471 9.568835227e-39
0.27747238 0.09932514217 0.8261873471 9.661036462e-39
0.2789562 0.09932514217 0.8261873471 9.478091343e-39
0.28080001 0.09832515217 0.8263663871 9.294781885e-39
0.28119999 0.1013251722 0.8258292471 1.012202302e-38
0.16858667 0.1153251722 0.8247759071 1.630811254e-38
0.17004001 0.1153251722 0.8247759071 1.694952889e-38
0.17149334 0.1153251722 0.8247759071 1.574706207e-38
0.17294668 0.1153251722 0.8247759071 1.463672221e-38
0.17439999 0.1153251722 0.8247759071 1.399165968e-38
0.17585333 0.1153251722 0.8247759071 1.334701475e-38
0.17777143 0.1133251322 0.8251378171 1.307222432e-38
0.17922859 0.1133251322 0.8251378171 1.28892834e-38
0.18068573 0.1133251322 0.8251378171 1.260087656e-38
0.18214287 0.1133251322 0.8251378171 1.241541611e-38
0.18312 0.1153251722 0.8247759071 1.241721538e-38
0.18457334 0.1153251722 0.8247759071 1.241936777e-38
0.18602666 0.1153251722 0.8247759071 1.25137144e-38
0.18748 0.1153251722 0.8247759071 1.260554149e-38
0.18893334 0.1153251722 0.8247759071 1.269665251e-38
0.18988763 0.1173251422 0.8244140171 1.278813488e-38
0.19184001 0.1153251722 0.8247759071 1.288212978e-38
0.19329333 0.1153251722 0.8247759071 1.297468694e-38
0.19474667 0.1153251722 0.8247759071 1.334346946e-38
0.19620001 0.1153251722 0.8247759071 1.371222676e-38
0.19765334 0.1153251722 0.8247759071 1.32501598e-38
0.19910666 0.1153251722 0.8247759071 1.279098092e-38
0.20055999 0.1153251722 0.8247759071 1.24222026e-38
0.20201333 0.1153251722 0.8247759071 1.205342989e-38
0.20346667 0.1153251722 0.8247759071 1.186653591e-38
0.20438287 0.1173251422 0.8244140171 1.169111436e-38
0.20583239 0.1173251422 0.8244140171 1.12244021e-38
0.20782667 0.1153251722 0.8247759071 1.085454338e-38
0.20928 0.1153251722 0.8247759071 1.067050946e-38
0.21073334 0.1153251722 0.8247759071 1.03942869e-38
0.21218666 0.1153251722 0.8247759071 1.048576507e-38
0.21364 0.1153251722 0.8247759071 1.048433014e-38
0.21565716 0.1133251322 0.8251378171 1.030137661e-38
0.21654667 0.1153251722 0.8247759071 1.011841748e-38
0.21857144 0.1133251322 0.8251378171 1.002442398e-38
0.22002858 0.1133251322 0.8251378171 9.930794824e-39
0.22206476 0.1113251622 0.8254997371 9.747483966e-39
0.22381714 0.1103251722 0.8256806671 9.564529037e-39
0.22528 0.1103251722 0.8256806671 9.474128471e-39
0.22733334 0.1083251422 0.8260425871 9.384443968e-39
0.2288 0.1083251422 0.8260425871 9.108578747e-39
0.23026668 0.1083251422 0.8260425871 8.832720532e-39
0.23173334 0.1083251422 0.8260425871 8.923129507e-39
0.23380572 0.1063251722 0.8264044871 9.013531474e-39
0.23466668 0.1083251422 0.8260425871 9.106087238e-39
0.23613335 0.1083251422 0.8260425871 9.290479899e-39
0.23760001 0.1083251422 0.8260425871 9.474156497e-39
0.23906668 0.1083251422 0.8260425871 9.657820482e-39
0.24053334 0.1083251422 0.8260425871 9.841125736e-39
0.242 0.1083251422 0.8260425871 1.002479673e-38
0.24346668 0.1083251422 0.8260425871 1.011950208e-38
0.24493335 0.1083251422 0.8260425871 1.021062852e-38
0.2464 0.1083251422 0.8260425871 1.03021151e-38
0.24786668 0.1083251422 0.8260425871 1.039395059e-38
0.24933335 0.1083251422 0.8260425871 1.048686229e-38
0.25145143 0.1063251722 0.8264044871 1.058013271e-38
0.25292191 0.1063251722 0.8264044871 1.058013411e-38
0.25472191 0.1053251222 0.8265854471 1.067231993e-38
0.25619432 0.1053251222 0.8265854471 1.076378969e-38
0.25766668 0.1053251222 0.8265854471 1.094674322e-38
0.25980952 0.1033251422 0.8269473371 1.085526645e-38
0.26128572 0.1033251422 0.8269473371 1.085454619e-38
0.26343998 0.1013251722 0.8273092471 1.085418465e-38
0.26492003 0.1013251722 0.8273092471 1.094602435e-38
0.26640001 0.1013251722 0.8273092471 1.066908854e-38
0.26856953 0.09932514217 0.8276711671 1.039214152e-38
0.27040002 0.09832515217 0.8278521071 1.030101928e-38
0.27153715 0.09932514217 0.8276711671 1.011806435e-38
0.27337143 0.09832515217 0.8278521071 9.750363634e-39
0.27485713 0.09832515217 0.8278521071 9.290460281e-39
0.27598858 0.09932514217 0.8276711671 9.660306386e-39
0.27747238 0.09932514217 0.8276711671 9.936538747e-39
0.2789562 0.09932514217 0.8276711671 9.754669824e-39
0.28080001 0.09832515217 0.8278521071 9.479877998e-39
0.16669525 0.1173251422 0.8258635371 1.675793075e-38
0.16814476 0.1173251422 0.8258635371 1.61975557e-38
0.17004001 0.1153251722 0.8262292471 1.573264691e-38
0.17149334 0.1153251722 0.8262292471 1.389056581e-38
0.17294668 0.1153251722 0.8262292471 1.214781855e-38
0.17439999 0.1153251722 0.8262292471 1.215030586e-38
0.17585333 0.1153251722 0.8262292471 1.214994012e-38
0.17730667 0.1153251722 0.8262292471 1.205774028e-38
0.17829144 0.1173251422 0.8258635371 1.196339787e-38
0.17974097 0.1173251422 0.8258635371 1.196088954e-38
0.18119049 0.1173251422 0.8258635371 1.205272784e-38
0.18264 0.1173251422 0.8258635371 1.214492347e-38
0.18408953 0.1173251422 0.8258635371 1.232966786e-38
0.18553905 0.1173251422 0.8258635371 1.233110138e-38
0.18698858 0.1173251422 0.8258635371 1.242257675e-38
0.1884381 0.1173251422 0.8258635371 1.242221661e-38
0.18988763 0.1173251422 0.8258635371 1.242221942e-38
0.19133715 0.1173251422 0.8258635371 1.251405771e-38
0.19278668 0.1173251422 0.8258635371 1.269952237e-38
0.19474667 0.1153251722 0.8262292471 1.279100053e-38
0.19568573 0.1173251422 0.8258635371 1.297430579e-38
0.19713524 0.1173251422 0.8258635371 1.269879229e-38
0.19858477 0.1173251422 0.8258635371 1.242256414e-38
0.20003429 0.1173251422 0.8258635371 1.205450188e-38
0.20148382 0.1173251422 0.8258635371 1.168536904e-38
0.20293334 0.1173251422 0.8258635371 1.140878916e-38
0.20491999 0.1153251722 0.8262292471 1.12243965e-38
0.20637333 0.1153251722 0.8262292471 1.076449735e-38
0.20782667 0.1153251722 0.8262292471 1.030424227e-38
0.20928 0.1153251722 0.8262292471 1.002765958e-38
0.21128573 0.1133251322 0.8265949671 9.843269722e-39
0.21274288 0.1133251322 0.8265949671 9.934746486e-39
0.21420002 0.1133251322 0.8265949671 1.011698115e-38
0.21565716 0.1133251322 0.8265949671 9.840397061e-39
0.2171143 0.1133251322 0.8265949671 9.567041565e-39
0.21857144 0.1133251322 0.8265949671 9.562733974e-39
0.22002858 0.1133251322 0.8265949671 9.563092706e-39
0.22206476 0.1113251622 0.8269606771 9.376551855e-39
0.22381714 0.1103251722 0.8271435271 9.196109454e-39
0.22586668 0.1083251422 0.8275092571 9.014949588e-39
0.22733334 0.1083251422 0.8275092571 8.922395226e-39
0.22939429 0.1063251722 0.8278749671 8.003681532e-39
0.23086476 0.1063251722 0.8278749671 7.177166271e-39
0.23233524 0.1063251722 0.8278749671 7.728542184e-39
0.2341086 0.1053251222 0.8280578371 8.279196428e-39
0.23527619 0.1063251722 0.8278749671 8.371033326e-39
0.23674667 0.1063251722 0.8278749671 8.462874427e-39
0.23821715 0.1063251722 0.8278749671 8.738745253e-39
0.23968762 0.1063251722 0.8278749671 9.106440365e-39
0.2411581 0.1063251722 0.8278749671 9.19863039e-39
0.24262857 0.1063251722 0.8278749671 9.381945452e-39
0.24409907 0.1063251722 0.8278749671 9.475936146e-39
0.24556951 0.1063251722 0.8278749671 9.659255412e-39
0.24703999 0.1063251722 0.8278749671 9.750739182e-39
0.24851048 0.1063251722 0.8278749671 9.934767506e-39
0.24998096 0.1063251722 0.8278749671 9.93548497e-39
0.25177717 0.1053251222 0.8280578371 1.002803513e-38
0.25324953 0.1053251222 0.8280578371 1.012166148e-38
0.25538096 0.1033251422 0.8284235371 1.021313264e-38
0.25685716 0.1033251422 0.8284235371 1.030496394e-38
0.25833333 0.1033251422 0.8284235371 1.048827479e-38
0.25980952 0.1033251422 0.8284235371 1.048827339e-38
0.26196 0.1013251722 0.8287892571 1.04871972e-38
0.26343998 0.1013251722 0.8287892571 1.05779579e-38
0.26560193 0.09932514217 0.8291549771 1.067123253e-38
0.26742858 0.09832515217 0.8293378271 1.039250165e-38
0.26891431 0.09832515217 0.8293378271 1.020918238e-38
0.27109334 0.09632512217 0.8297035471 1.011769861e-38
0.27258289 0.09632512217 0.8297035471 1.011770422e-38
0.27407241 0.09632512217 0.8297035471 9.566695445e-39
0.27626669 0.09432514217 0.8300692671 9.108229823e-39
0.27846858 0.09232517217 0.8304349571 9.660314794e-39
0.27996573 0.09232517217 0.8304349571 1.030497094e-38
0.16277334 0.1153251722 0.8276825771 1.594333213e-38
0.1637962 0.1173251422 0.8273130571 1.603263268e-38
0.16524573 0.1173251422 0.8273130571 1.556446307e-38
0.16669525 0.1173251422 0.8273130571 1.509660734e-38
0.16814476 0.1173251422 0.8273130571 1.463126415e-38
0.16959429 0.1173251422 0.8273130571 1.425568533e-38
0.17104381 0.1173251422 0.8273130571 1.324658509e-38
0.17249334 0.1173251422 0.8273130571 1.233362372e-38
0.17394286 0.1173251422 0.8273130571 1.214996674e-38
0.17539237 0.1173251422 0.8273130571 1.205812144e-38
0.17684191 0.1173251422 0.8273130571 1.187121204e-38
0.17829144 0.1173251422 0.8273130571 1.159246996e-38
0.17974097 0.1173251422 0.8273130571 1.159174689e-38
0.18119049 0.1173251422 0.8273130571 1.159138675e-38
0.18264 0.1173251422 0.8273130571 1.177649268e-38
0.18408953 0.1173251422 0.8273130571 1.196518032e-38
0.18553905 0.1173251422 0.8273130571 1.205414175e-38
0.18698858 0.1173251422 0.8273130571 1.214311299e-38
0.1884381 0.1173251422 0.8273130571 1.205092437e-38
0.18988763 0.1173251422 0.8273130571 1.195872874e-38
0.19133715 0.1173251422 0.8273130571 1.196123846e-38
0.19278668 0.1173251422 0.8273130571 1.205701721e-38
0.19474667 0.1153251722 0.8276825771 1.214633878e-38
0.19568573 0.1173251422 0.8273130571 1.223566735e-38
0.19765334 0.1153251722 0.8276825771 1.195980774e-38
0.19858477 0.1173251422 0.8273130571 1.177577241e-38
0.20055999 0.1153251722 0.8276825771 1.140878355e-38
0.20201333 0.1153251722 0.8276825771 1.113399593e-38
0.20346667 0.1153251722 0.8276825771 1.085705591e-38
0.20491999 0.1153251722 0.8276825771 1.067194298e-38
0.20637333 0.1153251722 0.8276825771 1.030567019e-38
0.20837143 0.1133251322 0.8280521071 1.00312427e-38
0.20982857 0.1133251322 0.8280521071 9.383016044e-39
0.21128573 0.1133251322 0.8280521071 8.738012374e-39
0.21274288 0.1133251322 0.8280521071 9.291174943e-39
0.21420002 0.1133251322 0.8280521071 9.749990889e-39
0.21565716 0.1133251322 0.8280521071 9.474841731e-39
0.2171143 0.1133251322 0.8280521071 9.199695377e-39
0.21857144 0.1133251322 0.8280521071 9.381215376e-39
0.22002858 0.1133251322 0.8280521071 9.654926801e-39
0.22206476 0.1113251622 0.8284216271 9.562731171e-39
0.22381714 0.1103251722 0.8286063871 9.470897076e-39
0.22586668 0.1083251422 0.8289759271 9.195391989e-39
0.22792381 0.1063251722 0.8293454371 8.920242832e-39
0.22939429 0.1063251722 0.8293454371 8.185557461e-39
0.23116381 0.1053251222 0.8295301971 7.542710389e-39
0.23263621 0.1053251222 0.8295301971 7.817500814e-39
0.2341086 0.1053251222 0.8295301971 8.092288437e-39
0.23558097 0.1053251222 0.8295301971 7.816780547e-39
0.23705335 0.1053251222 0.8295301971 7.449445569e-39
0.23852573 0.1053251222 0.8295301971 8.001183017e-39
0.2399981 0.1053251222 0.8295301971 8.552909255e-39
0.2414705 0.1053251222 0.8295301971 8.646535611e-39
0.24294288 0.1053251222 0.8295301971 8.739094177e-39
0.24409907 0.1063251722 0.8293454371 8.924923169e-39
0.24588762 0.1053251222 0.8295301971 9.108239632e-39
0.24736002 0.1053251222 0.8295301971 9.199004537e-39
0.24883239 0.1053251222 0.8295301971 9.290479899e-39
0.25030476 0.1053251222 0.8295301971 9.383748924e-39
0.25177717 0.1053251222 0.8295301971 9.475578814e-39
0.25324953 0.1053251222 0.8295301971 9.569202367e-39
0.25538096 0.1033251422 0.8298997171 9.754664219e-39
0.25685716 0.1033251422 0.8298997171 9.936180014e-39
0.259 0.1013251722 0.8302692571 1.011877201e-38
0.26047999 0.1013251722 0.8302692571 1.002729384e-38
0.26196 0.1013251722 0.8302692571 1.002801411e-38
0.26411811 0.09932514217 0.8306387771 1.011841888e-38
0.26594287 0.09832515217 0.8308235371 1.03046038e-38
0.2681143 0.09632512217 0.8311930671 9.936189824e-39
0.26960382 0.09632512217 0.8311930671 9.65959873e-39
0.27109334 0.09632512217 0.8311930671 9.751784551e-39
0.27258289 0.09632512217 0.8311930671 9.844347321e-39
0.27477336 0.09432514217 0.8315625871 9.660328807e-39
0.27626669 0.09432514217 0.8315625871 9.476296279e-39
0.27776 0.09432514217 0.8315625871 9.752876162e-39
0.27925333 0.09432514217 0.8315625871 1.012490269e-38
0.15944763 0.1173251422 0.8287625871 1.667330634e-38
0.16089714 0.1173251422 0.8287625871 1.694450383e-38
0.16234668 0.1173251422 0.8287625871 1.537935014e-38
0.1637962 0.1173251422 0.8287625871 1.381238316e-38
0.16524573 0.1173251422 0.8287625871 1.362294863e-38
0.16669525 0.1173251422 0.8287625871 1.352749638e-38
0.16814476 0.1173251422 0.8287625871 1.315689778e-38
0.16959429 0.1173251422 0.8287625871 1.278668874e-38
0.17104381 0.1173251422 0.8287625871 1.260266182e-38
0.17249334 0.1173251422 0.8287625871 1.251047039e-38
0.17394286 0.1173251422 0.8287625871 1.22349653e-38
0.17539237 0.1173251422 0.8287625871 1.205164884e-38
0.17684191 0.1173251422 0.8287625871 1.168466138e-38
0.17805715 0.1183251322 0.8285759171 1.131552434e-38
0.17950477 0.1183251322 0.8285759171 1.122010152e-38
0.1809524 0.1183251322 0.8285759171 1.113042402e-38
0.18240002 0.1183251322 0.8285759171 1.131625301e-38
0.18384762 0.1183251322 0.8285759171 1.159104484e-38
0.18529525 0.1183251322 0.8285759171 1.168216707e-38
0.18674287 0.1183251322 0.8285759171 1.186546952e-38
0.1884381 0.1173251422 0.8287625871 1.168178732e-38
0.18988763 0.1173251422 0.8287625871 1.159102522e-38
0.19133715 0.1173251422 0.8287625871 1.150026312e-38
0.19329333 0.1153251722 0.8291359171 1.140735142e-38
0.19474667 0.1153251722 0.8291359171 1.149846805e-38
0.19620001 0.1153251722 0.8291359171 1.159173988e-38
0.19765334 0.1153251722 0.8291359171 1.131731239e-38
0.19910666 0.1153251722 0.8291359171 1.113292674e-38
0.20055999 0.1153251722 0.8291359171 1.085706432e-38
0.20201333 0.1153251722 0.8291359171 1.058011449e-38
0.20346667 0.1153251722 0.8291359171 1.039500157e-38
0.20491999 0.1153251722 0.8291359171 1.02106075e-38
0.20691429 0.1133251322 0.8295092471 9.934379346e-39
0.20837143 0.1133251322 0.8295092471 9.749634959e-39
0.20982857 0.1133251322 0.8295092471 8.738729839e-39
0.21128573 0.1133251322 0.8295092471 7.727823318e-39
0.21274288 0.1133251322 0.8295092471 8.555779114e-39
0.21364 0.1153251722 0.8291359171 9.4755634e-39
0.21509334 0.1153251722 0.8291359171 9.109652141e-39
0.21654667 0.1153251722 0.8291359171 8.833788322e-39
0.21800001 0.1153251722 0.8291359171 9.292967204e-39
0.21945333 0.1153251722 0.8291359171 9.749640564e-39
0.22206476 0.1113251622 0.8298825871 9.747495176e-39
0.22352572 0.1113251622 0.8298825871 9.839682398e-39
0.22586668 0.1083251422 0.8304425871 9.381215376e-39
0.22821906 0.1053251222 0.8310025871 9.013873391e-39
0.22969145 0.1053251222 0.8310025871 8.463220548e-39
0.23116381 0.1053251222 0.8310025871 7.911129973e-39
0.23263621 0.1053251222 0.8310025871 7.903595191e-39
0.2347143 0.1033251422 0.8313759171 7.999735476e-39
0.23619048 0.1033251422 0.8313759171 7.265410239e-39
0.23766668 0.1033251422 0.8313759171 6.531806671e-39
0.23914286 0.1033251422 0.8313759171 7.267210907e-39
0.24061905 0.1033251422 0.8313759171 8.094087704e-39
0.2414705 0.1053251222 0.8310025871 8.094803767e-39
0.24294288 0.1053251222 0.8310025871 8.18629034e-39
0.24441525 0.1053251222 0.8310025871 8.374275931e-39
0.24588762 0.1053251222 0.8310025871 8.556870726e-39
0.24800003 0.1033251422 0.8313759171 8.555794528e-39
0.24947619 0.1033251422 0.8313759171 8.647625821e-39
0.25095239 0.1033251422 0.8313759171 8.832370208e-39
0.25242859 0.1033251422 0.8313759171 9.014963601e-39
0.25390476 0.1033251422 0.8313759171 9.1057229e-39
0.25604001 0.1013251722 0.8317492571 9.290465886e-39
0.25751999 0.1013251722 0.8317492571 9.475208872e-39
0.259 0.1013251722 0.8317492571 9.75107129e-39
0.26115048 0.09932514217 0.8321225871 9.659591724e-39
0.26263431 0.09932514217 0.8321225871 9.567398896e-39
0.26445717 0.09832515217 0.8323092571 9.750712558e-39
0.26662478 0.09632512217 0.8326825971 9.936545753e-39
0.2681143 0.09632512217 0.8326825971 9.477735413e-39
0.26960382 0.09632512217 0.8326825971 9.110397632e-39
0.27109334 0.09632512217 0.8326825971 9.386265656e-39
0.27258289 0.09632512217 0.8326825971 9.660690342e-39
0.27407241 0.09632512217 0.8326825971 9.752880366e-39
0.27626669 0.09432514217 0.8330559171 9.84506899e-39
0.27776 0.09432514217 0.8330559171 9.937257613e-39
0.27925333 0.09432514217 0.8330559171 1.003090219e-38
0.15593143 0.1203251622 0.8296463871 1.483083988e-38
0.15779048 0.1183251322 0.8300235471 1.520032725e-38
0.1592381 0.1183251322 0.8300235471 1.500875854e-38
0.16068573 0.1183251322 0.8300235471 1.481717862e-38
0.16213334 0.1183251322 0.8300235471 1.40821191e-38
0.16358095 0.1183251322 0.8300235471 1.343924681e-38
0.16502859 0.1183251322 0.8300235471 1.33441589e-38
0.16669525 0.1173251422 0.8302121071 1.315655306e-38
0.16814476 0.1173251422 0.8302121071 1.288105778e-38
0.16959429 0.1173251422 0.8302121071 1.269558472e-38
0.17104381 0.1173251422 0.8302121071 1.251082912e-38
0.17249334 0.1173251422 0.8302121071 1.232607212e-38
0.1737143 0.1183251322 0.8300235471 1.205235089e-38
0.17516191 0.1183251322 0.8300235471 1.177827933e-38
0.17660955 0.1183251322 0.8300235471 1.149882819e-38
0.17805715 0.1183251322 0.8300235471 1.122224971e-38
0.17950477 0.1183251322 0.8300235471 1.103679066e-38
0.1809524 0.1183251322 0.8300235471 1.094353144e-38
0.18240002 0.1183251322 0.8300235471 1.112757378e-38
0.18384762 0.1183251322 0.8300235471 1.140381034e-38
0.18529525 0.1183251322 0.8300235471 1.149745211e-38
0.18674287 0.1183251322 0.8300235471 1.159069591e-38
0.1884381 0.1173251422 0.8302121071 1.140520463e-38
0.18988763 0.1173251422 0.8302121071 1.131228874e-38
0.19133715 0.1173251422 0.8302121071 1.103713678e-38
0.19329333 0.1153251722 0.8305892571 1.085418465e-38
0.19474667 0.1153251722 0.8305892571 1.076306802e-38
0.19620001 0.1153251722 0.8305892571 1.076414282e-38
0.19765334 0.1153251722 0.8305892571 1.04882762e-38
0.19910666 0.1153251722 0.8305892571 1.030461641e-38
0.20055999 0.1153251722 0.8305892571 9.751820985e-39
0.20201333 0.1153251722 0.8305892571 9.199356262e-39
0.20346667 0.1153251722 0.8305892571 9.474128471e-39
0.20545715 0.1133251322 0.8309664071 9.84110892e-39
0.20691429 0.1133251322 0.8309664071 9.841824984e-39
0.20837143 0.1133251322 0.8309664071 9.840032723e-39
0.20982857 0.1133251322 0.8309664071 9.289022549e-39
0.21128573 0.1133251322 0.8309664071 8.830209405e-39
0.21274288 0.1133251322 0.8309664071 9.200785587e-39
0.21364 0.1153251722 0.8305892571 9.663184653e-39
0.21509334 0.1153251722 0.8305892571 9.480582851e-39
0.21597905 0.1173251422 0.8302121071 9.297989457e-39
0.21742858 0.1173251422 0.8302121071 9.571703685e-39
0.21945333 0.1153251722 0.8305892571 9.937266021e-39
0.22206476 0.1113251622 0.8313435271 1.021278792e-38
0.22352572 0.1113251622 0.8313435271 1.058011449e-38
0.22586668 0.1083251422 0.8319092471 1.01219992e-38
0.22880954 0.1033251422 0.8328521171 9.663899315e-39
0.23028573 0.1033251422 0.8328521171 9.477002534e-39
0.2317619 0.1033251422 0.8328521171 9.381934242e-39
0.2332381 0.1033251422 0.8328521171 8.918090437e-39
0.23532 0.1013251722 0.8332292471 8.550391122e-39
0.2368 0.1013251722 0.8332292471 7.815708554e-39
0.23828 0.1013251722 0.8332292471 7.175371207e-39
0.23914286 0.1033251422 0.8328521171 7.451236428e-39
0.24061905 0.1033251422 0.8328521171 7.818937145e-39
0.24209525 0.1033251422 0.8328521171 7.910056578e-39
0.24357145 0.1033251422 0.8328521171 8.093024118e-39
0.24504763 0.1033251422 0.8328521171 8.001202635e-39
0.24652381 0.1033251422 0.8328521171 8.00119703e-39
0.24800003 0.1033251422 0.8328521171 8.094820583e-39
0.24947619 0.1033251422 0.8328521171 8.188802868e-39
0.2516 0.1013251722 0.8332292471 8.371033326e-39
0.25308001 0.1013251722 0.8332292471 8.55291486e-39
0.25455999 0.1013251722 0.8332292471 8.736948789e-39
0.25604001 0.1013251722 0.8332292471 9.012808404e-39
0.25818285 0.09932514217 0.8336063971 9.289028154e-39
0.25966668 0.09932514217 0.8336063971 9.473412407e-39
0.2614857 0.09832515217 0.8337949571 9.199696778e-39
0.26364574 0.09632512217 0.8341721171 8.923830156e-39
0.26513526 0.09632512217 0.8341721171 9.291530873e-39
0.26662478 0.09632512217 0.8341721171 9.752157296e-39
0.26880002 0.09432514217 0.8345492571 9.568501718e-39
0.27029335 0.09432514217 0.8345492571 9.293369376e-39
0.27109334 0.09632512217 0.8341721171 9.568891279e-39
0.27258289 0.09632512217 0.8341721171 9.752541252e-39
0.27407241 0.09632512217 0.8341721171 9.844714461e-39
0.27556193 0.09632512217 0.8341721171 9.937259014e-39
0.27705145 0.09632512217 0.8341721171 9.938326804e-39
0.15304381 0.1203251622 0.8310902071 1.555257025e-38
0.15448762 0.1203251622 0.8310902071 1.398597882e-38
0.15593143 0.1203251622 0.8310902071 1.398058943e-38
0.15779048 0.1183251322 0.8314711671 1.407313818e-38
0.1592381 0.1183251322 0.8314711671 1.333916607e-38
0.16068573 0.1183251322 0.8314711671 1.26952344e-38
0.16213334 0.1183251322 0.8314711671 1.287818092e-38
0.16358095 0.1183251322 0.8314711671 1.315547967e-38
0.16502859 0.1183251322 0.8314711671 1.297360234e-38
0.1664762 0.1183251322 0.8314711671 1.288104937e-38
0.16792381 0.1183251322 0.8314711671 1.269701825e-38
0.16937144 0.1183251322 0.8314711671 1.260517294e-38
0.17081906 0.1183251322 0.8314711671 1.232965665e-38
0.17226666 0.1183251322 0.8314711671 1.214597865e-38
0.1737143 0.1183251322 0.8314711671 1.177898979e-38
0.17516191 0.1183251322 0.8314711671 1.150132951e-38
0.17660955 0.1183251322 0.8314711671 1.131335372e-38
0.17805715 0.1183251322 0.8314711671 1.112969254e-38
0.17950477 0.1183251322 0.8314711671 1.094531389e-38
0.1809524 0.1183251322 0.8314711671 1.085133161e-38
0.18240002 0.1183251322 0.8314711671 1.103500821e-38
0.18384762 0.1183251322 0.8314711671 1.121903793e-38
0.18529525 0.1183251322 0.8314711671 1.122118892e-38
0.18674287 0.1183251322 0.8314711671 1.131265728e-38
0.1884381 0.1173251422 0.8316616371 1.112861915e-38
0.18988763 0.1173251422 0.8316616371 1.103677945e-38
0.19133715 0.1173251422 0.8316616371 1.067015072e-38
0.19278668 0.1173251422 0.8316616371 1.039464283e-38
0.1942362 0.1173251422 0.8316616371 1.011805875e-38
0.19568573 0.1173251422 0.8316616371 9.936542951e-39
0.19713524 0.1173251422 0.8316616371 9.753593627e-39
0.19910666 0.1153251722 0.8320425771 9.56849331e-39
0.20108573 0.1133251322 0.8324235471 8.649067757e-39
0.20254287 0.1133251322 0.8324235471 7.821103553e-39
0.20400001 0.1133251322 0.8324235471 8.646538413e-39
0.20545715 0.1133251322 0.8324235471 9.566326903e-39
0.20745523 0.1113251622 0.8328044971 9.751790156e-39
0.20891619 0.1113251622 0.8328044971 9.936181416e-39
0.21037716 0.1113251622 0.8328044971 9.936900282e-39
0.2118381 0.1113251622 0.8328044971 9.940128874e-39
0.21274288 0.1133251322 0.8324235471 9.851521969e-39
0.21420002 0.1133251322 0.8324235471 9.850440167e-39
0.21509334 0.1153251722 0.8320425771 9.7578816e-39
0.21597905 0.1173251422 0.8316616371 9.757884403e-39
0.21742858 0.1173251422 0.8316616371 9.941556797e-39
0.22880954 0.1033251422 0.8343282871 1.030747927e-38
0.23028573 0.1033251422 0.8343282871 1.059017582e-38
0.24103239 0.07232513217 0.8402330671 1.095140254e-38
0.24016002 0.08032514217 0.8387092571 1.002083245e-38
0.24168001 0.08032514217 0.8387092571 9.10176143e-39
0.23740953 0.09932514217 0.8350901971 8.458198294e-39
0.23889334 0.09932514217 0.8350901971 7.814632356e-39
0.24037716 0.09932514217 0.8350901971 7.722079395e-39
0.24123999 0.1013251722 0.8347092471 7.630602632e-39
0.24271999 0.1013251722 0.8347092471 7.814989687e-39
0.24420001 0.1013251722 0.8347092471 7.998673291e-39
0.24504763 0.1033251422 0.8343282871 7.723536746e-39
0.24652381 0.1033251422 0.8343282871 7.448742117e-39
0.24863999 0.1013251722 0.8347092471 7.633124969e-39
0.25012001 0.1013251722 0.8347092471 7.817870757e-39
0.2516 0.1013251722 0.8347092471 7.910781049e-39
0.25308001 0.1013251722 0.8347092471 8.09409471e-39
0.25455999 0.1013251722 0.8347092471 8.461438096e-39
0.25604001 0.1013251722 0.8347092471 8.829493342e-39
0.25818285 0.09932514217 0.8350901971 9.011007736e-39
0.25999999 0.09832515217 0.8352806771 9.29010295e-39
0.2614857 0.09832515217 0.8352806771 8.740167571e-39
0.26364574 0.09632512217 0.8356616371 8.281347422e-39
0.26513526 0.09632512217 0.8356616371 8.924554627e-39
0.26662478 0.09632512217 0.8356616371 9.659607138e-39
0.26880002 0.09432514217 0.8360425771 9.568857648e-39
0.27029335 0.09432514217 0.8360425771 9.568859049e-39
0.27178666 0.09432514217 0.8360425771 9.752890175e-39
0.27327999 0.09432514217 0.8360425771 9.937268823e-39
0.27407241 0.09632512217 0.8356616371 9.938335212e-39
0.27556193 0.09632512217 0.8356616371 1.003160424e-38
0.27705145 0.09632512217 0.8356616371 1.003303776e-38
0.1516 0.1203251622 0.8325340071 1.452766195e-38
0.15304381 0.1203251622 0.8325340071 1.370469758e-38
0.15489525 0.1183251322 0.8329187671 1.288211016e-38
0.15593143 0.1203251622 0.8325340071 1.27841636e-38
0.15779048 0.1183251322 0.8329187671 1.268981277e-38
0.1592381 0.1183251322 0.8329187671 1.25118787e-38
0.16068573 0.1183251322 0.8329187671 1.242076207e-38
0.16213334 0.1183251322 0.8329187671 1.25129591e-38
0.16315047 0.1203251622 0.8325340071 1.269736997e-38
0.16502859 0.1183251322 0.8329187671 1.251408154e-38
0.1664762 0.1183251322 0.8329187671 1.242330963e-38
0.16792381 0.1183251322 0.8329187671 1.233074405e-38
0.16937144 0.1183251322 0.8329187671 1.233001538e-38
0.17081906 0.1183251322 0.8329187671 1.205342148e-38
0.17226666 0.1183251322 0.8329187671 1.186938755e-38
0.1737143 0.1183251322 0.8329187671 1.150096517e-38
0.17516191 0.1183251322 0.8329187671 1.122473981e-38
0.17660955 0.1183251322 0.8329187671 1.103855629e-38
0.17758857 0.1203251622 0.8325340071 1.094601735e-38
0.17950477 0.1183251322 0.8329187671 1.076092544e-38
0.18047619 0.1203251622 0.8325340071 1.057581951e-38
0.18240002 0.1183251322 0.8329187671 1.057546078e-38
0.18384762 0.1183251322 0.8329187671 1.066692353e-38
0.18529525 0.1183251322 0.8329187671 1.066762698e-38
0.18674287 0.1183251322 0.8329187671 1.066871159e-38
0.1884381 0.1173251422 0.8331111471 1.048540914e-38
0.18988763 0.1173251422 0.8331111471 1.039392817e-38
0.19133715 0.1173251422 0.8331111471 1.011841748e-38
0.19278668 0.1173251422 0.8331111471 9.935101015e-39
0.1942362 0.1173251422 0.8331111471 9.476279464e-39
0.19620001 0.1153251722 0.8334959171 9.109303218e-39
0.19713524 0.1173251422 0.8331111471 9.385894311e-39
0.19858477 0.1173251422 0.8331111471 9.749648972e-39
0.20108573 0.1133251322 0.8338806871 9.385176847e-39
0.20254287 0.1133251322 0.8338806871 9.02070332e-39
0.20453334 0.1113251622 0.8342654471 9.480956998e-39
0.20599429 0.1113251622 0.8342654471 9.849732511e-39
0.20745523 0.1113251622 0.8342654471 1.003196857e-38
0.20918857 0.1103251722 0.8344578171 1.012272927e-38
0.21065143 0.1103251722 0.8344578171 1.030819673e-38
0.2118381 0.1113251622 0.8342654471 1.049365438e-38
0.21274288 0.1133251322 0.8338806871 1.031105398e-38
0.21420002 0.1133251322 0.8338806871 1.003769568e-38
0.23712002 0.08032514217 0.8402292671 1.058984511e-38
0.2398362 0.07632513217 0.8409987771 1.096002472e-38
0.24016002 0.08032514217 0.8402292671 1.011625527e-38
0.24137716 0.08132513217 0.8400368571 9.286867352e-39
0.23954286 0.09232517217 0.8379206771 8.642586751e-39
0.24042667 0.09432514217 0.8375359271 7.906826585e-39
0.24068573 0.09832515217 0.8367663971 7.630962765e-39
0.24186096 0.09932514217 0.8365740071 7.263259246e-39
0.24334477 0.09932514217 0.8365740071 7.631317294e-39
0.24420001 0.1013251722 0.8361892471 7.99902782e-39
0.24567999 0.1013251722 0.8361892471 7.631695644e-39
0.24716 0.1013251722 0.8361892471 7.264346653e-39
0.24863999 0.1013251722 0.8361892471 7.633117962e-39
0.25012001 0.1013251722 0.8361892471 7.999745285e-39
0.25224763 0.09932514217 0.8365740071 8.092661182e-39
0.25373146 0.09932514217 0.8365740071 8.277764301e-39
0.25521526 0.09932514217 0.8365740071 8.278121633e-39
0.25669909 0.09932514217 0.8365740071 8.278836295e-39
0.25851429 0.09832515217 0.8367663971 8.738728438e-39
0.26066667 0.09632512217 0.8371511571 9.290464485e-39
0.26215622 0.09632512217 0.8371511571 9.107517964e-39
0.26432002 0.09432514217 0.8375359271 8.9252805e-39
0.26581332 0.09432514217 0.8375359271 9.19970939e-39
0.26730669 0.09432514217 0.8375359271 9.567414311e-39
0.26880002 0.09432514217 0.8375359271 9.384466388e-39
0.27029335 0.09432514217 0.8375359271 9.295846872e-39
0.27178666 0.09432514217 0.8375359271 9.480222718e-39
0.27327999 0.09432514217 0.8375359271 9.756806805e-39
0.27407241 0.09632512217 0.8371511571 9.757885804e-39
0.27556193 0.09632512217 0.8371511571 9.851161835e-39
0.14832 0.1223251422 0.8335892671 1.232791203e-38
0.14976001 0.1223251422 0.8335892671 1.214315503e-38
0.1516 0.1203251622 0.8339778271 1.204808113e-38
0.15304381 0.1203251622 0.8339778271 1.186009414e-38
0.15448762 0.1203251622 0.8339778271 1.17700397e-38
0.15593143 0.1203251622 0.8339778271 1.158815116e-38
0.15737525 0.1203251622 0.8339778271 1.14048403e-38
0.15881905 0.1203251622 0.8339778271 1.177648847e-38
0.16026285 0.1203251622 0.8339778271 1.214490665e-38
0.16170667 0.1203251622 0.8339778271 1.214598285e-38
0.16271999 0.1223251422 0.8335892671 1.223748484e-38
0.16416001 0.1223251422 0.8335892671 1.214567316e-38
0.1656 0.1223251422 0.8335892671 1.205418099e-38
0.1674819 0.1203251622 0.8339778271 1.205918642e-38
0.16892572 0.1203251622 0.8339778271 1.205271803e-38
0.17036952 0.1203251622 0.8339778271 1.186903583e-38
0.17181334 0.1203251622 0.8339778271 1.168536203e-38
0.17325714 0.1203251622 0.8339778271 1.131658232e-38
0.17470096 0.1203251622 0.8339778271 1.094816273e-38
0.17614476 0.1203251622 0.8339778271 1.085560837e-38
0.17758857 0.1203251622 0.8339778271 1.085383152e-38
0.17950477 0.1183251322 0.8343664071 1.057690692e-38
0.18047619 0.1203251622 0.8339778271 1.030031723e-38
0.18240002 0.1183251322 0.8343664071 1.020775726e-38
0.18384762 0.1183251322 0.8343664071 1.020811599e-38
0.18529525 0.1183251322 0.8343664071 1.011663783e-38
0.18674287 0.1183251322 0.8343664071 1.011771263e-38
0.18819048 0.1183251322 0.8343664071 9.934397563e-39
0.18988763 0.1173251422 0.8345606871 9.750720965e-39
0.19133715 0.1173251422 0.8345606871 9.658521132e-39
0.19329333 0.1153251722 0.8349492471 9.567398896e-39
0.19474667 0.1153251722 0.8349492471 8.922753959e-39
0.19620001 0.1153251722 0.8349492471 8.284214478e-39
0.19765334 0.1153251722 0.8349492471 9.110379415e-39
0.19910666 0.1153251722 0.8349492471 9.939052676e-39
0.20055999 0.1153251722 0.8349492471 1.01252362e-38
0.20201333 0.1153251722 0.8349492471 1.030854846e-38
0.20453334 0.1113251622 0.8357263871 1.021671436e-38
0.20626286 0.1103251722 0.8359206671 1.021672417e-38
0.20772572 0.1103251722 0.8359206671 1.030892961e-38
0.20973335 0.1083251422 0.8363092471 1.040040077e-38
0.21065143 0.1103251722 0.8359206671 1.076773715e-38
0.2118381 0.1113251622 0.8357263871 1.113650565e-38
0.21329905 0.1113251622 0.8357263871 1.06787547e-38
0.21420002 0.1133251322 0.8353378271 1.031177004e-38
0.23682287 0.08132513217 0.8415549771 1.068130786e-38
0.23864001 0.08032514217 0.8417492571 1.105042109e-38
0.23985906 0.08132513217 0.8415549771 1.030387793e-38
0.24137716 0.08132513217 0.8415549771 9.562738178e-39
0.24228571 0.08332516217 0.8411663971 8.827339546e-39
0.24318667 0.08532514217 0.8407778171 8.093011507e-39
0.24346288 0.08932515217 0.8400006771 7.542713192e-39
0.24465524 0.09032513217 0.8398063971 6.988110088e-39
0.24490668 0.09432514217 0.8390292471 7.4476449e-39
0.2464 0.09432514217 0.8390292471 7.999385151e-39
0.24726097 0.09632512217 0.8386406771 7.537706353e-39
0.24875049 0.09632512217 0.8386406771 7.080319731e-39
0.24960001 0.09832515217 0.8382521171 7.633124969e-39
0.25108573 0.09832515217 0.8382521171 8.275255977e-39
0.25257143 0.09832515217 0.8382521171 8.366374009e-39
0.25405714 0.09832515217 0.8382521171 8.462511491e-39
0.25554287 0.09832515217 0.8382521171 8.095166704e-39
