# .PCD v0.7 - Point Cloud Data file format
VERSION 0.7
FIELDS x y z rgb
SIZE 4 4 4 4
TYPE F F F F
COUNT 1 1 1 1
WIDTH 873
HEIGHT 1
VIEWPOINT 0 0 0 1 0 0 0
POINTS 873
DATA ascii
0.40112191 -0.07776600668 0.8639959341 1.214669611e-38
0.40272 -0.07776600668 0.8639959341 1.205415156e-38
0.40528193 -0.07976597668 0.8640759311 1.19615958e-38
0.40688381 -0.07976597668 0.8640759311 1.187047636e-38
0.40848571 -0.07976597668 0.8640759311 1.187119383e-38
0.41106287 -0.08176600668 0.8641559321 1.17800772e-38
0.41266859 -0.08176600668 0.8641559321 1.168895917e-38
0.41427431 -0.08176600668 0.8641559321 1.196374959e-38
0.41588002 -0.08176600668 0.8641559321 1.214707166e-38
0.41748571 -0.08176600668 0.8641559321 1.223748204e-38
0.42157719 -0.08676600668 0.8643559311 1.22360401e-38
0.42319238 -0.08676600668 0.8643559311 1.251225705e-38
0.42480764 -0.08676600668 0.8643559311 1.27884782e-38
0.42642286 -0.08676600668 0.8643559311 1.232929791e-38
0.42904761 -0.08876597668 0.8644359321 1.196195733e-38
0.43066669 -0.08876597668 0.8644359321 1.177864787e-38
0.43330288 -0.09076601668 0.8645159321 1.159569855e-38
0.43492573 -0.09076601668 0.8645159321 1.168717952e-38
0.43757334 -0.09276598668 0.8645959291 1.168681938e-38
0.43919998 -0.09276598668 0.8645959291 1.177686122e-38
0.44185907 -0.09476602668 0.8646759341 1.186762472e-38
0.44452572 -0.09676599668 0.8647559341 1.168431807e-38
0.4472 -0.09876596668 0.8648359271 1.15010002e-38
0.44883808 -0.09876596668 0.8648359271 1.159354756e-38
0.4504762 -0.09876596668 0.8648359271 1.1777922e-38
0.33834666 -0.09276598668 0.8662225961 4.695824021e-39
0.34076953 -0.09476602668 0.8663064081 5.155001502e-39
0.34240001 -0.09476602668 0.8663064081 5.524137149e-39
0.3440305 -0.09476602668 0.8663064081 5.982951693e-39
0.34485334 -0.09276598668 0.8662225961 6.166258348e-39
0.34566858 -0.09076601668 0.8661387881 6.442123569e-39
0.3464762 -0.08876597668 0.8660549801 6.71798879e-39
0.34809524 -0.08876597668 0.8660549801 6.993136546e-39
0.34889147 -0.08676600668 0.8659711721 7.08461331e-39
0.34926668 -0.08376598668 0.8658454551 7.268282901e-39
0.35004574 -0.08176600668 0.8657616471 7.36226939e-39
0.35165143 -0.08176600668 0.8657616471 7.546301917e-39
0.35241905 -0.07976597668 0.8656778361 7.638859082e-39
0.35402095 -0.07976597668 0.8656778361 7.823248941e-39
0.35562289 -0.07976597668 0.8656778361 7.548461318e-39
0.35637528 -0.07776600668 0.8655940241 7.27331076e-39
0.35797334 -0.07776600668 0.8655940241 8.00870799e-39
0.35957146 -0.07776600668 0.8655940241 8.740892043e-39
0.36116955 -0.07776600668 0.8655940241 8.74197945e-39
0.36276761 -0.07776600668 0.8655940241 8.833809341e-39
0.36349714 -0.07576596668 0.8655102161 9.019987256e-39
0.36509144 -0.07576596668 0.8655102161 9.295858083e-39
0.36668572 -0.07576596668 0.8655102161 9.569933845e-39
0.36827999 -0.07576596668 0.8655102161 9.844365538e-39
0.36899048 -0.07376599668 0.8654264081 1.003234132e-38
0.37058097 -0.07376599668 0.8654264081 1.021458018e-38
0.37217146 -0.07376599668 0.8654264081 1.048937201e-38
0.37376192 -0.07376599668 0.8654264081 1.076595329e-38
0.37535241 -0.07376599668 0.8654264081 1.095069908e-38
0.37694287 -0.07376599668 0.8654264081 1.122619997e-38
0.37853336 -0.07376599668 0.8654264081 1.122655169e-38
0.38103428 -0.07576596668 0.8655102161 1.122762789e-38
0.38171428 -0.07376599668 0.8654264081 1.132161578e-38
0.38330477 -0.07376599668 0.8654264081 1.150277985e-38
0.38489524 -0.07376599668 0.8654264081 1.186761491e-38
0.38741145 -0.07576596668 0.8655102161 1.22360415e-38
0.38900569 -0.07576596668 0.8655102161 1.187014425e-38
0.3906 -0.07576596668 0.8655102161 1.150387566e-38
0.3921943 -0.07576596668 0.8655102161 1.141383103e-38
0.39472955 -0.07776600668 0.8655940241 1.132234446e-38
0.39632761 -0.07776600668 0.8655940241 1.123121521e-38
0.39792573 -0.07776600668 0.8655940241 1.123013621e-38
0.39952382 -0.07776600668 0.8655940241 1.141308834e-38
0.40112191 -0.07776600668 0.8655940241 1.16882403e-38
0.40368 -0.07976597668 0.8656778361 1.168788717e-38
0.40528193 -0.07976597668 0.8656778361 1.177829475e-38
0.40688381 -0.07976597668 0.8656778361 1.177794442e-38
0.40848571 -0.07976597668 0.8656778361 1.177793741e-38
0.41106287 -0.08176600668 0.8657616471 1.177829054e-38
0.41266859 -0.08176600668 0.8657616471 1.187011763e-38
0.41427431 -0.08176600668 0.8657616471 1.187011062e-38
0.41686669 -0.08376598668 0.8658454551 1.196160701e-38
0.41847622 -0.08376598668 0.8658454551 1.214386269e-38
0.42157719 -0.08676600668 0.8659711721 1.232752247e-38
0.42319238 -0.08676600668 0.8659711721 1.278668874e-38
0.42480764 -0.08676600668 0.8659711721 1.333984991e-38
0.42642286 -0.08676600668 0.8659711721 1.260516313e-38
0.42904761 -0.08876597668 0.8660549801 1.196303072e-38
0.43066669 -0.08876597668 0.8660549801 1.17800758e-38
0.43330288 -0.09076601668 0.8661387881 1.168753685e-38
0.43492573 -0.09076601668 0.8661387881 1.168934452e-38
0.43757334 -0.09276598668 0.8662225961 1.168718512e-38
0.43919998 -0.09276598668 0.8662225961 1.122728317e-38
0.44185907 -0.09476602668 0.8663064081 1.085886499e-38
0.44452572 -0.09676599668 0.8663902191 1.113329528e-38
0.44616002 -0.09676599668 0.8663902191 1.150135333e-38
0.44883808 -0.09876596668 0.8664740231 1.141059263e-38
0.4504762 -0.09876596668 0.8664740231 1.131874872e-38
0.34076953 -0.09476602668 0.8679368851 4.879500619e-39
0.34240001 -0.09476602668 0.8679368851 5.064606541e-39
0.3440305 -0.09476602668 0.8679368851 5.340823488e-39
0.34566098 -0.09476602668 0.8679368851 5.706724938e-39
0.34729147 -0.09476602668 0.8679368851 6.071555795e-39
0.34729147 -0.09076601668 0.8677616441 6.34778115e-39
0.34809524 -0.08876597668 0.8676740291 6.624363836e-39
0.34971428 -0.08876597668 0.8676740291 6.899871725e-39
0.35050666 -0.08676600668 0.8675864101 7.175734144e-39
0.35087621 -0.08376598668 0.8674549821 7.267566837e-39
0.35248572 -0.08376598668 0.8674549821 7.451243435e-39
0.35325715 -0.08176600668 0.8673673631 7.635280166e-39
0.35402095 -0.07976597668 0.8672797401 7.727472993e-39
0.35562289 -0.07976597668 0.8672797401 7.911860049e-39
0.35722476 -0.07976597668 0.8672797401 8.096240098e-39
0.35882667 -0.07976597668 0.8672797401 8.280621549e-39
0.35957146 -0.07776600668 0.8671921211 8.465379949e-39
0.36116955 -0.07776600668 0.8671921211 8.465749892e-39
0.36276761 -0.07776600668 0.8671921211 8.558657381e-39
0.36436573 -0.07776600668 0.8671921211 8.743401768e-39
0.36596382 -0.07776600668 0.8671921211 9.020710326e-39
0.36756194 -0.07776600668 0.8671921211 9.202237332e-39
0.36827999 -0.07576596668 0.8671044991 9.477027757e-39
0.3698743 -0.07576596668 0.8671044991 9.661776348e-39
0.37146857 -0.07576596668 0.8671044991 9.938359034e-39
0.37306285 -0.07576596668 0.8671044991 1.021386552e-38
0.37465715 -0.07576596668 0.8671044991 1.048829021e-38
0.37625143 -0.07576596668 0.8671044991 1.095069208e-38
0.3778457 -0.07576596668 0.8671044991 1.141022268e-38
0.37944001 -0.07576596668 0.8671044991 1.122618876e-38
0.38103428 -0.07576596668 0.8671044991 1.113399733e-38
0.38262859 -0.07576596668 0.8671044991 1.122619576e-38
0.38330477 -0.07376599668 0.8670168841 1.131875153e-38
0.38489524 -0.07376599668 0.8670168841 1.150170926e-38
0.38741145 -0.07576596668 0.8671044991 1.168466559e-38
0.38900569 -0.07576596668 0.8671044991 1.122692724e-38
0.39153334 -0.07776600668 0.8671921211 1.086102439e-38
0.39313143 -0.07776600668 0.8671921211 1.104434225e-38
0.39472955 -0.07776600668 0.8671921211 1.12276433e-38
0.39632761 -0.07776600668 0.8671921211 1.122727336e-38
0.39792573 -0.07776600668 0.8671921211 1.122727196e-38
0.40047619 -0.07976597668 0.8672797401 1.141058422e-38
0.40207809 -0.07976597668 0.8672797401 1.150242112e-38
0.40368 -0.07976597668 0.8672797401 1.159461815e-38
0.40528193 -0.07976597668 0.8672797401 1.168718933e-38
0.40688381 -0.07976597668 0.8672797401 1.177796684e-38
0.40945715 -0.08176600668 0.8673673631 1.186799466e-38
0.41106287 -0.08176600668 0.8673673631 1.186798065e-38
0.41266859 -0.08176600668 0.8673673631 1.196015806e-38
0.41427431 -0.08176600668 0.8673673631 1.168607109e-38
0.41686669 -0.08376598668 0.8674549821 1.150242952e-38
0.41847622 -0.08376598668 0.8674549821 1.177724938e-38
0.42157719 -0.08676600668 0.8675864101 1.214421722e-38
0.42319238 -0.08676600668 0.8675864101 1.242006702e-38
0.42480764 -0.08676600668 0.8675864101 1.269736157e-38
0.42642286 -0.08676600668 0.8675864101 1.223853861e-38
0.42904761 -0.08876597668 0.8676740291 1.178079046e-38
0.43066669 -0.08876597668 0.8676740291 1.159603906e-38
0.43228573 -0.08876597668 0.8676740291 1.141239189e-38
0.43492573 -0.09076601668 0.8677616441 1.150389248e-38
0.43757334 -0.09276598668 0.8678492631 1.159571537e-38
0.43919998 -0.09276598668 0.8678492631 1.141059683e-38
0.44185907 -0.09476602668 0.8679368851 1.113544347e-38
0.44348955 -0.09476602668 0.8679368851 1.140986956e-38
0.44616002 -0.09676599668 0.8680245041 1.177721434e-38
0.44779429 -0.09676599668 0.8680245041 1.159390489e-38
0.44942859 -0.09676599668 0.8680245041 1.141058842e-38
0.34076953 -0.09476602668 0.8695673631 4.694753429e-39
0.34240001 -0.09476602668 0.8695673631 4.696905824e-39
0.3448343 -0.09676599668 0.8696587891 4.696540085e-39
0.34566098 -0.09476602668 0.8695673631 5.247187323e-39
0.34729147 -0.09476602668 0.8695673631 5.797122701e-39
0.34810668 -0.09276598668 0.8694759291 6.071910324e-39
0.3489143 -0.09076601668 0.8693845031 6.347063685e-39
0.34971428 -0.08876597668 0.8692930771 6.714051141e-39
0.35050666 -0.08676600668 0.8692016471 7.083186788e-39
0.35212192 -0.08676600668 0.8692016471 7.269011576e-39
0.35373715 -0.08676600668 0.8692016471 7.450531575e-39
0.35409525 -0.08376598668 0.8690645011 7.541292275e-39
0.35486287 -0.08176600668 0.8689730781 7.727117063e-39
0.35646859 -0.08176600668 0.8689730781 8.369250874e-39
0.35722476 -0.07976597668 0.8688816451 9.012100749e-39
0.35882667 -0.07976597668 0.8688816451 8.644760165e-39
0.36042857 -0.07976597668 0.8688816451 8.280285237e-39
0.36116955 -0.07776600668 0.8687902191 8.281358632e-39
0.36276761 -0.07776600668 0.8687902191 8.282074696e-39
0.36436573 -0.07776600668 0.8687902191 8.467179216e-39
0.36596382 -0.07776600668 0.8687902191 8.742689909e-39
0.36756194 -0.07776600668 0.8687902191 8.926365105e-39
0.36916 -0.07776600668 0.8687902191 9.20151146e-39
0.3698743 -0.07576596668 0.8686987891 9.385181051e-39
0.37235621 -0.07776600668 0.8687902191 9.662484004e-39
0.3739543 -0.07776600668 0.8687902191 9.93871076e-39
0.37555239 -0.07776600668 0.8687902191 1.021278092e-38
0.37625143 -0.07576596668 0.8686987891 1.085885658e-38
0.3778457 -0.07576596668 0.8686987891 1.159209861e-38
0.37944001 -0.07576596668 0.8686987891 1.131515019e-38
0.38103428 -0.07576596668 0.8686987891 1.104108424e-38
0.38262859 -0.07576596668 0.8686987891 1.104252477e-38
0.38422287 -0.07576596668 0.8686987891 1.113507633e-38
0.38581714 -0.07576596668 0.8686987891 1.11347176e-38
0.38741145 -0.07576596668 0.8686987891 1.12265601e-38
0.38993526 -0.07776600668 0.8687902191 1.067591286e-38
0.39153334 -0.07776600668 0.8687902191 1.021674519e-38
0.39313143 -0.07776600668 0.8687902191 1.067593248e-38
0.39472955 -0.07776600668 0.8687902191 1.113473581e-38
0.39727238 -0.07976597668 0.8688816451 1.12265573e-38
0.39792573 -0.07776600668 0.8687902191 1.131767393e-38
0.40047619 -0.07976597668 0.8688816451 1.13173152e-38
0.40207809 -0.07976597668 0.8688816451 1.140915349e-38
0.40368 -0.07976597668 0.8688816451 1.150099039e-38
0.40528193 -0.07976597668 0.8688816451 1.159570836e-38
0.40688381 -0.07976597668 0.8688816451 1.177795563e-38
0.40945715 -0.08176600668 0.8689730781 1.196054202e-38
0.41106287 -0.08176600668 0.8689730781 1.195981475e-38
0.41364762 -0.08376598668 0.8690645011 1.20523593e-38
0.41525716 -0.08376598668 0.8690645011 1.150241411e-38
0.41686669 -0.08376598668 0.8690645011 1.104325765e-38
0.41996193 -0.08676600668 0.8692016471 1.150281348e-38
0.42157719 -0.08676600668 0.8692016471 1.196198115e-38
0.42319238 -0.08676600668 0.8692016471 1.196197134e-38
0.42480764 -0.08676600668 0.8692016471 1.205415857e-38
0.42642286 -0.08676600668 0.8692016471 1.18719155e-38
0.42803812 -0.08676600668 0.8692016471 1.168752844e-38
0.43066669 -0.08876597668 0.8692930771 1.141166462e-38
0.43228573 -0.08876597668 0.8692930771 1.113616934e-38
0.43492573 -0.09076601668 0.8693845031 1.131985295e-38
0.43654859 -0.09076601668 0.8693845031 1.159463356e-38
0.43919998 -0.09276598668 0.8694759291 1.150243233e-38
0.44185907 -0.09476602668 0.8695673631 1.150207079e-38
0.44348955 -0.09476602668 0.8695673631 1.177721715e-38
0.44616002 -0.09676599668 0.8696587891 1.20523663e-38
0.44779429 -0.09676599668 0.8696587891 1.177471022e-38
0.44942859 -0.09676599668 0.8696587891 1.159247136e-38
0.34076953 -0.09476602668 0.8711978371 4.783360334e-39
0.34240001 -0.09476602668 0.8711978371 4.325260452e-39
0.3448343 -0.09676599668 0.8712930741 3.958986256e-39
0.34566098 -0.09476602668 0.8711978371 4.786573511e-39
0.34729147 -0.09476602668 0.8711978371 5.614166371e-39
0.34810668 -0.09276598668 0.8711025961 5.980070624e-39
0.3489143 -0.09076601668 0.8710073591 6.437104118e-39
0.34971428 -0.08876597668 0.8709121221 6.805890841e-39
0.35133335 -0.08876597668 0.8709121221 7.08247633e-39
0.35295239 -0.08876597668 0.8709121221 7.17431603e-39
0.35373715 -0.08676600668 0.8708168851 7.357984219e-39
0.3553524 -0.08676600668 0.8708168851 7.357622684e-39
0.35570478 -0.08376598668 0.8706740241 7.451256046e-39
0.35731432 -0.08376598668 0.8706740241 7.909721668e-39
0.35807431 -0.08176600668 0.8705787871 8.275997264e-39
0.35882667 -0.07976597668 0.8704835491 8.186325373e-39
0.36042857 -0.07976597668 0.8704835491 8.003713762e-39
0.36203048 -0.07976597668 0.8704835491 8.096968774e-39
0.36276761 -0.07776600668 0.8703883121 8.189163002e-39
0.36523429 -0.07976597668 0.8704835491 8.373192727e-39
0.36596382 -0.07776600668 0.8703883121 8.649057948e-39
0.36756194 -0.07776600668 0.8703883121 8.741252176e-39
0.36916 -0.07776600668 0.8703883121 8.92563643e-39
0.37075812 -0.07776600668 0.8703883121 9.200781383e-39
0.37235621 -0.07776600668 0.8703883121 9.478445871e-39
0.3739543 -0.07776600668 0.8703883121 9.662122469e-39
0.37555239 -0.07776600668 0.8703883121 9.937630358e-39
0.37715051 -0.07776600668 0.8703883121 1.039681064e-38
0.3787486 -0.07776600668 0.8703883121 1.085597831e-38
0.38034669 -0.07776600668 0.8703883121 1.067229891e-38
0.38194478 -0.07776600668 0.8703883121 1.048899366e-38
0.3835429 -0.07776600668 0.8703883121 1.058262982e-38
0.38514096 -0.07776600668 0.8703883121 1.067589605e-38
0.38673908 -0.07776600668 0.8703883121 1.08592041e-38
0.38833717 -0.07776600668 0.8703883121 1.104252617e-38
0.38993526 -0.07776600668 0.8703883121 1.067555413e-38
0.39153334 -0.07776600668 0.8703883121 1.040042039e-38
0.39313143 -0.07776600668 0.8703883121 1.076706032e-38
0.39472955 -0.07776600668 0.8703883121 1.113366522e-38
0.39727238 -0.07976597668 0.8704835491 1.113364701e-38
0.39887431 -0.07976597668 0.8704835491 1.12254825e-38
0.40047619 -0.07976597668 0.8704835491 1.12254825e-38
0.40207809 -0.07976597668 0.8704835491 1.12254839e-38
0.40368 -0.07976597668 0.8704835491 1.122692164e-38
0.40528193 -0.07976597668 0.8704835491 1.12287209e-38
0.40688381 -0.07976597668 0.8704835491 1.150351553e-38
0.41042858 -0.08376598668 0.8706740241 1.187013585e-38
0.41203812 -0.08376598668 0.8706740241 1.205523757e-38
0.41511622 -0.08676600668 0.8708168851 1.224034209e-38
0.41673145 -0.08676600668 0.8708168851 1.177757728e-38
0.4183467 -0.08676600668 0.8708168851 1.131948581e-38
0.41996193 -0.08676600668 0.8708168851 1.159428604e-38
0.42157719 -0.08676600668 0.8708168851 1.186942819e-38
0.42319238 -0.08676600668 0.8708168851 1.196161822e-38
0.42480764 -0.08676600668 0.8708168851 1.205380404e-38
0.42642286 -0.08676600668 0.8708168851 1.18697659e-38
0.42904761 -0.08876597668 0.8709121221 1.168574319e-38
0.43066669 -0.08876597668 0.8709121221 1.150172047e-38
0.43228573 -0.08876597668 0.8709121221 1.140952624e-38
0.43492573 -0.09076601668 0.8710073591 1.159355596e-38
0.43654859 -0.09076601668 0.8710073591 1.186941838e-38
0.43919998 -0.09276598668 0.8711025961 1.177829895e-38
0.44185907 -0.09476602668 0.8711978371 1.159570415e-38
0.44348955 -0.09476602668 0.8711978371 1.186941698e-38
0.44616002 -0.09676599668 0.8712930741 1.205201318e-38
0.44779429 -0.09676599668 0.8712930741 1.186834499e-38
0.44942859 -0.09676599668 0.8712930741 1.168467119e-38
0.34240001 -0.09476602668 0.8728283141 4.049036498e-39
0.3448343 -0.09676599668 0.8729273591 3.223228893e-39
0.34566098 -0.09476602668 0.8728283141 4.326325439e-39
0.34810287 -0.09676599668 0.8729273591 5.430498182e-39
0.34810668 -0.09276598668 0.8727292631 5.980070624e-39
0.34973332 -0.09276598668 0.8727292631 6.622568772e-39
0.35053715 -0.09076601668 0.8726302181 6.898082267e-39
0.35216004 -0.09076601668 0.8726302181 7.172883903e-39
0.35378286 -0.09076601668 0.8726302181 7.172177648e-39
0.35457143 -0.08876597668 0.8725311701 7.265080934e-39
0.35619047 -0.08876597668 0.8725311701 7.265788589e-39
0.35696763 -0.08676600668 0.8724321221 7.266147322e-39
0.35858288 -0.08676600668 0.8724321221 7.450535779e-39
0.35892382 -0.08376598668 0.8722835501 7.63492844e-39
0.35968003 -0.08176600668 0.8721845021 7.727845739e-39
0.36128575 -0.08176600668 0.8721845021 7.819314095e-39
0.36203048 -0.07976597668 0.8720854541 8.004770341e-39
0.36363238 -0.07976597668 0.8720854541 8.188085404e-39
0.36523429 -0.07976597668 0.8720854541 8.371401867e-39
0.36683619 -0.07976597668 0.8720854541 8.556503585e-39
0.36843809 -0.07976597668 0.8720854541 8.649411075e-39
0.37004003 -0.07976597668 0.8720854541 8.74124517e-39
0.3716419 -0.07976597668 0.8720854541 9.016751658e-39
0.37324381 -0.07976597668 0.8720854541 9.292621083e-39
0.37484571 -0.07976597668 0.8720854541 9.476656413e-39
0.37644765 -0.07976597668 0.8720854541 9.659975679e-39
0.37804952 -0.07976597668 0.8720854541 9.843294946e-39
0.37965143 -0.07976597668 0.8720854541 1.012130696e-38
0.38034669 -0.07776600668 0.8719864061 1.002910852e-38
0.38194478 -0.07776600668 0.8719864061 9.937994696e-39
0.3835429 -0.07776600668 0.8719864061 1.003126792e-38
0.38514096 -0.07776600668 0.8719864061 1.021493892e-38
0.38673908 -0.07776600668 0.8719864061 1.049044541e-38
0.38833717 -0.07776600668 0.8719864061 1.085886078e-38
0.39086479 -0.07976597668 0.8720854541 1.076738262e-38
0.39246666 -0.07976597668 0.8720854541 1.067591286e-38
0.39406857 -0.07976597668 0.8720854541 1.08577986e-38
0.39567047 -0.07976597668 0.8720854541 1.113400714e-38
0.39727238 -0.07976597668 0.8720854541 1.113435046e-38
0.39887431 -0.07976597668 0.8720854541 1.113399593e-38
0.40142861 -0.08176600668 0.8721845021 1.11336414e-38
0.40303433 -0.08176600668 0.8721845021 1.113292674e-38
0.40464002 -0.08176600668 0.8721845021 1.095284587e-38
0.40624571 -0.08176600668 0.8721845021 1.086137892e-38
0.40785143 -0.08176600668 0.8721845021 1.132092634e-38
0.41042858 -0.08376598668 0.8722835501 1.177973528e-38
0.41203812 -0.08376598668 0.8722835501 1.205523336e-38
0.41511622 -0.08676600668 0.8724321221 1.242113902e-38
0.41673145 -0.08676600668 0.8724321221 1.196088534e-38
0.4183467 -0.08676600668 0.8724321221 1.159319303e-38
0.42095238 -0.08876597668 0.8725311701 1.16846796e-38
0.42257145 -0.08876597668 0.8725311701 1.177686963e-38
0.42319238 -0.08676600668 0.8724321221 1.186905965e-38
0.42580953 -0.08876597668 0.8725311701 1.205272223e-38
0.42742857 -0.08876597668 0.8725311701 1.186832537e-38
0.42904761 -0.08876597668 0.8725311701 1.168574319e-38
0.43066669 -0.08876597668 0.8725311701 1.168396214e-38
0.43228573 -0.08876597668 0.8725311701 1.168395513e-38
0.43390477 -0.08876597668 0.8725311701 1.195981475e-38
0.43654859 -0.09076601668 0.8726302181 1.223676597e-38
0.43919998 -0.09276598668 0.8727292631 1.196270562e-38
0.44082668 -0.09276598668 0.8727292631 1.177902482e-38
0.44348955 -0.09476602668 0.8728283141 1.196161121e-38
0.44512004 -0.09476602668 0.8728283141 1.214241795e-38
0.44779429 -0.09676599668 0.8729273591 1.195875396e-38
0.44942859 -0.09676599668 0.8729273591 1.177615356e-38
0.34810287 -0.09676599668 0.8745616431 5.246831393e-39
0.34892195 -0.09476602668 0.8744587881 5.707076663e-39
0.34973332 -0.09276598668 0.8743559291 6.259530175e-39
0.35135999 -0.09276598668 0.8743559291 6.532173811e-39
0.35298669 -0.09276598668 0.8743559291 6.897024287e-39
0.35378286 -0.09076601668 0.8742530741 6.988880803e-39
0.35540575 -0.09076601668 0.8742530741 7.080700884e-39
0.35619047 -0.08876597668 0.8741502151 6.806613911e-39
0.35696763 -0.08676600668 0.8740473631 6.531101818e-39
0.35858288 -0.08676600668 0.8740473631 6.899515796e-39
0.36019811 -0.08676600668 0.8740473631 7.359768072e-39
0.36053333 -0.08376598668 0.8738930731 7.451602167e-39
0.36128575 -0.08176600668 0.8737902181 7.635271758e-39
0.36289144 -0.08176600668 0.8737902181 7.726748522e-39
0.36449715 -0.08176600668 0.8737902181 7.910067788e-39
0.36610287 -0.08176600668 0.8737902181 8.095539449e-39
0.36770859 -0.08176600668 0.8737902181 8.280278231e-39
0.36931431 -0.08176600668 0.8737902181 8.281704753e-39
0.37092003 -0.08176600668 0.8737902181 8.373543051e-39
0.37252575 -0.08176600668 0.8737902181 8.649411075e-39
0.37413144 -0.08176600668 0.8737902181 8.925637831e-39
0.37573716 -0.08176600668 0.8737902181 9.201148523e-39
0.37644765 -0.07976597668 0.8736873591 9.385548191e-39
0.37804952 -0.07976597668 0.8736873591 9.56994926e-39
0.37965143 -0.07976597668 0.8736873591 9.662502221e-39
0.38125333 -0.07976597668 0.8736873591 9.754337717e-39
0.38285524 -0.07976597668 0.8736873591 9.846531945e-39
0.38445717 -0.07976597668 0.8736873591 1.002984421e-38
0.38605905 -0.07976597668 0.8736873591 1.021315927e-38
0.38766095 -0.07976597668 0.8736873591 1.039862813e-38
0.38926286 -0.07976597668 0.8736873591 1.05833613e-38
0.39086479 -0.07976597668 0.8736873591 1.021636404e-38
0.39246666 -0.07976597668 0.8736873591 9.849739517e-39
0.39406857 -0.07976597668 0.8736873591 1.030819953e-38
0.39567047 -0.07976597668 0.8736873591 1.067517158e-38
0.39821717 -0.08176600668 0.8737902181 1.076771333e-38
0.39887431 -0.07976597668 0.8736873591 1.095318499e-38
0.40142861 -0.08176600668 0.8737902181 1.104215903e-38
0.40303433 -0.08176600668 0.8737902181 1.113220367e-38
0.40464002 -0.08176600668 0.8737902181 1.140879056e-38
0.40624571 -0.08176600668 0.8737902181 1.177758289e-38
0.40785143 -0.08176600668 0.8737902181 1.16857628e-38
0.41042858 -0.08376598668 0.8738930731 1.168574879e-38
0.41203812 -0.08376598668 0.8738930731 1.186904844e-38
0.41511622 -0.08676600668 0.8740473631 1.20523593e-38
0.41673145 -0.08676600668 0.8740473631 1.177685141e-38
0.41933334 -0.08876597668 0.8741502151 1.159247136e-38
0.42095238 -0.08876597668 0.8741502151 1.168431526e-38
0.42257145 -0.08876597668 0.8741502151 1.186798205e-38
0.42319238 -0.08676600668 0.8740473631 1.223639743e-38
0.42580953 -0.08876597668 0.8741502151 1.251225424e-38
0.42742857 -0.08876597668 0.8741502151 1.214490385e-38
0.42904761 -0.08876597668 0.8741502151 1.177758008e-38
0.43066669 -0.08876597668 0.8741502151 1.16857628e-38
0.43228573 -0.08876597668 0.8741502151 1.15939133e-38
0.43492573 -0.09076601668 0.8742530741 1.177757168e-38
0.43654859 -0.09076601668 0.8742530741 1.196126509e-38
0.44022858 -0.09476602668 0.8744587881 1.187052961e-38
0.44185907 -0.09476602668 0.8744587881 1.177903463e-38
0.44348955 -0.09476602668 0.8744587881 1.223675897e-38
0.44616002 -0.09676599668 0.8745616431 1.269236033e-38
0.44779429 -0.09676599668 0.8745616431 1.223427026e-38
0.44942859 -0.09676599668 0.8745616431 1.177616057e-38
0.35055238 -0.09876596668 0.8763025941 5.432294646e-39
0.35055238 -0.09476602668 0.8760892661 5.891835063e-39
0.35218287 -0.09476602668 0.8760892661 6.258103653e-39
0.35298669 -0.09276598668 0.8759825961 6.714065154e-39
0.35544384 -0.09476602668 0.8760892661 6.805194396e-39
0.35624 -0.09276598668 0.8759825961 6.989570241e-39
0.35786667 -0.09276598668 0.8759825961 6.347426621e-39
0.35865143 -0.09076601668 0.8758759301 5.796410842e-39
0.36027431 -0.09076601668 0.8758759301 6.44033271e-39
0.36104763 -0.08876597668 0.8757692631 7.083541316e-39
0.36266667 -0.08876597668 0.8757692631 7.267572442e-39
0.36428571 -0.08876597668 0.8757692631 7.542357262e-39
0.36504382 -0.08676600668 0.8756625971 7.541995727e-39
0.36665908 -0.08676600668 0.8756625971 7.634565504e-39
0.3682743 -0.08676600668 0.8756625971 7.820046974e-39
0.36988956 -0.08676600668 0.8756625971 8.004058481e-39
0.37019047 -0.08376598668 0.8755025961 8.00619406e-39
0.37180001 -0.08376598668 0.8755025961 8.098392493e-39
0.37340954 -0.08376598668 0.8755025961 8.374261918e-39
0.37413144 -0.08176600668 0.8753959331 8.649415279e-39
0.37573716 -0.08176600668 0.8753959331 8.924927373e-39
0.37734288 -0.08176600668 0.8753959331 9.201874396e-39
0.3789486 -0.08176600668 0.8753959331 9.203673663e-39
0.37965143 -0.07976597668 0.8752892631 9.295150427e-39
0.38216004 -0.08176600668 0.8753959331 9.570658317e-39
0.38285524 -0.07976597668 0.8752892631 9.845804671e-39
0.38445717 -0.07976597668 0.8752892631 1.002947426e-38
0.38605905 -0.07976597668 0.8752892631 1.021242919e-38
0.38766095 -0.07976597668 0.8752892631 1.021494312e-38
0.38926286 -0.07976597668 0.8752892631 1.0307845e-38
0.39086479 -0.07976597668 0.8752892631 9.666781786e-39
0.39246666 -0.07976597668 0.8752892631 9.115055548e-39
0.39406857 -0.07976597668 0.8752892631 9.667507659e-39
0.39567047 -0.07976597668 0.8752892631 1.03099946e-38
0.39821717 -0.08176600668 0.8753959331 1.049330546e-38
0.39982289 -0.08176600668 0.8753959331 1.076773294e-38
0.40142861 -0.08176600668 0.8753959331 1.095068367e-38
0.40399048 -0.08376598668 0.8755025961 1.11325638e-38
0.40464002 -0.08176600668 0.8753959331 1.186761071e-38
0.40624571 -0.08176600668 0.8753959331 1.269413998e-38
0.40881905 -0.08376598668 0.8755025961 1.214313681e-38
0.41188571 -0.08676600668 0.8756625971 1.168538445e-38
0.41350096 -0.08676600668 0.8756625971 1.168609211e-38
0.41511622 -0.08676600668 0.8756625971 1.168608931e-38
0.41673145 -0.08676600668 0.8756625971 1.159425241e-38
0.41933334 -0.08876597668 0.8757692631 1.159318462e-38
0.42095238 -0.08876597668 0.8757692631 1.177614796e-38
0.42257145 -0.08876597668 0.8757692631 1.205237051e-38
0.42319238 -0.08676600668 0.8756625971 1.251334025e-38
0.42580953 -0.08876597668 0.8757692631 1.306327283e-38
0.42742857 -0.08876597668 0.8757692631 1.251225565e-38
0.42904761 -0.08876597668 0.8757692631 1.196161822e-38
0.43066669 -0.08876597668 0.8757692631 1.177832417e-38
0.43228573 -0.08876597668 0.8757692631 1.15949993e-38
0.43492573 -0.09076601668 0.8758759301 1.159570556e-38
0.43654859 -0.09076601668 0.8758759301 1.168540127e-38
0.44022858 -0.09476602668 0.8760892661 1.168649008e-38
0.44185907 -0.09476602668 0.8760892661 1.177794722e-38
0.44348955 -0.09476602668 0.8760892661 1.251225284e-38
0.44512004 -0.09476602668 0.8760892661 1.333699266e-38
0.44779429 -0.09676599668 0.8761959321 1.260160384e-38
0.44942859 -0.09676599668 0.8761959321 1.186799186e-38
0.35055238 -0.09876596668 0.8779406941 5.340108826e-39
0.35055238 -0.09476602668 0.8777197431 5.708168275e-39
0.35300571 -0.09676599668 0.8778302211 6.074435464e-39
0.35464001 -0.09676599668 0.8778302211 6.53110462e-39
0.35627431 -0.09676599668 0.8778302211 6.62294432e-39
0.35707432 -0.09476602668 0.8777197431 6.806604102e-39
0.35870478 -0.09476602668 0.8777197431 6.530729072e-39
0.35949335 -0.09276598668 0.8776092621 6.254505119e-39
0.36112002 -0.09276598668 0.8776092621 6.622923301e-39
0.36274666 -0.09276598668 0.8776092621 6.991703018e-39
0.36352 -0.09076601668 0.8774987891 7.082825253e-39
0.36514288 -0.09076601668 0.8774987891 7.173937679e-39
0.36676574 -0.09076601668 0.8774987891 7.266485035e-39
0.36752382 -0.08876597668 0.8773883121 7.450898715e-39
0.36914286 -0.08876597668 0.8773883121 7.635313797e-39
0.37076193 -0.08876597668 0.8773883121 7.820034362e-39
0.37238094 -0.08876597668 0.8773883121 7.820009139e-39
0.37312004 -0.08676600668 0.8772778351 7.91185024e-39
0.37473524 -0.08676600668 0.8772778351 8.095168105e-39
0.37635049 -0.08676600668 0.8772778351 8.278846104e-39
0.37796572 -0.08676600668 0.8772778351 8.646555229e-39
0.37823811 -0.08376598668 0.8771121221 8.922777781e-39
0.3789486 -0.08176600668 0.8770016491 9.016046805e-39
0.38055432 -0.08176600668 0.8770016491 9.109677365e-39
0.38306665 -0.08376598668 0.8771121221 9.385904121e-39
0.38376576 -0.08176600668 0.8770016491 9.662125271e-39
0.38445717 -0.07976597668 0.8768911681 9.753599232e-39
0.38605905 -0.07976597668 0.8768911681 9.93655276e-39
0.38766095 -0.07976597668 0.8768911681 1.003018192e-38
0.38926286 -0.07976597668 0.8768911681 1.01241656e-38
0.39179432 -0.08176600668 0.8770016491 9.75717955e-39
0.39340004 -0.08176600668 0.8770016491 9.482398934e-39
0.39500573 -0.08176600668 0.8770016491 9.847955664e-39
0.39661145 -0.08176600668 0.8770016491 1.021386832e-38
0.39821717 -0.08176600668 0.8770016491 1.030571083e-38
0.39982289 -0.08176600668 0.8770016491 1.048972654e-38
0.40238094 -0.08376598668 0.8771121221 1.067338492e-38
0.40399048 -0.08376598668 0.8771121221 1.085741885e-38
0.40560001 -0.08376598668 0.8771121221 1.1317318e-38
0.40720952 -0.08376598668 0.8771121221 1.186582265e-38
0.40881905 -0.08376598668 0.8771121221 1.168394952e-38
0.41188571 -0.08676600668 0.8772778351 1.150170645e-38
0.41350096 -0.08676600668 0.8772778351 1.150134212e-38
0.41511622 -0.08676600668 0.8772778351 1.150098058e-38
0.41673145 -0.08676600668 0.8772778351 1.150241411e-38
0.41933334 -0.08876597668 0.8773883121 1.150242252e-38
0.42095238 -0.08876597668 0.8773883121 1.168574459e-38
0.42257145 -0.08876597668 0.8773883121 1.186941558e-38
0.42419049 -0.08876597668 0.8773883121 1.223675897e-38
0.42580953 -0.08876597668 0.8773883121 1.251226545e-38
0.42742857 -0.08876597668 0.8773883121 1.214492487e-38
0.42904761 -0.08876597668 0.8773883121 1.187122746e-38
0.43168002 -0.09076601668 0.8774987891 1.168721455e-38
0.43330288 -0.09076601668 0.8774987891 1.150353375e-38
0.43492573 -0.09076601668 0.8774987891 1.16868362e-38
0.43757334 -0.09276598668 0.8776092621 1.196090916e-38
0.44022858 -0.09476602668 0.8777197431 1.177688084e-38
0.44185907 -0.09476602668 0.8777197431 1.168466559e-38
0.44348955 -0.09476602668 0.8777197431 1.186867569e-38
0.44616002 -0.09676599668 0.8778302211 1.205200337e-38
0.44779429 -0.09676599668 0.8778302211 1.177615356e-38
0.44942859 -0.09676599668 0.8778302211 1.159248117e-38
0.35300571 -0.09676599668 0.8794645051 5.890768675e-39
0.35546669 -0.09876596668 0.8795787901 6.351382487e-39
0.35710475 -0.09876596668 0.8795787901 6.53648981e-39
0.35790858 -0.09676599668 0.8794645051 6.716921e-39
0.35954288 -0.09676599668 0.8794645051 6.714397262e-39
0.36117715 -0.09676599668 0.8794645051 6.713684001e-39
0.36196575 -0.09476602668 0.8793502211 6.805881032e-39
0.36359623 -0.09476602668 0.8793502211 6.898794127e-39
0.36522669 -0.09476602668 0.8793502211 6.895206803e-39
0.36600003 -0.09276598668 0.8792359331 6.896640331e-39
0.3676267 -0.09276598668 0.8792359331 7.081027387e-39
0.36925334 -0.09276598668 0.8792359331 7.265788589e-39
0.37001145 -0.09076601668 0.8791216451 7.450549792e-39
0.3716343 -0.09076601668 0.8791216451 7.727115662e-39
0.37325716 -0.09076601668 0.8791216451 7.728533776e-39
0.37488002 -0.09076601668 0.8791216451 7.727820515e-39
0.37561905 -0.08876597668 0.8790073561 7.819302884e-39
0.37723809 -0.08876597668 0.8790073561 8.002620749e-39
0.37796572 -0.08676600668 0.8788930761 8.369611008e-39
0.37958097 -0.08676600668 0.8788930761 8.739102584e-39
0.37984765 -0.08376598668 0.8787216451 8.832012877e-39
0.38145715 -0.08376598668 0.8787216451 9.016761467e-39
0.38442668 -0.08676600668 0.8788930761 9.201510058e-39
0.38467619 -0.08376598668 0.8787216451 9.477375279e-39
0.38628572 -0.08376598668 0.8787216451 9.569569508e-39
0.38697717 -0.08176600668 0.8786073611 9.660326004e-39
0.38858289 -0.08176600668 0.8786073611 9.751442634e-39
0.3901886 -0.08176600668 0.8786073611 9.939417014e-39
0.39272383 -0.08376598668 0.8787216451 9.939417014e-39
0.39433333 -0.08376598668 0.8787216451 9.939065288e-39
0.39594287 -0.08376598668 0.8787216451 1.003090639e-38
0.3975524 -0.08376598668 0.8787216451 1.012203003e-38
0.39916193 -0.08376598668 0.8787216451 1.012203563e-38
0.40077144 -0.08376598668 0.8787216451 1.021386132e-38
0.40380955 -0.08676600668 0.8788930761 1.039788123e-38
0.40542477 -0.08676600668 0.8788930761 1.058155643e-38
0.40704003 -0.08676600668 0.8788930761 1.085886219e-38
0.40865526 -0.08676600668 0.8788930761 1.113257501e-38
0.41027051 -0.08676600668 0.8788930761 1.122476924e-38
0.41188571 -0.08676600668 0.8788930761 1.131660053e-38
0.41350096 -0.08676600668 0.8788930761 1.131695506e-38
0.41609526 -0.08876597668 0.8790073561 1.131802986e-38
0.4177143 -0.08876597668 0.8790073561 1.131910465e-38
0.41933334 -0.08876597668 0.8790073561 1.141058422e-38
0.42095238 -0.08876597668 0.8790073561 1.159497688e-38
0.42257145 -0.08876597668 0.8790073561 1.177793882e-38
0.42419049 -0.08876597668 0.8790073561 1.186906666e-38
0.42580953 -0.08876597668 0.8790073561 1.205273344e-38
0.42742857 -0.08876597668 0.8790073561 1.186941698e-38
0.43005717 -0.09076601668 0.8791216451 1.177723256e-38
0.43168002 -0.09076601668 0.8791216451 1.159357278e-38
0.43330288 -0.09076601668 0.8791216451 1.150316941e-38
0.43492573 -0.09076601668 0.8791216451 1.187014846e-38
0.43757334 -0.09276598668 0.8792359331 1.223677298e-38
0.44022858 -0.09476602668 0.8793502211 1.196090636e-38
0.44185907 -0.09476602668 0.8793502211 1.168503413e-38
0.44452572 -0.09676599668 0.8794645051 1.122656711e-38
0.44616002 -0.09676599668 0.8794645051 1.085923773e-38
0.44779429 -0.09676599668 0.8794645051 1.104292274e-38
0.44942859 -0.09676599668 0.8794645051 1.131805788e-38
0.35546669 -0.09876596668 0.8812168821 6.169866692e-39
0.35793525 -0.1007660067 0.8813349811 6.443938251e-39
0.35874283 -0.09876596668 0.8812168821 6.811266222e-39
0.36038095 -0.09876596668 0.8812168821 6.900219247e-39
0.36201903 -0.09876596668 0.8812168821 6.988833158e-39
0.36365715 -0.09876596668 0.8812168821 6.98955763e-39
0.36444575 -0.09676599668 0.8810987901 6.897719331e-39
0.36608002 -0.09676599668 0.8810987901 6.896283e-39
0.36685717 -0.09476602668 0.8809806951 6.988119897e-39
0.36848763 -0.09476602668 0.8809806951 6.9881227e-39
0.37011811 -0.09476602668 0.8809806951 6.988484235e-39
0.3717486 -0.09476602668 0.8809806951 7.17359296e-39
0.37250668 -0.09276598668 0.8808625991 7.359049206e-39
0.37413335 -0.09276598668 0.8808625991 7.542711791e-39
0.37575999 -0.09276598668 0.8808625991 7.726745719e-39
0.37650287 -0.09076601668 0.8807445041 7.818226687e-39
0.37812573 -0.09076601668 0.8807445041 7.818232292e-39
0.37885717 -0.08876597668 0.8806264051 8.185938614e-39
0.38047618 -0.08876597668 0.8806264051 8.463593293e-39
0.3811962 -0.08676600668 0.8805083131 8.739455712e-39
0.38371432 -0.08876597668 0.8806264051 8.92384557e-39
0.38533333 -0.08876597668 0.8806264051 9.107876696e-39
0.38604191 -0.08676600668 0.8805083131 9.291909223e-39
0.38765717 -0.08676600668 0.8805083131 9.38338879e-39
0.38789526 -0.08376598668 0.8803311721 9.567054177e-39
0.38950476 -0.08376598668 0.8803311721 9.93618562e-39
0.39111429 -0.08376598668 0.8803311721 1.03975183e-38
0.39411813 -0.08676600668 0.8805083131 1.012093841e-38
0.39573336 -0.08676600668 0.8805083131 9.936554161e-39
0.39594287 -0.08376598668 0.8803311721 9.93727583e-39
0.3975524 -0.08376598668 0.8803311721 9.938356231e-39
0.40057907 -0.08676600668 0.8805083131 1.003019733e-38
0.40219429 -0.08676600668 0.8805083131 1.021386132e-38
0.40380955 -0.08676600668 0.8805083131 1.030569121e-38
0.40542477 -0.08676600668 0.8805083131 1.039753091e-38
0.40704003 -0.08676600668 0.8805083131 1.0673043e-38
0.40865526 -0.08676600668 0.8805083131 1.094890402e-38
0.41027051 -0.08676600668 0.8805083131 1.094854248e-38
0.41285715 -0.08876597668 0.8806264051 1.104037658e-38
0.41447619 -0.08876597668 0.8806264051 1.113292814e-38
0.41609526 -0.08876597668 0.8806264051 1.113507913e-38
0.4177143 -0.08876597668 0.8806264051 1.113507773e-38
0.41933334 -0.08876597668 0.8806264051 1.113507493e-38
0.42095238 -0.08876597668 0.8806264051 1.131910325e-38
0.42257145 -0.08876597668 0.8806264051 1.150350852e-38
0.42419049 -0.08876597668 0.8806264051 1.186907506e-38
0.42580953 -0.08876597668 0.8806264051 1.214385428e-38
0.42843431 -0.09076601668 0.8807445041 1.186869811e-38
0.43005717 -0.09076601668 0.8807445041 1.159355596e-38
0.43168002 -0.09076601668 0.8807445041 1.150244354e-38
0.43330288 -0.09076601668 0.8807445041 1.150316381e-38
0.43492573 -0.09076601668 0.8807445041 1.159536084e-38
0.43757334 -0.09276598668 0.8808625991 1.168791099e-38
0.44022858 -0.09476602668 0.8809806951 1.159356157e-38
0.44289145 -0.09676599668 0.8810987901 1.150065548e-38
0.44452572 -0.09676599668 0.8810987901 1.168469221e-38
0.44616002 -0.09676599668 0.8810987901 1.186909048e-38
0.44779429 -0.09676599668 0.8810987901 1.159395393e-38
0.44942859 -0.09676599668 0.8810987901 1.141097658e-38
0.35793525 -0.1007660067 0.8829768841 6.443587926e-39
0.35957718 -0.1007660067 0.8829768841 6.902765407e-39
0.36121908 -0.1007660067 0.8829768841 7.0864378e-39
0.36286098 -0.1007660067 0.8829768841 7.35978769e-39
0.36450288 -0.1007660067 0.8829768841 7.173961501e-39
0.36529523 -0.09876596668 0.8828549781 6.9892017e-39
0.36608002 -0.09676599668 0.8827330751 6.988473025e-39
0.36771429 -0.09676599668 0.8827330751 7.077797394e-39
0.36848763 -0.09476602668 0.8826111721 6.892334141e-39
0.37011811 -0.09476602668 0.8826111721 6.803730039e-39
0.3717486 -0.09476602668 0.8826111721 6.897003267e-39
0.37250668 -0.09276598668 0.8824892661 6.99206175e-39
0.37500957 -0.09476602668 0.8826111721 7.358321932e-39
0.37575999 -0.09276598668 0.8824892661 7.817500814e-39
0.37738666 -0.09276598668 0.8824892661 7.726026853e-39
0.37901336 -0.09276598668 0.8824892661 7.726031057e-39
0.37974858 -0.09076601668 0.8823673631 8.002617947e-39
0.38137147 -0.09076601668 0.8823673631 8.278839097e-39
0.38209525 -0.08876597668 0.8822454531 8.555420382e-39
0.38371432 -0.08876597668 0.8822454531 8.922762366e-39
0.38533333 -0.08876597668 0.8822454531 9.014957996e-39
0.3869524 -0.08876597668 0.8822454531 9.198989122e-39
0.38765717 -0.08676600668 0.8821235511 9.291184752e-39
0.38927239 -0.08676600668 0.8821235511 9.475210273e-39
0.39088765 -0.08676600668 0.8821235511 1.021312003e-38
0.39342856 -0.08876597668 0.8822454531 1.09467292e-38
0.39411813 -0.08676600668 0.8821235511 1.039500016e-38
0.39573336 -0.08676600668 0.8821235511 9.93582969e-39
0.39734861 -0.08676600668 0.8821235511 9.844361334e-39
0.39896381 -0.08676600668 0.8821235511 9.754320901e-39
0.40057907 -0.08676600668 0.8821235511 1.003090499e-38
0.40219429 -0.08676600668 0.8821235511 1.030568981e-38
0.40476191 -0.08876597668 0.8822454531 1.030532827e-38
0.40638095 -0.08876597668 0.8822454531 1.030569121e-38
0.40800002 -0.08876597668 0.8822454531 1.049080274e-38
0.40865526 -0.08676600668 0.8821235511 1.076450856e-38
0.4112381 -0.08876597668 0.8822454531 1.076378268e-38
0.41285715 -0.08876597668 0.8822454531 1.085634125e-38
0.41447619 -0.08876597668 0.8822454531 1.094890122e-38
0.41609526 -0.08876597668 0.8822454531 1.104110105e-38
0.4177143 -0.08876597668 0.8822454531 1.094999003e-38
0.41933334 -0.08876597668 0.8822454531 1.095105501e-38
0.42095238 -0.08876597668 0.8822454531 1.113543366e-38
0.42257145 -0.08876597668 0.8822454531 1.131875713e-38
0.42419049 -0.08876597668 0.8822454531 1.177758569e-38
0.42681146 -0.09076601668 0.8823673631 1.23278798e-38
0.42843431 -0.09076601668 0.8823673631 1.186834219e-38
0.43005717 -0.09076601668 0.8823673631 1.150243513e-38
0.43168002 -0.09076601668 0.8823673631 1.150423019e-38
0.43432 -0.09276598668 0.8824892661 1.150388127e-38
0.43594667 -0.09276598668 0.8824892661 1.132022009e-38
0.43859813 -0.09476602668 0.8826111721 1.122730279e-38
0.44022858 -0.09476602668 0.8826111721 1.122622239e-38
0.44289145 -0.09676599668 0.8827330751 1.131698449e-38
0.44452572 -0.09676599668 0.8827330751 1.205059506e-38
0.44616002 -0.09676599668 0.8827330751 1.287747606e-38
0.44779429 -0.09676599668 0.8827330751 1.214315503e-38
0.44942859 -0.09676599668 0.8827330751 1.150244074e-38
0.35957718 -0.1007660067 0.8846187871 6.996058253e-39
0.36121908 -0.1007660067 0.8846187871 7.17974466e-39
0.36412382 -0.1037660267 0.8848073611 7.459900657e-39
0.36577144 -0.1037660267 0.8848073611 8.282818785e-39
0.36614478 -0.1007660067 0.8846187871 9.197924135e-39
0.36693332 -0.09876596668 0.8844930741 8.090854908e-39
0.36771429 -0.09676599668 0.8843673601 6.983805299e-39
0.36934859 -0.09676599668 0.8843673601 6.526061347e-39
0.37011811 -0.09476602668 0.8842416501 6.160157095e-39
0.3717486 -0.09476602668 0.8842416501 6.070476795e-39
0.37337908 -0.09476602668 0.8842416501 5.982584553e-39
0.37500957 -0.09476602668 0.8842416501 6.71583079e-39
0.37664002 -0.09476602668 0.8842416501 7.541274058e-39
0.37738666 -0.09276598668 0.8841159331 7.541992925e-39
0.37901336 -0.09276598668 0.8841159331 7.633829822e-39
0.38064003 -0.09276598668 0.8841159331 7.909697846e-39
0.38137147 -0.09076601668 0.8839902191 8.185561665e-39
0.38209525 -0.08876597668 0.8838645021 8.369232657e-39
0.38461715 -0.09076601668 0.8839902191 8.55290365e-39
0.38624004 -0.09076601668 0.8839902191 8.646532808e-39
0.3869524 -0.08876597668 0.8838645021 8.739444501e-39
0.38857141 -0.08876597668 0.8838645021 8.83163873e-39
0.39019048 -0.08876597668 0.8838645021 9.016025786e-39
0.39180955 -0.08876597668 0.8838645021 9.474843133e-39
0.39342856 -0.08876597668 0.8838645021 9.93366048e-39
0.39504763 -0.08876597668 0.8838645021 9.749989488e-39
0.39666668 -0.08876597668 0.8838645021 9.566688438e-39
0.39828572 -0.08876597668 0.8838645021 9.56849331e-39
0.39990479 -0.08876597668 0.8838645021 9.662119666e-39
0.4015238 -0.08876597668 0.8838645021 9.752877564e-39
0.40314287 -0.08876597668 0.8838645021 9.93582969e-39
0.40476191 -0.08876597668 0.8838645021 1.012237054e-38
0.40638095 -0.08876597668 0.8838645021 1.021385291e-38
0.40800002 -0.08876597668 0.8838645021 1.030497655e-38
0.40961906 -0.08876597668 0.8838645021 1.04882762e-38
0.4112381 -0.08876597668 0.8838645021 1.057974175e-38
0.41285715 -0.08876597668 0.8838645021 1.076270789e-38
0.41447619 -0.08876597668 0.8838645021 1.07637981e-38
0.41609526 -0.08876597668 0.8838645021 1.067233535e-38
0.4177143 -0.08876597668 0.8838645021 1.067378429e-38
0.41933334 -0.08876597668 0.8838645021 1.07670365e-38
0.42194289 -0.09076601668 0.8839902191 1.076630082e-38
0.42356572 -0.09076601668 0.8839902191 1.085778038e-38
0.4251886 -0.09076601668 0.8839902191 1.13162446e-38
0.42681146 -0.09076601668 0.8839902191 1.168287473e-38
0.42843431 -0.09076601668 0.8839902191 1.113330229e-38
0.43005717 -0.09076601668 0.8839902191 1.058766609e-38
0.43269333 -0.09276598668 0.8841159331 1.085994119e-38
0.43432 -0.09276598668 0.8841159331 1.113367083e-38
0.43594667 -0.09276598668 0.8841159331 1.113368764e-38
0.43859813 -0.09476602668 0.8842416501 1.113367924e-38
0.44022858 -0.09476602668 0.8842416501 1.085816574e-38
0.44289145 -0.09676599668 0.8843673601 1.049082376e-38
0.44452572 -0.09676599668 0.8843673601 1.131698449e-38
0.44616002 -0.09676599668 0.8843673601 1.214349975e-38
0.44779429 -0.09676599668 0.8843673601 1.177615356e-38
0.44942859 -0.09676599668 0.8843673601 1.13183984e-38
0.36412382 -0.1037660267 0.8864549791 7.55606056e-39
0.36577144 -0.1037660267 0.8864549791 9.504710408e-39
0.36741909 -0.1037660267 0.8864549791 1.15161062e-38
0.36778668 -0.1007660067 0.8862606981 9.211232267e-39
0.36857143 -0.09876596668 0.8861311661 6.995671495e-39
0.36934859 -0.09676599668 0.8860016451 6.245532605e-39
0.37098286 -0.09676599668 0.8860016451 5.515873692e-39
0.37261716 -0.09676599668 0.8860016451 5.243958731e-39
0.37337908 -0.09476602668 0.8858721241 4.971676631e-39
0.37500957 -0.09476602668 0.8858721241 6.07334105e-39
0.37664002 -0.09476602668 0.8858721241 7.266845169e-39
0.37827051 -0.09476602668 0.8858721241 7.45015883e-39
0.37990096 -0.09476602668 0.8858721241 7.633831223e-39
0.38064003 -0.09276598668 0.8857425991 7.817502216e-39
0.38226667 -0.09276598668 0.8857425991 8.093366035e-39
0.38299429 -0.09076601668 0.8856130781 8.095158296e-39
0.38552001 -0.09276598668 0.8857425991 8.186637862e-39
0.38714668 -0.09276598668 0.8857425991 8.278476161e-39
0.38786289 -0.09076601668 0.8856130781 8.371031925e-39
0.38948572 -0.09076601668 0.8856130781 8.463587688e-39
0.3911086 -0.09076601668 0.8856130781 8.55541898e-39
0.39273146 -0.09076601668 0.8856130781 8.739085769e-39
0.39435431 -0.09076601668 0.8856130781 9.01495099e-39
0.39504763 -0.08876597668 0.8854835501 9.107862683e-39
0.39666668 -0.08876597668 0.8854835501 9.200062517e-39
0.39828572 -0.08876597668 0.8854835501 9.384457981e-39
0.39990479 -0.08876597668 0.8854835501 9.56812617e-39
0.4015238 -0.08876597668 0.8854835501 9.5684821e-39
0.40314287 -0.08876597668 0.8854835501 9.661035061e-39
0.40476191 -0.08876597668 0.8854835501 9.939771542e-39
0.40638095 -0.08876597668 0.8854835501 1.021277251e-38
0.40800002 -0.08876597668 0.8854835501 1.021313825e-38
0.40961906 -0.08876597668 0.8854835501 1.021277531e-38
0.4112381 -0.08876597668 0.8854835501 1.048791886e-38
0.41285715 -0.08876597668 0.8854835501 1.076271489e-38
0.41545147 -0.09076601668 0.8856130781 1.058012711e-38
0.41707432 -0.09076601668 0.8856130781 1.039646032e-38
0.41869715 -0.09076601668 0.8856130781 1.048973635e-38
0.41933334 -0.08876597668 0.8854835501 1.058156624e-38
0.42194289 -0.09076601668 0.8856130781 1.049008387e-38
0.42356572 -0.09076601668 0.8856130781 1.049008527e-38
0.4251886 -0.09076601668 0.8856130781 1.076559316e-38
0.42681146 -0.09076601668 0.8856130781 1.113293655e-38
0.42944002 -0.09276598668 0.8857425991 1.039825258e-38
0.43106669 -0.09276598668 0.8857425991 9.755764239e-39
0.43269333 -0.09276598668 0.8857425991 1.021566059e-38
0.43533719 -0.09476602668 0.8858721241 1.076668197e-38
0.43696764 -0.09476602668 0.8858721241 1.094820898e-38
0.43962288 -0.09676599668 0.8860016451 1.113330509e-38
0.44125715 -0.09676599668 0.8860016451 1.039897004e-38
0.44289145 -0.09676599668 0.8860016451 9.755778251e-39
0.44452572 -0.09676599668 0.8860016451 1.058410679e-38
0.44616002 -0.09676599668 0.8860016451 1.150137715e-38
0.44779429 -0.09676599668 0.8860016451 1.131734042e-38
0.44942859 -0.09676599668 0.8860016451 1.122584544e-38
0.36412382 -0.1037660267 0.8881026011 6.642388738e-39
0.36661717 -0.1057659967 0.8882359321 8.857248861e-39
0.36826858 -0.1057659967 0.8882359321 1.106128676e-38
0.36992002 -0.1057659967 0.8882359321 1.077930907e-38
0.37157145 -0.1057659967 0.8882359321 1.058948077e-38
0.37236193 -0.1037660267 0.8881026011 9.199693975e-39
0.3727124 -0.1007660067 0.8879026011 7.902163064e-39
0.3743543 -0.1007660067 0.8879026011 6.250921999e-39
0.37425146 -0.09676599668 0.8876359301 4.603977315e-39
0.37588573 -0.09676599668 0.8876359301 5.888235128e-39
0.37752002 -0.09676599668 0.8876359301 7.264335443e-39
0.37915432 -0.09676599668 0.8876359301 6.988114292e-39
0.38078859 -0.09676599668 0.8876359301 6.804083166e-39
0.38153145 -0.09476602668 0.8875026021 7.172860081e-39
0.38316193 -0.09476602668 0.8875026021 7.541992925e-39
0.38389334 -0.09276598668 0.8873692661 7.541274058e-39
0.38642287 -0.09476602668 0.8875026021 7.632756427e-39
0.38714668 -0.09276598668 0.8873692661 7.723521332e-39
0.38877332 -0.09276598668 0.8873692661 7.814284834e-39
0.39040002 -0.09276598668 0.8873692661 7.999037629e-39
0.39202669 -0.09276598668 0.8873692661 8.183777812e-39
0.39365336 -0.09276598668 0.8873692661 8.462866019e-39
0.39435431 -0.09076601668 0.8872359341 8.646537012e-39
0.39597717 -0.09076601668 0.8872359341 8.740524902e-39
0.39666668 -0.08876597668 0.8871025951 8.924914761e-39
0.39828572 -0.08876597668 0.8871025951 9.017470524e-39
0.40084574 -0.09076601668 0.8872359341 9.199343651e-39
0.4015238 -0.08876597668 0.8871025951 9.201491841e-39
0.40314287 -0.08876597668 0.8871025951 9.202928172e-39
0.40476191 -0.08876597668 0.8871025951 9.477719999e-39
0.40733719 -0.09076601668 0.8872359341 9.752874761e-39
0.40896001 -0.09076601668 0.8872359341 9.844359933e-39
0.41058287 -0.09076601668 0.8872359341 9.935839499e-39
0.41220576 -0.09076601668 0.8872359341 1.01195147e-38
0.41382858 -0.09076601668 0.8872359341 1.030354442e-38
0.41545147 -0.09076601668 0.8872359341 1.030390315e-38
0.41707432 -0.09076601668 0.8872359341 1.030425768e-38
