# .PCD v0.7 - Point Cloud Data file format
VERSION 0.7
FIELDS x y z rgb
SIZE 4 4 4 4
TYPE F F F F
COUNT 1 1 1 1
WIDTH 878
HEIGHT 1
VIEWPOINT 0 0 0 1 0 0 0
POINTS 878
DATA ascii
0.4075724176 -0.05335180219 0.85600007 6.709733741e-39
0.4073362276 -0.05412514219 0.85400003 6.526783016e-39
0.4071000376 -0.05489085219 0.85200006 6.344192425e-39
0.4068638376 -0.05564893219 0.85000002 6.252363935e-39
0.4068638376 -0.05726797219 0.85000002 6.437835596e-39
0.4071000376 -0.05975941219 0.85200006 6.621858314e-39
0.4066276576 -0.05962989219 0.84800005 6.622570174e-39
0.4062733716 -0.05992512219 0.84500003 6.715486071e-39
0.4062733716 -0.06153465219 0.84500003 6.808044637e-39
0.4062733716 -0.06314418219 0.84500003 6.99242889e-39
0.4062733716 -0.06475369219 0.84500003 6.993143552e-39
0.4062733716 -0.06636322219 0.84500003 7.085333577e-39
0.4062733716 -0.06797276219 0.84500003 7.361194594e-39
0.4062733716 -0.06958226219 0.84500003 7.635989223e-39
0.4060371806 -0.07028515219 0.84300005 7.818591025e-39
0.4060371806 -0.07189087219 0.84300005 8.00405708e-39
0.4060371806 -0.07349656219 0.84300005 8.188446939e-39
0.4060371806 -0.07510228219 0.84300005 8.373192727e-39
0.4058009826 -0.07578606219 0.84100002 8.557938515e-39
0.4058009826 -0.07738797219 0.84100002 8.833799532e-39
0.4058009826 -0.07898990219 0.84100002 8.92634969e-39
0.4058009826 -0.08059177219 0.84100002 9.109666154e-39
0.4058009826 -0.08219368219 0.84100002 9.291546287e-39
0.4055647916 -0.08285466219 0.83900005 9.567049973e-39
0.4055647916 -0.08445272219 0.83900005 9.751076895e-39
0.4058009826 -0.08699942219 0.84100002 1.002874559e-38
0.4058009826 -0.08860130219 0.84100002 1.012130836e-38
0.4058009826 -0.09020320219 0.84100002 1.030570382e-38
0.4060371806 -0.09276513219 0.84300005 1.048974055e-38
0.4062733716 -0.09533463219 0.84500003 1.07648827e-38
0.4060371806 -0.09597654219 0.84300005 1.085635386e-38
0.4062733716 -0.09855369219 0.84500003 1.094783203e-38
0.4062733716 -0.1001632322 0.84500003 1.058085018e-38
0.4062733716 -0.1017727322 0.84500003 1.030569121e-38
0.4062733716 -0.1033822722 0.84500003 1.067481565e-38
0.4062733716 -0.1049918022 0.84500003 1.104181291e-38
0.4062733716 -0.1066013322 0.84500003 1.122514058e-38
0.4066276576 -0.1097023022 0.84800005 1.150136174e-38
0.4068638376 -0.1123156022 0.85000002 1.122656991e-38
0.4068638376 -0.1139346422 0.85000002 1.094855229e-38
0.4071000376 -0.1165594222 0.85200006 1.094926976e-38
0.4071000376 -0.1181822822 0.85200006 1.095034035e-38
0.4071000376 -0.1198051322 0.85200006 1.058478642e-38
0.4071000376 -0.1214279922 0.85200006 1.021673118e-38
0.4073362276 -0.1240717822 0.85400003 1.05833613e-38
0.4073362276 -0.1256984522 0.85400003 1.094998582e-38
0.4073362276 -0.1273250922 0.85400003 1.085743286e-38
0.4075724176 -0.1299841822 0.85600007 1.085742726e-38
0.4075724176 -0.1316146622 0.85600007 1.085813912e-38
0.4078086076 -0.1342851322 0.85800004 1.094961728e-38
0.4080447876 -0.1369631922 0.86000001 1.113293234e-38
0.4080447876 -0.1386013122 0.86000001 1.140771016e-38
0.4112428876 -0.05062798219 0.87300003 4.691918603e-39
0.4110028976 -0.05145655219 0.87100005 5.060308759e-39
0.4110028976 -0.05311561219 0.87100005 5.335787221e-39
0.4110028976 -0.05477465219 0.87100005 5.611653843e-39
0.4096828876 -0.05178226219 0.86000001 5.978638497e-39
0.4096828876 -0.05342034219 0.86000001 6.343109221e-39
0.4092028976 -0.05335180219 0.85600007 6.251273725e-39
0.4092028976 -0.05498228219 0.85600007 6.067608338e-39
0.4089628876 -0.05575181219 0.85400003 6.067972675e-39
0.4087228876 -0.05651370219 0.85200006 5.976865854e-39
0.4087228876 -0.05813656219 0.85200006 6.160548057e-39
0.4089628876 -0.06063179219 0.85400003 6.34456517e-39
0.4082428976 -0.05962989219 0.84800005 6.437465653e-39
0.4082428976 -0.06124515219 0.84800005 6.531100416e-39
0.4082428976 -0.06286035219 0.84800005 6.71406095e-39
0.4082428976 -0.06447560219 0.84800005 6.805173376e-39
0.4082428976 -0.06609083219 0.84800005 6.714051141e-39
0.4078828876 -0.06636322219 0.84500003 6.7147616e-39
0.4078828876 -0.06797276219 0.84500003 7.083531507e-39
0.4078828876 -0.06958226219 0.84500003 7.452312625e-39
0.4078828876 -0.07119176219 0.84500003 7.727824719e-39
0.4078828876 -0.07280130219 0.84500003 8.003332609e-39
0.4078828876 -0.07441083219 0.84500003 8.188082601e-39
0.4076428876 -0.07510228219 0.84300005 8.372832593e-39
0.4076428876 -0.07670800219 0.84300005 8.556506388e-39
0.4076428876 -0.07831371219 0.84300005 8.740168973e-39
0.4076428876 -0.07991943219 0.84300005 8.832713526e-39
0.4071628876 -0.07965845219 0.83900005 9.017467722e-39
0.4074028876 -0.08219368219 0.84100002 9.201504453e-39
0.4074028876 -0.08379558219 0.84100002 9.477727005e-39
0.4074028876 -0.08539749219 0.84100002 9.6603218e-39
0.4076428876 -0.08794800219 0.84300005 9.935838098e-39
0.4074028876 -0.08860130219 0.84100002 9.936924104e-39
0.4074028876 -0.09020320219 0.84100002 1.002984421e-38
0.4076428876 -0.09276513219 0.84300005 1.021280754e-38
0.4078828876 -0.09533463219 0.84500003 1.048794549e-38
0.4076428876 -0.09597654219 0.84300005 1.076344357e-38
0.4078828876 -0.09855369219 0.84500003 1.103930459e-38
0.4078828876 -0.1001632322 0.84500003 1.067231853e-38
0.4078828876 -0.1017727322 0.84500003 1.039715676e-38
0.4078828876 -0.1033822722 0.84500003 1.057973895e-38
0.4078828876 -0.1049918022 0.84500003 1.085455039e-38
0.4078828876 -0.1066013322 0.84500003 1.103896127e-38
0.4078828876 -0.1082108422 0.84500003 1.122334412e-38
0.4082428976 -0.1113174922 0.84800005 1.103966752e-38
0.4082428976 -0.1129327522 0.84800005 1.085598532e-38
0.4087228876 -0.1165594222 0.85200006 1.094852847e-38
0.4087228876 -0.1181822822 0.85200006 1.113220507e-38
0.4087228876 -0.1198051322 0.85200006 1.076522742e-38
0.4087228876 -0.1214279922 0.85200006 1.049044541e-38
0.4089628876 -0.1240717822 0.85400003 1.067448354e-38
0.4089628876 -0.1256984522 0.85400003 1.095070609e-38
0.4089628876 -0.1273250922 0.85400003 1.094891103e-38
0.4092028976 -0.1299841822 0.85600007 1.094961588e-38
0.4092028976 -0.1316146622 0.85600007 1.076629241e-38
0.4092028976 -0.1332451522 0.85600007 1.067518138e-38
0.4094428876 -0.1359194022 0.85800004 1.085706572e-38
0.4094428876 -0.1375537022 0.85800004 1.113219946e-38
0.4126619376 -0.05145655219 0.87100005 4.875555964e-39
0.4126619376 -0.05311561219 0.87100005 5.058491274e-39
0.4126619376 -0.05477465219 0.87100005 5.334716629e-39
0.4113209876 -0.05178226219 0.86000001 5.610941984e-39
0.4113209876 -0.05342034219 0.86000001 5.886085536e-39
0.4110771776 -0.05420513219 0.85800004 5.794247237e-39
0.4108333676 -0.05498228219 0.85600007 5.702417346e-39
0.4105895576 -0.05575181219 0.85400003 5.702780282e-39
0.4105895576 -0.05737845219 0.85400003 5.793543785e-39
0.4105895576 -0.05900512219 0.85400003 5.976860249e-39
0.4105895576 -0.06063179219 0.85400003 6.160527037e-39
0.4105895576 -0.06225846219 0.85400003 6.252718463e-39
0.4098581276 -0.06124515219 0.84800005 6.437832793e-39
0.4098581276 -0.06286035219 0.84800005 6.529678098e-39
0.4098581276 -0.06447560219 0.84800005 6.712983352e-39
0.4098581276 -0.06609083219 0.84800005 6.529306754e-39
0.4098581276 -0.06770608219 0.84800005 6.347065086e-39
0.4094924176 -0.06797276219 0.84500003 6.806595694e-39
0.4094924176 -0.06958226219 0.84500003 7.358327537e-39
0.4094924176 -0.07119176219 0.84500003 7.634554293e-39
0.4094924176 -0.07280130219 0.84500003 8.00333401e-39
0.4094924176 -0.07441083219 0.84500003 8.188085404e-39
0.4094924176 -0.07602037219 0.84500003 8.372124937e-39
0.4092486076 -0.07670800219 0.84300005 8.556524605e-39
0.4092486076 -0.07831371219 0.84300005 8.740180183e-39
0.4092486076 -0.07991943219 0.84300005 8.832360399e-39
0.4092486076 -0.08152515219 0.84300005 8.92492457e-39
0.4092486076 -0.08313084219 0.84300005 9.201877198e-39
0.4090047876 -0.08379558219 0.84100002 9.477016547e-39
0.4090047876 -0.08539749219 0.84100002 9.6603218e-39
0.4092486076 -0.08794800219 0.84300005 9.844355729e-39
0.4090047876 -0.08860130219 0.84100002 9.844720066e-39
0.4092486076 -0.09115944219 0.84300005 9.844727073e-39
0.4092486076 -0.09276513219 0.84300005 1.002840507e-38
0.4094924176 -0.09533463219 0.84500003 1.021207326e-38
0.4092486076 -0.09597654219 0.84300005 1.067160667e-38
0.4094924176 -0.09855369219 0.84500003 1.113078275e-38
0.4094924176 -0.1001632322 0.84500003 1.085563219e-38
0.4094924176 -0.1017727322 0.84500003 1.057976277e-38
0.4094924176 -0.1033822722 0.84500003 1.057975856e-38
0.4094924176 -0.1049918022 0.84500003 1.067089761e-38
0.4094924176 -0.1066013322 0.84500003 1.085458963e-38
0.4094924176 -0.1082108422 0.84500003 1.103968294e-38
0.4098581276 -0.1113174922 0.84800005 1.09474775e-38
0.4101019376 -0.1139346422 0.85000002 1.085599373e-38
0.4103457576 -0.1165594222 0.85200006 1.104037518e-38
0.4103457576 -0.1181822822 0.85200006 1.131552714e-38
0.4103457576 -0.1198051322 0.85200006 1.104002345e-38
0.4105895576 -0.1224451122 0.85400003 1.085707973e-38
0.4105895576 -0.1240717822 0.85400003 1.085780561e-38
0.4105895576 -0.1256984522 0.85400003 1.094927957e-38
0.4105895576 -0.1273250922 0.85400003 1.094891803e-38
0.4108333676 -0.1299841822 0.85600007 1.104110525e-38
0.4108333676 -0.1316146622 0.85600007 1.067447233e-38
0.4108333676 -0.1332451522 0.85600007 1.039825118e-38
0.4110771776 -0.1359194022 0.85800004 1.067160807e-38
0.4110771776 -0.1375537022 0.85800004 1.094854108e-38
0.4129590876 -0.05178226219 0.86000001 5.704575346e-39
0.4129590876 -0.05342034219 0.86000001 6.163388489e-39
0.4129590876 -0.05505843219 0.86000001 5.88715893e-39
0.4124638476 -0.05498228219 0.85600007 5.611297913e-39
0.4124638476 -0.05661274219 0.85600007 5.610584652e-39
0.4122162276 -0.05737845219 0.85400003 5.702415945e-39
0.4122162276 -0.05900512219 0.85400003 5.977919631e-39
0.4124638476 -0.06150419219 0.85600007 6.253430323e-39
0.4124638476 -0.06313468219 0.85600007 6.253794661e-39
0.4122162276 -0.06388510219 0.85400003 6.3460001e-39
0.4117209776 -0.06374416219 0.85000002 6.529683704e-39
0.4117209776 -0.06536320219 0.85000002 6.712630225e-39
0.4114733676 -0.06609083219 0.84800005 6.620787722e-39
0.4114733676 -0.06770608219 0.84800005 6.622575779e-39
0.4114733676 -0.06932131219 0.84800005 6.989913559e-39
0.4111019476 -0.06958226219 0.84500003 7.44909104e-39
0.4111019476 -0.07119176219 0.84500003 7.541644001e-39
0.4111019476 -0.07280130219 0.84500003 7.727830324e-39
0.4111019476 -0.07441083219 0.84500003 7.910070591e-39
0.4111019476 -0.07602037219 0.84500003 8.092683603e-39
0.4111019476 -0.07762987219 0.84500003 8.278883939e-39
0.4111019476 -0.07923940219 0.84500003 8.556521802e-39
0.4111019476 -0.08084894219 0.84500003 8.648696413e-39
0.4108543176 -0.08152515219 0.84300005 8.83274015e-39
0.4108543176 -0.08313084219 0.84300005 9.016426557e-39
0.4108543176 -0.08473656219 0.84300005 9.200082135e-39
0.4108543176 -0.08634228219 0.84300005 9.385174044e-39
0.4108543176 -0.08794800219 0.84300005 9.66175673e-39
0.4108543176 -0.08955372219 0.84300005 9.661397997e-39
0.4108543176 -0.09115944219 0.84300005 9.661402201e-39
0.4111019476 -0.09372512219 0.84500003 9.844720066e-39
0.4111019476 -0.09533463219 0.84500003 9.937635964e-39
0.4111019476 -0.09694416219 0.84500003 1.030462342e-38
0.4111019476 -0.09855369219 0.84500003 1.057976977e-38
0.4111019476 -0.1001632322 0.84500003 1.048865174e-38
0.4111019476 -0.1017727322 0.84500003 1.039789665e-38
0.4111019476 -0.1033822722 0.84500003 1.039718339e-38
0.4111019476 -0.1049918022 0.84500003 1.039540934e-38
0.4111019476 -0.1066013322 0.84500003 1.067093545e-38
0.4111019476 -0.1082108422 0.84500003 1.104005288e-38
0.4114733676 -0.1113174922 0.84800005 1.085492874e-38
0.4117209776 -0.1139346422 0.85000002 1.076201424e-38
0.4119686076 -0.1165594222 0.85200006 1.067268707e-38
0.4119686076 -0.1181822822 0.85200006 1.067232974e-38
0.4119686076 -0.1198051322 0.85200006 1.067233114e-38
0.4122162276 -0.1224451122 0.85400003 1.076453518e-38
0.4122162276 -0.1240717822 0.85400003 1.085638189e-38
0.4122162276 -0.1256984522 0.85400003 1.094821318e-38
0.4122162276 -0.1273250922 0.85400003 1.094820898e-38
0.4124638476 -0.1299841822 0.85600007 1.104004027e-38
0.4124638476 -0.1316146622 0.85600007 1.085636647e-38
0.4124638476 -0.1332451522 0.85600007 1.067269408e-38
0.4127114676 -0.1359194022 0.85800004 1.067269268e-38
0.4127114676 -0.1375537022 0.85800004 1.07648827e-38
0.4145971776 -0.05342034219 0.86000001 6.439972576e-39
0.4145971776 -0.05505843219 0.86000001 5.980073426e-39
0.4145971776 -0.05669654219 0.86000001 5.51982115e-39
0.4140943276 -0.05661274219 0.85600007 5.610224519e-39
0.4138428976 -0.05737845219 0.85400003 5.702778881e-39
0.4140943276 -0.05987371219 0.85600007 5.979004236e-39
0.4140943276 -0.06150419219 0.85600007 6.345628755e-39
0.4140943276 -0.06313468219 0.85600007 6.345987488e-39
0.4140943276 -0.06476513219 0.85600007 6.345991692e-39
0.4135914676 -0.06462798219 0.85200006 6.530024219e-39
0.4138428976 -0.06713847219 0.85400003 6.712976345e-39
0.4133400276 -0.06698228219 0.85000002 6.804091574e-39
0.4133400276 -0.06860129219 0.85000002 6.989194693e-39
0.4130886076 -0.06932131219 0.84800005 7.265415844e-39
0.4130886076 -0.07093657219 0.84800005 7.540925135e-39
0.4130886076 -0.07255179219 0.84800005 7.540927938e-39
0.4130886076 -0.07416702219 0.84800005 7.540211874e-39
0.4130886076 -0.07578228219 0.84800005 7.723525535e-39
0.4127114576 -0.07602037219 0.84500003 7.907919598e-39
0.4127114576 -0.07762987219 0.84500003 8.093391259e-39
0.4127114576 -0.07923940219 0.84500003 8.370324269e-39
0.4127114576 -0.08084894219 0.84500003 8.555423184e-39
0.4127114576 -0.08245844219 0.84500003 8.739465521e-39
0.4127114576 -0.08406798219 0.84500003 8.832032495e-39
0.4124600376 -0.08473656219 0.84300005 8.924932978e-39
0.4124600376 -0.08634228219 0.84300005 9.201863185e-39
0.4124600376 -0.08794800219 0.84300005 9.477727005e-39
0.4124600376 -0.08955372219 0.84300005 9.478085737e-39
0.4127114576 -0.09211559219 0.84500003 9.569566705e-39
0.4127114576 -0.09372512219 0.84500003 9.661047673e-39
0.4127114576 -0.09533463219 0.84500003 9.75325171e-39
0.4127114576 -0.09694416219 0.84500003 9.937649977e-39
0.4130886076 -0.1000108222 0.84800005 1.012059369e-38
0.4130886076 -0.1016260722 0.84800005 1.012202022e-38
0.4127114576 -0.1017727322 0.84500003 1.021421865e-38
0.4127114576 -0.1033822722 0.84500003 1.012274609e-38
0.4127114576 -0.1049918022 0.84500003 1.012024898e-38
0.4127114576 -0.1066013322 0.84500003 1.057908314e-38
0.4127114576 -0.1082108422 0.84500003 1.103825081e-38
0.4130886076 -0.1113174922 0.84800005 1.085457001e-38
0.4135914676 -0.1149365722 0.85200006 1.076344777e-38
0.4138428976 -0.1175651322 0.85400003 1.039682045e-38
0.4138428976 -0.1191918022 0.85400003 1.002947987e-38
0.4138428976 -0.1208184422 0.85400003 1.039682465e-38
0.4138428976 -0.1224451122 0.85400003 1.076381071e-38
0.4138428976 -0.1240717822 0.85400003 1.085565041e-38
0.4138428976 -0.1256984522 0.85400003 1.094784604e-38
0.4138428976 -0.1273250922 0.85400003 1.094820477e-38
0.4140943276 -0.1299841822 0.85600007 1.104004307e-38
0.4140943276 -0.1316146622 0.85600007 1.104112207e-38
0.4143457476 -0.1342851322 0.85800004 1.103967593e-38
0.4143457476 -0.1359194022 0.85800004 1.076451696e-38
0.4143457476 -0.1375537022 0.85800004 1.058156484e-38
0.4164905076 -0.05755371219 0.86200005 5.336510291e-39
0.4164905076 -0.05919561219 0.86200005 5.42583466e-39
0.4154695576 -0.05737845219 0.85400003 5.423687871e-39
0.4157247976 -0.05987371219 0.85600007 5.794982919e-39
0.4162352776 -0.06324891219 0.86000001 6.070126471e-39
0.4159800376 -0.06401084219 0.85800004 6.161957763e-39
0.4159800376 -0.06564513219 0.85800004 6.252352724e-39
0.4157247976 -0.06639562219 0.85600007 6.25378345e-39
0.4154695576 -0.06713847219 0.85400003 6.345980481e-39
0.4152143176 -0.06787369219 0.85200006 6.621489772e-39
0.4149590776 -0.06860129219 0.85000002 6.805159363e-39
0.4149590776 -0.07022036219 0.85000002 7.081742049e-39
0.4147038476 -0.07093657219 0.84800005 7.357612875e-39
0.4147038476 -0.07255179219 0.84800005 7.35761848e-39
0.4147038476 -0.07416702219 0.84800005 7.449452575e-39
0.4147038476 -0.07578228219 0.84800005 7.356898213e-39
0.4147038476 -0.07739750219 0.84800005 7.356173742e-39
0.4147038476 -0.07901276219 0.84800005 7.724586318e-39
0.4147038476 -0.08062798219 0.84800005 8.092649972e-39
0.4147038476 -0.08224324219 0.84800005 8.279555161e-39
0.4147038476 -0.08385847219 0.84800005 8.555791726e-39
0.4147038476 -0.08547372219 0.84800005 8.555804338e-39
0.4143209776 -0.08567751219 0.84500003 8.646196496e-39
0.4143209776 -0.08728704219 0.84500003 8.833446405e-39
0.4143209776 -0.08889655219 0.84500003 9.107875295e-39
0.4143209776 -0.09050605219 0.84500003 9.199710791e-39
0.4143209776 -0.09211559219 0.84500003 9.291907822e-39
0.4143209776 -0.09372512219 0.84500003 9.384104853e-39
0.4143209776 -0.09533463219 0.84500003 9.568508725e-39
0.4143209776 -0.09694416219 0.84500003 9.752912596e-39
0.4147038476 -0.1000108222 0.84800005 9.937282836e-39
0.4143209776 -0.1001632322 0.84500003 1.002874278e-38
0.4143209776 -0.1017727322 0.84500003 1.021205925e-38
0.4147038476 -0.1048565622 0.84800005 1.021242218e-38
0.4147038476 -0.1064718122 0.84800005 1.021279073e-38
0.4147038476 -0.1080870422 0.84800005 1.048794829e-38
0.4147038476 -0.1097023022 0.84800005 1.085528887e-38
0.4147038476 -0.1113174922 0.84800005 1.076452958e-38
0.4152143176 -0.1149365722 0.85200006 1.076560017e-38
0.4152143176 -0.1165594222 0.85200006 1.058084877e-38
0.4152143176 -0.1181822822 0.85200006 1.048758115e-38
0.4154695576 -0.1208184422 0.85400003 1.076344917e-38
0.4154695576 -0.1224451122 0.85400003 1.103895286e-38
0.4154695576 -0.1240717822 0.85400003 1.103895006e-38
0.4154695576 -0.1256984522 0.85400003 1.10382382e-38
0.4154695576 -0.1273250922 0.85400003 1.10403962e-38
0.4157247976 -0.1299841822 0.85600007 1.104040461e-38
0.4157247976 -0.1316146622 0.85600007 1.113189118e-38
0.4157247976 -0.1332451522 0.85600007 1.131518242e-38
0.4159800376 -0.1359194022 0.85800004 1.104037238e-38
0.4159800376 -0.1375537022 0.85800004 1.067375346e-38
0.4181324276 -0.05755371219 0.86200005 5.245753795e-39
0.4181324276 -0.05919561219 0.86200005 5.241802133e-39
0.4173552776 -0.05987371219 0.85600007 5.519468022e-39
0.4178733576 -0.06324891219 0.86000001 5.886448472e-39
0.4178733576 -0.06488702219 0.86000001 5.978282567e-39
0.4176143176 -0.06564513219 0.85800004 6.161593426e-39
0.4173552776 -0.06639562219 0.85600007 6.069397796e-39
0.4173552776 -0.06802607219 0.85600007 6.070476795e-39
0.4170962276 -0.06876514219 0.85400003 6.346703551e-39
0.4170962276 -0.07039178219 0.85400003 6.713325269e-39
0.4168371876 -0.07111940219 0.85200006 6.990265285e-39
0.4165781276 -0.07183943219 0.85000002 7.265058513e-39
0.4165781276 -0.07345844219 0.85000002 7.264705386e-39
0.4165781276 -0.07507751219 0.85000002 7.355466086e-39
0.4165781276 -0.07669652219 0.85000002 7.078884802e-39
0.4163190776 -0.07739750219 0.84800005 6.804809039e-39
0.4163190776 -0.07901276219 0.84800005 7.265058513e-39
0.4163190776 -0.08062798219 0.84800005 7.817866553e-39
0.4163190776 -0.08224324219 0.84800005 8.095525436e-39
0.4165781276 -0.08479179219 0.85000002 8.371397664e-39
0.4163190776 -0.08547372219 0.84800005 8.371762001e-39
0.4163190776 -0.08708892219 0.84800005 8.370324269e-39
0.4159305076 -0.08728704219 0.84500003 8.556862318e-39
0.4159305076 -0.08889655219 0.84500003 8.831292609e-39
0.4159305076 -0.09050605219 0.84500003 8.922050507e-39
0.4163190776 -0.09354988219 0.84800005 9.015683869e-39
0.4163190776 -0.09516514219 0.84800005 9.199360466e-39
0.4163190776 -0.09678037219 0.84800005 9.383041268e-39
0.4163190776 -0.09839562219 0.84800005 9.567082203e-39
0.4163190776 -0.1000108222 0.84800005 9.751812577e-39
0.4163190776 -0.1016260722 0.84800005 9.936544352e-39
0.4163190776 -0.1032413322 0.84800005 1.021205645e-38
0.4163190776 -0.1048565622 0.84800005 1.021206205e-38
0.4163190776 -0.1064718122 0.84800005 1.030462202e-38
0.4163190776 -0.1080870422 0.84800005 1.048901888e-38
0.4163190776 -0.1097023022 0.84800005 1.076345478e-38
0.4165781276 -0.1123156022 0.85000002 1.076525545e-38
0.4165781276 -0.1139346422 0.85000002 1.076524704e-38
0.4170962276 -0.1175651322 0.85400003 1.085707553e-38
0.4170962276 -0.1191918022 0.85400003 1.094711456e-38
0.4170962276 -0.1208184422 0.85400003 1.113114148e-38
0.4170962276 -0.1224451122 0.85400003 1.140628083e-38
0.4170962276 -0.1240717822 0.85400003 1.122260283e-38
0.4170962276 -0.1256984522 0.85400003 1.113149321e-38
0.4170962276 -0.1273250922 0.85400003 1.104074232e-38
0.4173552776 -0.1299841822 0.85600007 1.104003606e-38
0.4173552776 -0.1316146622 0.85600007 1.131519363e-38
0.4173552776 -0.1332451522 0.85600007 1.16825244e-38
0.4176143176 -0.1359194022 0.85800004 1.122477064e-38
0.4176143176 -0.1375537022 0.85800004 1.085707413e-38
0.4195114576 -0.06324891219 0.86000001 6.06867893e-39
0.4197743176 -0.06576321219 0.86200005 5.885009339e-39
0.4195114576 -0.06652511219 0.86000001 5.699904818e-39
0.4192486076 -0.06727943219 0.85800004 5.885370874e-39
0.4189857476 -0.06802607219 0.85600007 6.162315094e-39
0.4189857476 -0.06965656219 0.85600007 6.070482401e-39
0.4189857476 -0.07128704219 0.85600007 5.978642701e-39
0.4187228876 -0.07201845219 0.85400003 6.529652875e-39
0.4184600376 -0.07274226219 0.85200006 7.080670056e-39
0.4184600376 -0.07436515219 0.85200006 7.07923933e-39
0.4184600376 -0.07598800219 0.85200006 7.169644101e-39
0.4184600376 -0.07761083219 0.85200006 7.078531674e-39
0.4181971776 -0.07831559219 0.85000002 7.079963801e-39
0.4181971776 -0.07993466219 0.85000002 7.265068322e-39
0.4181971776 -0.08155367219 0.85000002 7.543081733e-39
0.4181971776 -0.08317274219 0.85000002 7.818944152e-39
0.4181971776 -0.08479179219 0.85000002 8.187003601e-39
0.4179343276 -0.08547372219 0.84800005 8.186644869e-39
0.4179343276 -0.08708892219 0.84800005 8.186647671e-39
0.4179343276 -0.08870418219 0.84800005 8.27848597e-39
0.4179343276 -0.09031940219 0.84800005 8.462514294e-39
0.4179343276 -0.09193466219 0.84800005 8.646544018e-39
0.4179343276 -0.09354988219 0.84800005 8.831296813e-39
0.4179343276 -0.09516514219 0.84800005 8.922780583e-39
0.4179343276 -0.09678037219 0.84800005 9.106457181e-39
0.4179343276 -0.09839562219 0.84800005 9.291570109e-39
0.4179343276 -0.1000108222 0.84800005 9.567061183e-39
0.4179343276 -0.1016260722 0.84800005 9.752510423e-39
0.4179343276 -0.1032413322 0.84800005 1.002945885e-38
0.4179343276 -0.1048565622 0.84800005 9.937271626e-39
0.4179343276 -0.1064718122 0.84800005 9.937277231e-39
0.4179343276 -0.1080870422 0.84800005 1.021278932e-38
0.4181971776 -0.1106965622 0.85000002 1.048830843e-38
0.4184600376 -0.1133137122 0.85200006 1.048832244e-38
0.4187228876 -0.1159384622 0.85400003 1.048723503e-38
0.4187228876 -0.1175651322 0.85400003 1.057977818e-38
0.4187228876 -0.1191918022 0.85400003 1.058048724e-38
0.4187228876 -0.1208184422 0.85400003 1.085562659e-38
0.4187228876 -0.1224451122 0.85400003 1.113076173e-38
0.4189857476 -0.1250927522 0.85600007 1.113146799e-38
0.4189857476 -0.1267232422 0.85600007 1.104143736e-38
0.4189857476 -0.1283536922 0.85600007 1.104108984e-38
0.4189857476 -0.1299841822 0.85600007 1.094818936e-38
0.4189857476 -0.1316146622 0.85600007 1.103967873e-38
0.4189857476 -0.1332451522 0.85600007 1.122334692e-38
0.4189857476 -0.1348756322 0.85600007 1.09474803e-38
0.4192486076 -0.1375537022 0.85800004 1.076381351e-38
0.4214162276 -0.06576321219 0.86200005 5.793172441e-39
0.4214162276 -0.06740511219 0.86200005 5.332561432e-39
0.4211495576 -0.06816322219 0.86000001 5.793533976e-39
0.4211495576 -0.06980131219 0.86000001 6.253071591e-39
0.4208828876 -0.07054797219 0.85800004 5.794614377e-39
0.4208828876 -0.07218224219 0.85800004 5.335794228e-39
0.4206162276 -0.07291753219 0.85600007 6.070836929e-39
0.4203495576 -0.07364512219 0.85400003 6.895562733e-39
0.4203495576 -0.07527179219 0.85400003 6.894129204e-39
0.4203495576 -0.07689843219 0.85400003 6.985968904e-39
0.4203495576 -0.07852513219 0.85400003 7.170004234e-39
0.4200828976 -0.07923371219 0.85200006 7.355115761e-39
0.4200828976 -0.08085657219 0.85200006 7.35691643e-39
0.4200828976 -0.08247942219 0.85200006 7.357263952e-39
0.4200828976 -0.08410228219 0.85200006 7.633478096e-39
0.4200828976 -0.08572513219 0.85200006 8.001537546e-39
0.4200828976 -0.08734799219 0.85200006 8.00225501e-39
0.4198162176 -0.08802990219 0.85000002 8.094449239e-39
0.4198162176 -0.08964891219 0.85000002 8.095166704e-39
0.4195495576 -0.09031940219 0.84800005 8.095166704e-39
0.4198162176 -0.09288702219 0.85000002 8.371031925e-39
0.4198162176 -0.09450606219 0.85000002 8.647620216e-39
0.4195495576 -0.09516514219 0.84800005 8.739102584e-39
0.4195495576 -0.09678037219 0.84800005 8.831309425e-39
0.4195495576 -0.09839562219 0.84800005 9.108264856e-39
0.4198162176 -0.1009822622 0.85000002 9.383397198e-39
0.4198162176 -0.1026013022 0.85000002 9.568489107e-39
0.4198162176 -0.1042203722 0.85000002 9.844715862e-39
0.4195495576 -0.1048565622 0.84800005 9.662125271e-39
0.4195495576 -0.1064718122 0.84800005 9.56992824e-39
0.4198162176 -0.1090774922 0.85000002 9.937627556e-39
0.4198162176 -0.1106965622 0.85000002 1.030497935e-38
0.4200828976 -0.1133137122 0.85200006 1.030499056e-38
0.4203495576 -0.1159384622 0.85400003 1.030390876e-38
0.4203495576 -0.1175651322 0.85400003 1.030354582e-38
0.4203495576 -0.1191918022 0.85400003 1.030569962e-38
0.4203495576 -0.1208184422 0.85400003 1.058120611e-38
0.4206162276 -0.1234623022 0.85600007 1.094853688e-38
0.4206162276 -0.1250927522 0.85600007 1.094852567e-38
0.4206162276 -0.1267232422 0.85600007 1.104072831e-38
0.4206162276 -0.1283536922 0.85600007 1.094961868e-38
0.4206162276 -0.1299841822 0.85600007 1.094818936e-38
0.4206162276 -0.1316146622 0.85600007 1.085707833e-38
0.4206162276 -0.1332451522 0.85600007 1.076416664e-38
0.4211495576 -0.1369631922 0.86000001 1.067268988e-38
0.4211495576 -0.1386013122 0.86000001 1.067233114e-38
0.4234638476 -0.06707752219 0.86500007 5.700259346e-39
0.4234638476 -0.06872515219 0.86500007 4.87338255e-39
0.4230581276 -0.06904704219 0.86200005 5.517667354e-39
0.4230581276 -0.07068894219 0.86200005 6.069040465e-39
0.4227876476 -0.07143939219 0.86000001 5.976488905e-39
0.4227876476 -0.07307751219 0.86000001 5.883937345e-39
0.4225171776 -0.07381654219 0.85800004 6.434953125e-39
0.4225171776 -0.07545084219 0.85800004 6.986322032e-39
0.4227876476 -0.07799179219 0.86000001 6.985961898e-39
0.4227876476 -0.07962987219 0.86000001 7.079953992e-39
0.4225171776 -0.08035371219 0.85800004 7.355105952e-39
0.4222467076 -0.08106989219 0.85600007 7.630267721e-39
0.4222467076 -0.08270038219 0.85600007 7.447329608e-39
0.4219762176 -0.08340511219 0.85400003 7.35619336e-39
0.4217057476 -0.08410228219 0.85200006 7.448370773e-39
0.4219762176 -0.08665845219 0.85400003 7.540923734e-39
0.4219762176 -0.08828512219 0.85400003 7.633117962e-39
0.4217057476 -0.08897085219 0.85200006 7.817144885e-39
0.4217057476 -0.09059370219 0.85200006 7.819294476e-39
0.4217057476 -0.09221656219 0.85200006 7.91077124e-39
0.4217057476 -0.09383941219 0.85200006 8.095161099e-39
0.4217057476 -0.09546230219 0.85200006 8.280272626e-39
0.4217057476 -0.09708512219 0.85200006 8.556143452e-39
0.4217057476 -0.09870798219 0.85200006 8.923863787e-39
0.4217057476 -0.1003308722 0.85200006 9.107554397e-39
0.4217057476 -0.1019536922 0.85200006 9.290493912e-39
0.4217057476 -0.1035765822 0.85200006 9.474511025e-39
0.4217057476 -0.1051994322 0.85200006 9.658539348e-39
0.4217057476 -0.1068222622 0.85200006 9.661409208e-39
0.4217057476 -0.1084451422 0.85200006 9.753593627e-39
0.4217057476 -0.1100680022 0.85200006 1.002909031e-38
0.4219762176 -0.1126851222 0.85400003 1.030388634e-38
0.4219762176 -0.1143117622 0.85400003 1.048792447e-38
0.4219762176 -0.1159384622 0.85400003 1.06719556e-38
0.4219762176 -0.1175651322 0.85400003 1.039573304e-38
0.4219762176 -0.1191918022 0.85400003 1.021494172e-38
0.4222467076 -0.1218318122 0.85600007 1.030535209e-38
0.4222467076 -0.1234623022 0.85600007 1.048901188e-38
0.4222467076 -0.1250927522 0.85600007 1.058047883e-38
0.4222467076 -0.1267232422 0.85600007 1.076236037e-38
0.4222467076 -0.1283536922 0.85600007 1.085527766e-38
0.4222467076 -0.1299841822 0.85600007 1.104002485e-38
0.4222467076 -0.1316146622 0.85600007 1.085635526e-38
0.4225171776 -0.1342851322 0.85800004 1.058085158e-38
0.4227876476 -0.1369631922 0.86000001 1.048901888e-38
0.4227876476 -0.1386013122 0.86000001 1.048901468e-38
0.4256600276 -0.06882990219 0.86900002 5.699183149e-39
0.4256600276 -0.07048509219 0.86900002 4.506400699e-39
0.4256600276 -0.07214034219 0.86900002 5.242163668e-39
0.4251114676 -0.07202036219 0.86500007 5.976490306e-39
0.4251114676 -0.07366801219 0.86500007 6.159445235e-39
0.4251114676 -0.07531560219 0.86500007 6.434604201e-39
0.4247000376 -0.07561464219 0.86200005 6.801957396e-39
0.4247000376 -0.07725654219 0.86200005 7.169645502e-39
0.4247000376 -0.07889844219 0.86200005 7.169993024e-39
0.4247000376 -0.08054037219 0.86200005 7.170353158e-39
0.4244257476 -0.08126799219 0.86000001 7.538414008e-39
0.4241514576 -0.08198798219 0.85800004 7.997598496e-39
0.4238771776 -0.08270038219 0.85600007 7.63062225e-39
0.4238771776 -0.08433083219 0.85600007 7.355464685e-39
0.4236028976 -0.08503178219 0.85400003 7.172501348e-39
0.4236028976 -0.08665845219 0.85400003 7.080665852e-39
0.4236028976 -0.08828512219 0.85400003 7.356173742e-39
0.4236028976 -0.08991177219 0.85400003 7.634188554e-39
0.4233286176 -0.09059370219 0.85200006 7.635622083e-39
0.4233286176 -0.09221656219 0.85200006 7.727457579e-39
0.4236028976 -0.09479181219 0.85400003 7.819651807e-39
0.4236028976 -0.09641845219 0.85400003 8.004763335e-39
0.4236028976 -0.09804512219 0.85400003 8.465022618e-39
0.4233286176 -0.09870798219 0.85200006 9.015690875e-39
0.4233286176 -0.1003308722 0.85200006 9.107540384e-39
0.4236028976 -0.1029251322 0.85400003 9.290845638e-39
0.4236028976 -0.1045518022 0.85400003 9.382316796e-39
0.4236028976 -0.1061784722 0.85400003 9.475594229e-39
0.4236028976 -0.1078051122 0.85400003 9.660708558e-39
0.4236028976 -0.1094317822 0.85400003 9.936918499e-39
0.4236028976 -0.1110584522 0.85400003 1.012093281e-38
0.4236028976 -0.1126851222 0.85400003 1.030353181e-38
0.4236028976 -0.1143117622 0.85400003 1.06698032e-38
0.4236028976 -0.1159384622 0.85400003 1.103822138e-38
0.4236028976 -0.1175651322 0.85400003 1.05801215e-38
0.4238771776 -0.1202013322 0.85600007 1.012130836e-38
0.4238771776 -0.1218318122 0.85600007 1.012167269e-38
0.4238771776 -0.1234623022 0.85600007 1.012130976e-38
0.4238771776 -0.1250927522 0.85600007 1.030461781e-38
0.4238771776 -0.1267232422 0.85600007 1.048757274e-38
0.4238771776 -0.1283536922 0.85600007 1.08545588e-38
0.4238771776 -0.1299841822 0.85600007 1.122333711e-38
0.4238771776 -0.1316146622 0.85600007 1.085635526e-38
0.4241514576 -0.1342851322 0.85800004 1.048829441e-38
0.4244257476 -0.1369631922 0.86000001 1.039609878e-38
0.4244257476 -0.1386013122 0.86000001 1.030497515e-38
0.4275933676 -0.06970609219 0.87100005 6.625788956e-39
0.4275933676 -0.07136515219 0.87100005 5.51695129e-39
0.4275933676 -0.07302416219 0.87100005 5.792463384e-39
0.4270371776 -0.07290799219 0.86700004 6.159805369e-39
0.4267590876 -0.07366801219 0.86500007 6.158730573e-39
0.4267590876 -0.07531560219 0.86500007 6.066198631e-39
0.4263419376 -0.07561464219 0.86200005 6.067295848e-39
0.4263419376 -0.07725654219 0.86200005 5.975796663e-39
0.4267590876 -0.08025847219 0.86500007 6.343833692e-39
0.4263419376 -0.08054037219 0.86200005 6.714044135e-39
0.4263419376 -0.08218226219 0.86200005 6.98775556e-39
0.4260638376 -0.08290607219 0.86000001 7.262185851e-39
0.4257857476 -0.08362228219 0.85800004 7.171426552e-39
0.4255076676 -0.08433083219 0.85600007 7.171065017e-39
0.4255076676 -0.08596132219 0.85600007 6.805513892e-39
0.4255076676 -0.08759180219 0.85600007 6.437455844e-39
0.4252295576 -0.08828512219 0.85400003 6.897710923e-39
0.4252295576 -0.08991177219 0.85400003 7.359398129e-39
0.4252295576 -0.09153847219 0.85400003 7.45195109e-39
0.4252295576 -0.09316514219 0.85400003 7.545220115e-39
0.4252295576 -0.09479181219 0.85400003 7.72924984e-39
0.4252295576 -0.09641845219 0.85400003 7.821449673e-39
0.4252295576 -0.09804512219 0.85400003 8.555421783e-39
0.4252295576 -0.09967179219 0.85400003 9.381232191e-39
0.4252295576 -0.1012984622 0.85400003 9.198645804e-39
0.4252295576 -0.1029251322 0.85400003 9.016051009e-39
0.4252295576 -0.1045518022 0.85400003 8.832380017e-39
0.4252295576 -0.1061784722 0.85400003 8.651595699e-39
0.4252295576 -0.1078051122 0.85400003 9.017878302e-39
0.4252295576 -0.1094317822 0.85400003 9.477394897e-39
0.4252295576 -0.1110584522 0.85400003 9.660687539e-39
0.4252295576 -0.1126851222 0.85400003 9.935836696e-39
0.4252295576 -0.1143117622 0.85400003 1.011879163e-38
0.4252295576 -0.1159384622 0.85400003 1.030174515e-38
0.4252295576 -0.1175651322 0.85400003 9.843285137e-39
0.4255076676 -0.1202013322 0.85600007 9.477020751e-39
0.4255076676 -0.1218318122 0.85600007 9.567781451e-39
0.4255076676 -0.1234623022 0.85600007 9.750377647e-39
0.4255076676 -0.1250927522 0.85600007 9.936921301e-39
0.4255076676 -0.1267232422 0.85600007 1.021278652e-38
0.4255076676 -0.1283536922 0.85600007 1.039645751e-38
0.4255076676 -0.1299841822 0.85600007 1.06719654e-38
0.4255076676 -0.1316146622 0.85600007 1.021314806e-38
0.4257857476 -0.1342851322 0.85800004 9.844006805e-39
0.4260638376 -0.1369631922 0.86000001 1.002838966e-38
0.4260638376 -0.1386013122 0.86000001 1.012093561e-38
0.4289705076 -0.06882990219 0.86900002 7.46096144e-39
0.4292524176 -0.07136515219 0.87100005 6.534338817e-39
0.4292524176 -0.07302416219 0.87100005 6.432441998e-39
0.4289705076 -0.07379559219 0.86900002 6.432797928e-39
0.4284066976 -0.07366801219 0.86500007 6.065813274e-39
0.4284066976 -0.07531560219 0.86500007 5.791035461e-39
0.4284066976 -0.07696322219 0.86500007 5.332588057e-39
0.4284066976 -0.07861084219 0.86500007 4.873399365e-39
0.4284066976 -0.08025847219 0.86500007 5.517671558e-39
0.4279838376 -0.08054037219 0.86200005 6.253430323e-39
0.4279838376 -0.08218226219 0.86200005 6.437099914e-39
0.4279838376 -0.08382416219 0.86200005 6.620414977e-39
0.4277019376 -0.08454416219 0.86000001 6.80408737e-39
0.4274200376 -0.08525655219 0.85800004 6.987395426e-39
0.4271381376 -0.08596132219 0.85600007 6.43853064e-39
0.4271381376 -0.08759180219 0.85600007 5.887879198e-39
0.4271381376 -0.08922229219 0.85600007 6.43925371e-39
0.4268562276 -0.08991177219 0.85400003 7.082818246e-39
0.4268562276 -0.09153847219 0.85400003 7.268282901e-39
0.4268562276 -0.09316514219 0.85400003 7.452671358e-39
0.4268562276 -0.09479181219 0.85400003 7.545583051e-39
0.4268562276 -0.09641845219 0.85400003 7.729258247e-39
0.4268562276 -0.09804512219 0.85400003 8.738378113e-39
0.4268562276 -0.09967179219 0.85400003 9.748572775e-39
0.4268562276 -0.1012984622 0.85400003 9.288323301e-39
0.4268562276 -0.1029251322 0.85400003 8.831301017e-39
0.4268562276 -0.1045518022 0.85400003 8.374277332e-39
0.4268562276 -0.1061784722 0.85400003 7.915461386e-39
0.4268562276 -0.1078051122 0.85400003 8.46719463e-39
0.4268562276 -0.1094317822 0.85400003 9.017485939e-39
0.4268562276 -0.1110584522 0.85400003 9.291913427e-39
0.4268562276 -0.1126851222 0.85400003 9.659256813e-39
0.4268562276 -0.1143117622 0.85400003 9.659618348e-39
0.4271381376 -0.1169403922 0.85600007 9.658902285e-39
0.4271381376 -0.1185708722 0.85600007 9.199727607e-39
0.4271381376 -0.1202013322 0.85600007 8.832742953e-39
0.4271381376 -0.1218318122 0.85600007 9.108606773e-39
0.4271381376 -0.1234623022 0.85600007 9.476673229e-39
0.4271381376 -0.1250927522 0.85600007 9.661068692e-39
0.4271381376 -0.1267232422 0.85600007 9.936209442e-39
0.4271381376 -0.1283536922 0.85600007 1.00276806e-38
0.4271381376 -0.1299841822 0.85600007 1.012024057e-38
0.4274200376 -0.1326508322 0.85800004 9.661787558e-39
0.4277019376 -0.1353251122 0.86000001 9.293721102e-39
0.4279838376 -0.1380070522 0.86200005 9.660697348e-39
0.4279838376 -0.1396489522 0.86200005 1.002839106e-38
0.4306257476 -0.06882990219 0.86900002 8.473349133e-39
0.4309114676 -0.07136515219 0.87100005 8.929258786e-39
0.4311971776 -0.07390798219 0.87300003 7.450524569e-39
0.4309114676 -0.07468323219 0.87100005 5.972182715e-39
0.4303400376 -0.07455940219 0.86700004 6.064731472e-39
0.4306257476 -0.07710609219 0.86900002 6.159798362e-39
0.4303400376 -0.07786227219 0.86700004 5.608070723e-39
0.4303400376 -0.07951368219 0.86700004 5.14853451e-39
0.4300543276 -0.08025847219 0.86500007 5.609505653e-39
0.4300543276 -0.08190609219 0.86500007 5.978281166e-39
0.4296257476 -0.08218226219 0.86200005 6.070116662e-39
0.4296257476 -0.08382416219 0.86200005 6.162315094e-39
0.4296257476 -0.08546609219 0.86200005 6.437108322e-39
0.4293400276 -0.08618227219 0.86000001 6.803727236e-39
0.4293400276 -0.08782033219 0.86000001 6.71403853e-39
0.4290543276 -0.08852512219 0.85800004 6.716195128e-39
0.4290543276 -0.09015939219 0.85800004 6.807317363e-39
0.4287686076 -0.09085277219 0.85600007 6.898433993e-39
0.4287686076 -0.09248323219 0.85600007 6.990985553e-39
0.4287686076 -0.09411371219 0.85600007 6.991703018e-39
0.4287686076 -0.09574417219 0.85600007 7.177527806e-39
0.4287686076 -0.09737465219 0.85600007 7.453755963e-39
0.4287686076 -0.09900514219 0.85600007 8.187728073e-39
0.4287686076 -0.1006356222 0.85600007 9.013888806e-39
0.4287686076 -0.1022660822 0.85600007 8.830217813e-39
0.4287686076 -0.1038965622 0.85600007 8.646551025e-39
0.4287686076 -0.1055270522 0.85600007 8.462884236e-39
0.4287686076 -0.1071575322 0.85600007 8.279200632e-39
0.4287686076 -0.1087880222 0.85600007 8.649401266e-39
0.4287686076 -0.1104184522 0.85600007 9.108591358e-39
0.4287686076 -0.1120489322 0.85600007 9.199363269e-39
0.4287686076 -0.1136794222 0.85600007 9.382678331e-39
0.4287686076 -0.1153099022 0.85600007 9.475952961e-39
0.4287686076 -0.1169403922 0.85600007 9.567073795e-39
0.4287686076 -0.1185708722 0.85600007 9.291571511e-39
0.4287686076 -0.1202013322 0.85600007 9.016060818e-39
0.4287686076 -0.1218318122 0.85600007 9.20008774e-39
0.4287686076 -0.1234623022 0.85600007 9.385204873e-39
0.4287686076 -0.1250927522 0.85600007 9.660722571e-39
0.4290543276 -0.1277479922 0.85800004 9.935857716e-39
0.4287686076 -0.1283536922 0.85600007 1.021063553e-38
0.4290543276 -0.1310165622 0.85800004 1.057763139e-38
0.4290543276 -0.1326508322 0.85800004 1.002770722e-38
0.4293400276 -0.1353251122 0.86000001 9.569597534e-39
0.4296257476 -0.1380070522 0.86200005 9.751825189e-39
0.4296257476 -0.1396489522 0.86200005 1.002696594e-38
0.4325705276 -0.07302416219 0.87100005 8.382203076e-39
0.4325705276 -0.07468323219 0.87100005 5.523074965e-39
0.4325705276 -0.07634226219 0.87100005 5.971819778e-39
0.4322809776 -0.07710609219 0.86900002 6.524627819e-39
0.4322809776 -0.07876129219 0.86900002 5.975770039e-39
0.4322809776 -0.08041654219 0.86900002 5.51695129e-39
0.4319914676 -0.08116511219 0.86700004 5.609504251e-39
0.4317019476 -0.08190609219 0.86500007 5.793892709e-39
0.4317019476 -0.08355371219 0.86500007 5.794968906e-39
0.4317019476 -0.08520133219 0.86500007 5.794615779e-39
0.4317019476 -0.08684895219 0.86500007 6.16196477e-39
0.4312676476 -0.08710799219 0.86200005 6.619701716e-39
0.4312676476 -0.08874989219 0.86200005 7.081386119e-39
0.4312676476 -0.09039179219 0.86200005 7.631688638e-39
0.4312676476 -0.09203372219 0.86200005 7.172159431e-39
0.4309781276 -0.09273461219 0.86000001 6.805527905e-39
0.4306886076 -0.09342799219 0.85800004 6.714763001e-39
0.4309781276 -0.09601081219 0.86000001 6.623642167e-39
0.4306886076 -0.09669656219 0.85800004 6.901299649e-39
0.4306886076 -0.09833086219 0.85800004 7.175732742e-39
0.4306886076 -0.09996510219 0.85800004 7.726032458e-39
0.4303990876 -0.1006356222 0.85600007 8.277765703e-39
0.4303990876 -0.1022660822 0.85600007 8.370680199e-39
0.4303990876 -0.1038965622 0.85600007 8.462875829e-39
0.4303990876 -0.1055270522 0.85600007 8.55507286e-39
0.4303990876 -0.1071575322 0.85600007 8.646901349e-39
0.4303990876 -0.1087880222 0.85600007 8.923837162e-39
0.4303990876 -0.1104184522 0.85600007 9.198993326e-39
0.4303990876 -0.1120489322 0.85600007 9.106807505e-39
0.4303990876 -0.1136794222 0.85600007 9.107173244e-39
0.4303990876 -0.1153099022 0.85600007 9.292286173e-39
0.4303990876 -0.1169403922 0.85600007 9.5681584e-39
0.4303990876 -0.1185708722 0.85600007 9.385211879e-39
0.4303990876 -0.1202013322 0.85600007 9.290855447e-39
0.4303990876 -0.1218318122 0.85600007 9.291923236e-39
0.4303990876 -0.1234623022 0.85600007 9.292644905e-39
0.4306886076 -0.1261137222 0.85800004 9.660707157e-39
0.4306886076 -0.1277479922 0.85800004 1.002696594e-38
0.4306886076 -0.1293822622 0.85800004 1.048506022e-38
0.4306886076 -0.1310165622 0.85800004 1.103643753e-38
0.4309781276 -0.1336870022 0.86000001 1.039359606e-38
0.4312676476 -0.1363651522 0.86200005 9.842939016e-39
0.4312676476 -0.1380070522 0.86200005 9.935130442e-39
0.4312676476 -0.1396489522 0.86200005 1.002624567e-38
0.4342295576 -0.07302416219 0.87100005 9.949198077e-39
0.4342295576 -0.07468323219 0.87100005 9.022894951e-39
0.4342295576 -0.07634226219 0.87100005 7.355450672e-39
0.4339362276 -0.07710609219 0.86900002 5.696314691e-39
0.4342295576 -0.07966036219 0.87100005 5.698109755e-39
0.4342295576 -0.08131943219 0.87100005 5.793173842e-39
0.4336428876 -0.08116511219 0.86700004 5.517310023e-39
0.4336428876 -0.08281655219 0.86700004 5.33363903e-39
0.4336428876 -0.08446798219 0.86700004 5.150326771e-39
0.4336428876 -0.08611939219 0.86700004 5.058858415e-39
0.4333495576 -0.08684895219 0.86500007 5.609521067e-39
0.4333495576 -0.08849657219 0.86500007 6.16052984e-39
0.4333495576 -0.09014416219 0.86500007 6.526432691e-39
0.4333495576 -0.09179181219 0.86500007 6.892708288e-39
0.4333495576 -0.09343944219 0.86500007 6.711918365e-39
0.4333495576 -0.09508703219 0.86500007 6.527876029e-39
0.4333495576 -0.09673468219 0.86500007 6.53109341e-39
0.4329095576 -0.09695942219 0.86200005 6.623282033e-39
0.4329095576 -0.09860132219 0.86200005 6.898425585e-39
0.4329095576 -0.1002432222 0.86200005 7.265768971e-39
0.4326162276 -0.1009250922 0.86000001 7.632755026e-39
0.4323228976 -0.1015994022 0.85800004 8.000102616e-39
0.4323228976 -0.1032337022 0.85800004 8.091943717e-39
0.4323228976 -0.1048679722 0.85800004 8.275973442e-39
0.4320295476 -0.1055270522 0.85600007 8.370678797e-39
0.4320295476 -0.1071575322 0.85600007 8.463949223e-39
0.4320295476 -0.1087880222 0.85600007 8.923126704e-39
0.4320295476 -0.1104184522 0.85600007 9.382306987e-39
0.4320295476 -0.1120489322 0.85600007 9.107163435e-39
0.4320295476 -0.1136794222 0.85600007 8.923860984e-39
0.4320295476 -0.1153099022 0.85600007 8.92315473e-39
0.4323228976 -0.1179422522 0.85800004 8.922805807e-39
0.4323228976 -0.1195765522 0.85800004 9.014652513e-39
0.4323228976 -0.1212108522 0.85800004 9.106832729e-39
0.4323228976 -0.1228451222 0.85800004 9.19829548e-39
0.4323228976 -0.1244794222 0.85800004 9.289768039e-39
0.4323228976 -0.1261137222 0.85800004 9.474152293e-39
0.4323228976 -0.1277479922 0.85800004 9.750732176e-39
0.4323228976 -0.1293822622 0.85800004 1.002623586e-38
0.4326162276 -0.1320489122 0.86000001 1.039357785e-38
0.4329095576 -0.1347232522 0.86200005 1.002623726e-38
0.4329095576 -0.1363651522 0.86200005 9.750732176e-39
0.4333495576 -0.1395727822 0.86500007 9.842211742e-39
0.4333495576 -0.1412203722 0.86500007 9.841855812e-39
0.4358886076 -0.07966036219 0.87100005 5.511567502e-39
0.4364828976 -0.08312512219 0.87500006 6.064015408e-39
0.4361857576 -0.08388511219 0.87300003 5.422603266e-39
0.4352943176 -0.08281655219 0.86700004 4.873742684e-39
0.4352943176 -0.08446798219 0.86700004 4.598236195e-39
0.4352943176 -0.08611939219 0.86700004 4.414928139e-39
0.4352943176 -0.08777083219 0.86700004 5.058139549e-39
0.4349971876 -0.08849657219 0.86500007 5.700627888e-39
0.4349971876 -0.09014416219 0.86500007 5.976131574e-39
0.4349971876 -0.09179181219 0.86500007 6.251645069e-39
0.4349971876 -0.09343944219 0.86500007 6.251652075e-39
0.4349971876 -0.09508703219 0.86500007 6.345274227e-39
0.4349971876 -0.09673468219 0.86500007 6.439613843e-39
0.4349971876 -0.09838227219 0.86500007 6.622924702e-39
0.4345514576 -0.09860132219 0.86200005 6.988830356e-39
0.4345514576 -0.1002432222 0.86200005 7.356891207e-39
0.4342543276 -0.1009250922 0.86000001 7.544150924e-39
0.4342543276 -0.1025632122 0.86000001 7.72495486e-39
0.4342543276 -0.1042012922 0.86000001 7.908628655e-39
0.4339571776 -0.1048679722 0.85800004 8.185212742e-39
0.4339571776 -0.1065022722 0.85800004 8.27848597e-39
0.4339571776 -0.1081365722 0.85800004 8.370688607e-39
0.4339571776 -0.1097708422 0.85800004 9.013905621e-39
0.4339571776 -0.1114051422 0.85800004 9.656747088e-39
0.4339571776 -0.1130394122 0.85800004 9.197564002e-39
0.4339571776 -0.1146736822 0.85800004 8.738031992e-39
0.4339571776 -0.1163079822 0.85800004 8.554365204e-39
0.4339571776 -0.1179422522 0.85800004 8.370342486e-39
0.4339571776 -0.1195765522 0.85800004 8.645855981e-39
0.4339571776 -0.1212108522 0.85800004 9.014624487e-39
0.4339571776 -0.1228451222 0.85800004 9.198647205e-39
0.4339571776 -0.1244794222 0.85800004 9.382313994e-39
0.4339571776 -0.1261137222 0.85800004 9.382311191e-39
0.4339571776 -0.1277479922 0.85800004 9.475221483e-39
0.4342543276 -0.1304108322 0.86000001 9.567771642e-39
0.4342543276 -0.1320489122 0.86000001 9.751451042e-39
0.4345514576 -0.1347232522 0.86200005 9.751819583e-39
0.4345514576 -0.1363651522 0.86200005 9.749664386e-39
0.4349971876 -0.1395727822 0.86500007 9.746432992e-39
0.4349971876 -0.1412203722 0.86500007 9.748942718e-39
0.4381495676 -0.08312512219 0.87500006 5.145301714e-39
0.4378486076 -0.08388511219 0.87300003 5.145303116e-39
0.4369457576 -0.08281655219 0.86700004 5.240725936e-39
0.4369457576 -0.08446798219 0.86700004 5.056696211e-39
0.4369457576 -0.08611939219 0.86700004 4.873025219e-39
0.4369457576 -0.08777083219 0.86700004 5.149249172e-39
0.4366447976 -0.08849657219 0.86500007 5.516949889e-39
0.4366447976 -0.09014416219 0.86500007 5.700979614e-39
0.4366447976 -0.09179181219 0.86500007 5.97720637e-39
0.4366447976 -0.09343944219 0.86500007 5.794614377e-39
0.4366447976 -0.09508703219 0.86500007 5.703853677e-39
0.4366447976 -0.09673468219 0.86500007 5.887523268e-39
0.4366447976 -0.09838227219 0.86500007 6.16338989e-39
0.4366447976 -0.1000298922 0.86500007 6.530015811e-39
0.4361933876 -0.1002432222 0.86200005 6.98883456e-39
0.4361933876 -0.1018851522 0.86200005 7.173224418e-39
0.4361933876 -0.1035270522 0.86200005 7.449807104e-39
0.4361933876 -0.1051689422 0.86200005 7.633119364e-39
0.4358924076 -0.1058394122 0.86000001 7.910782451e-39
0.4358924076 -0.1074774922 0.86000001 8.001904686e-39
0.4358924076 -0.1091155822 0.86000001 8.093399666e-39
0.4358924076 -0.1107536922 0.86000001 8.55331423e-39
0.4358924076 -0.1123917822 0.86000001 8.921356864e-39
0.4358924076 -0.1140298922 0.86000001 8.83058075e-39
0.4355914676 -0.1146736822 0.85800004 8.647625821e-39
0.4358924076 -0.1173060622 0.86000001 8.555071458e-39
0.4358924076 -0.1189441722 0.86000001 8.4625213e-39
0.4358924076 -0.1205822622 0.86000001 8.646196496e-39
0.4355914676 -0.1212108522 0.85800004 8.739105387e-39
0.4355914676 -0.1228451222 0.85800004 8.830939482e-39
0.4358924076 -0.1254965422 0.86000001 9.014966404e-39
0.4358924076 -0.1271346622 0.86000001 9.015323735e-39
0.4358924076 -0.1287727122 0.86000001 9.107875295e-39
0.4361933876 -0.1314393922 0.86200005 9.200068122e-39
0.4361933876 -0.1330813222 0.86200005 9.384114662e-39
0.4361933876 -0.1347232522 0.86200005 9.383772746e-39
0.4366447976 -0.1379251522 0.86500007 9.473090108e-39
0.4366447976 -0.1395727822 0.86500007 9.472724369e-39
0.4366447976 -0.1412203722 0.86500007 9.564552859e-39
0.4385971776 -0.08281655219 0.86700004 5.696673424e-39
0.4385971776 -0.08446798219 0.86700004 5.515154826e-39
0.4385971776 -0.08611939219 0.86700004 5.331842566e-39
0.4389019376 -0.08869273219 0.86900002 5.332560031e-39
0.4385971776 -0.08942229219 0.86700004 5.332201298e-39
0.4385971776 -0.09107370219 0.86700004 5.515514959e-39
0.4385971776 -0.09272513219 0.86700004 5.701341149e-39
0.4392067076 -0.09625084219 0.87100005 5.336154361e-39
0.4392067076 -0.09790987219 0.87100005 5.06064507e-39
0.4385971776 -0.09767941219 0.86700004 5.336507488e-39
0.4385971776 -0.09933085219 0.86700004 5.704571142e-39
0.4382924176 -0.1000298922 0.86500007 6.164470291e-39
0.4382924176 -0.1016775122 0.86500007 6.62328904e-39
