# .PCD v0.7 - Point Cloud Data file format
VERSION 0.7
FIELDS x y z rgb
SIZE 4 4 4 4
TYPE F F F F
COUNT 1 1 1 1
WIDTH 875
HEIGHT 1
VIEWPOINT 0 0 0 1 0 0 0
POINTS 875
DATA ascii
-0.4705001897 -0.13072 0.7876521201 5.428760572e-39
-0.4645002097 -0.13168001 0.7890444901 5.428044508e-39
-0.4645002097 -0.13168001 0.7874768901 5.522379921e-39
-0.4525001797 -0.1336 0.7917607001 5.708910963e-39
-0.4505002097 -0.13392 0.7911416201 5.893300822e-39
-0.4485001697 -0.13424002 0.7905149901 6.353197168e-39
-0.4485001697 -0.13424002 0.7889169001 6.811658586e-39
-0.4485001697 -0.13424002 0.7873187801 6.810942522e-39
-0.4835001997 -0.12710857 0.8501530501 1.206400829e-38
-0.4855001697 -0.12679239 0.8474673801 1.243097333e-38
-0.4855001697 -0.12679239 0.8459397401 1.243023905e-38
-0.4875002097 -0.1264762 0.8432654601 1.252133886e-38
-0.4895001797 -0.12616 0.8405987801 1.206214316e-38
-0.4895001797 -0.12616 0.8390787701 1.160295307e-38
-0.4895001797 -0.12616 0.8375587901 1.105121002e-38
-0.4905001697 -0.12600191 0.8354730801 1.049946696e-38
-0.4945001797 -0.12536952 0.8316997501 9.20981135e-39
-0.4945001797 -0.12536952 0.8301892801 7.920503258e-39
-0.4985001897 -0.12473714 0.8264387701 8.287821421e-39
-0.4985001897 -0.12473714 0.8249359601 8.652702725e-39
-0.4985001897 -0.12473714 0.8234330901 9.111573321e-39
-0.4995001697 -0.12457906 0.8213759501 9.57072698e-39
-0.5035001797 -0.12394667 0.8176654801 1.012602233e-38
-0.5035001797 -0.12394667 0.8161721101 1.068136952e-38
-0.5055001597 -0.12363049 0.8135816601 1.09576229e-38
-0.5055001597 -0.12363049 0.8120921401 1.132567674e-38
-0.5055001597 -0.12363049 0.8106026201 1.141679057e-38
-0.5055001597 -0.12363049 0.8091131001 1.141603807e-38
-0.5035001797 -0.12394667 0.8087054701 1.095180471e-38
-0.5055001597 -0.12363049 0.8061340301 1.039575266e-38
-0.5055001597 -0.12363049 0.8046445101 9.385904121e-39
-0.5055001597 -0.12363049 0.8031549901 8.376417115e-39
-0.5055001597 -0.12363049 0.8016654701 7.36262532e-39
-0.5035001797 -0.12394667 0.8012387901 6.440688639e-39
-0.5015002097 -0.12426285 0.8008045101 5.886452676e-39
-0.4995001697 -0.12457906 0.8003626101 5.332586655e-39
-0.4995001697 -0.12457906 0.7988616401 4.596485973e-39
-0.4895001797 -0.12616 0.8025987901 3.9525585e-39
-0.4895001797 -0.12616 0.8010787801 3.861078934e-39
-0.4875002097 -0.1264762 0.8005987901 3.769614782e-39
-0.4875002097 -0.1264762 0.7990749701 4.412118536e-39
-0.4875002097 -0.1264762 0.7975511701 5.05496841e-39
-0.4875002097 -0.1264762 0.7960273501 5.521682074e-39
-0.4875002097 -0.1264762 0.7945035301 5.988739056e-39
-0.4875002097 -0.1264762 0.7929797401 5.986932782e-39
-0.4855001697 -0.12679239 0.7924731001 5.985133515e-39
-0.4855001697 -0.12679239 0.7909454601 5.708546626e-39
-0.4815001697 -0.12742476 0.7914369001 5.524151162e-39
-0.4795001897 -0.12774095 0.7909073701 5.432668793e-39
-0.4775001597 -0.12805715 0.7903702401 5.338364209e-39
-0.4755001797 -0.12837334 0.7898254601 5.520642311e-39
-0.4735002097 -0.12868953 0.7892730701 5.610660323e-39
-0.4735002097 -0.12868953 0.7877225801 5.425530579e-39
-0.4735002097 -0.12868953 0.7861721101 5.332617484e-39
-0.4665001797 -0.12979619 0.7880616401 5.243291713e-39
-0.4665001797 -0.12979619 0.7864978501 5.244352496e-39
-0.4605001997 -0.13074476 0.7878597301 5.337608909e-39
-0.4565001897 -0.13137715 0.7882273701 5.523070761e-39
-0.4505002097 -0.13232571 0.7895473701 5.983680369e-39
-0.4505002097 -0.13232571 0.7879530701 6.444648709e-39
-0.4505002097 -0.13232571 0.7863587601 6.533971677e-39
-0.4505002097 -0.13232571 0.7847644901 6.525429361e-39
-0.4795001897 -0.12620191 0.8524692501 1.187924008e-38
-0.4855001697 -0.12526478 0.8474673801 1.224621213e-38
-0.4855001697 -0.12526478 0.8459397401 1.233803501e-38
-0.4855001697 -0.12526478 0.8444121401 1.242949496e-38
-0.4875002097 -0.12495238 0.8417416401 1.187918263e-38
-0.4875002097 -0.12495238 0.8402178201 1.141927227e-38
-0.4895001797 -0.12464001 0.8375587901 1.068457429e-38
-0.4895001797 -0.12464001 0.8360387901 1.00406342e-38
-0.4905001697 -0.12448382 0.8339550101 9.212307063e-39
-0.4905001697 -0.12448382 0.8324369101 8.380396802e-39
-0.4925001997 -0.12417143 0.8297988101 7.644268094e-39
-0.4945001797 -0.12385905 0.8271683301 6.998567979e-39
-0.4965002097 -0.12354667 0.8245454301 7.271582959e-39
-0.4995001697 -0.1230781 0.8213759501 7.638917937e-39
-0.5035001797 -0.12245334 0.8176654801 8.373953632e-39
-0.5055001597 -0.12214097 0.8150711801 9.110445276e-39
-0.5055001597 -0.12214097 0.8135816601 9.47995507e-39
-0.5055001597 -0.12214097 0.8120921401 9.938764009e-39
-0.5055001597 -0.12214097 0.8106026201 1.003023096e-38
-0.5055001597 -0.12214097 0.8091131001 1.012169652e-38
-0.5055001597 -0.12214097 0.8076235501 9.478478101e-39
-0.5055001597 -0.12214097 0.8061340301 8.925305723e-39
-0.5035001797 -0.12245334 0.8057188001 8.003716565e-39
-0.5035001797 -0.12245334 0.8042254601 7.085717533e-39
-0.5055001597 -0.12214097 0.8016654701 6.43138682e-39
-0.5015002097 -0.12276572 0.8023016301 5.881441633e-39
-0.4985001897 -0.12323429 0.8023930701 5.055991358e-39
-0.4965002097 -0.12354667 0.8019454701 4.229839033e-39
-0.4875002097 -0.12495238 0.8051702001 3.583411643e-39
-0.4895001797 -0.12464001 0.8025987901 3.032394463e-39
-0.4875002097 -0.12495238 0.8021225801 3.308256881e-39
-0.4875002097 -0.12495238 0.8005987901 3.677402337e-39
-0.4875002097 -0.12495238 0.7990749701 3.953994831e-39
-0.4875002097 -0.12495238 0.7975511701 4.228077601e-39
-0.4875002097 -0.12495238 0.7960273501 4.593277e-39
-0.4875002097 -0.12495238 0.7945035301 5.058901855e-39
-0.4855001697 -0.12526478 0.7940007001 5.249020221e-39
-0.4855001697 -0.12526478 0.7924731001 5.432688411e-39
-0.4835001997 -0.12557714 0.7919587701 5.341208845e-39
-0.4815001697 -0.12588952 0.7914369001 5.340843106e-39
-0.4795001897 -0.12620191 0.7909073701 5.157165107e-39
-0.4775001597 -0.1265143 0.7903702401 5.061768912e-39
-0.4755001797 -0.12682666 0.7898254601 5.15183737e-39
-0.4735002097 -0.12713905 0.7892730701 5.333704892e-39
-0.4735002097 -0.12713905 0.7877225801 5.240423255e-39
-0.4735002097 -0.12713905 0.7861721101 5.240416249e-39
-0.4685001497 -0.12792 0.7870788201 5.058533313e-39
-0.4645002097 -0.12854476 0.7874768901 4.967055148e-39
-0.4605001997 -0.12916952 0.7878597301 5.059608109e-39
-0.4585001597 -0.12948191 0.7872559601 5.244355299e-39
-0.4525001797 -0.13041905 0.7885797501 5.704610378e-39
-0.4525001797 -0.13041905 0.7869892601 6.164508126e-39
-0.4525001797 -0.13041905 0.7853988001 6.257424024e-39
-0.4505002097 -0.13073143 0.7847644901 6.344619821e-39
-0.4505002097 -0.13073143 0.7831702101 8.655957941e-39
-0.4815001697 -0.12435429 0.8513112001 1.188029666e-38
-0.4835001997 -0.12404571 0.8486216301 1.224619671e-38
-0.4855001697 -0.12373715 0.8459397401 1.233766787e-38
-0.4855001697 -0.12373715 0.8444121401 1.252132345e-38
-0.4855001697 -0.12373715 0.8428845001 1.178626533e-38
-0.4875002097 -0.12342858 0.8402178201 1.105120441e-38
-0.4875002097 -0.12342858 0.8386940201 1.050017462e-38
-0.4895001797 -0.12312 0.8360387901 9.949144828e-39
-0.4895001797 -0.12312 0.8345187801 8.935710364e-39
-0.4895001797 -0.12312 0.8329987701 8.014131015e-39
-0.4875002097 -0.12342858 0.8325987601 6.905652082e-39
-0.4905001697 -0.12296572 0.8294007101 5.887196765e-39
-0.4925001997 -0.12265715 0.8267702001 6.53218362e-39
-0.4985001897 -0.12173144 0.8219302201 7.177194297e-39
-0.5035001797 -0.12096 0.8176654801 7.1793565e-39
-0.5035001797 -0.12096 0.8161721101 7.273342989e-39
-0.5055001597 -0.12065144 0.8135816601 7.458448911e-39
-0.5055001597 -0.12065144 0.8120921401 7.735735049e-39
-0.5055001597 -0.12065144 0.8106026201 7.916880901e-39
-0.5055001597 -0.12065144 0.8091131001 8.189887473e-39
-0.5035001797 -0.12096 0.8087054701 7.822556699e-39
-0.5035001797 -0.12096 0.8072121301 7.455218918e-39
-0.5035001797 -0.12096 0.8057188001 6.900622821e-39
-0.5035001797 -0.12096 0.8042254601 6.437866424e-39
-0.5035001797 -0.12096 0.8027321301 5.789645373e-39
-0.5015002097 -0.12126857 0.8023016301 5.053864187e-39
-0.4985001897 -0.12173144 0.8023930701 4.505342719e-39
-0.4945001797 -0.12234858 0.8030007101 3.953969608e-39
-0.4895001797 -0.12312 0.8041188001 3.033460851e-39
-0.4895001797 -0.12312 0.8025987901 2.206219717e-39
-0.4875002097 -0.12342858 0.8021225801 2.941616947e-39
-0.4875002097 -0.12342858 0.8005987901 3.67738412e-39
-0.4875002097 -0.12342858 0.7990749701 3.860703386e-39
-0.4875002097 -0.12342858 0.7975511701 4.135869359e-39
-0.4875002097 -0.12342858 0.7960273501 4.411036733e-39
-0.4855001697 -0.12373715 0.7955283101 4.686176082e-39
-0.4855001697 -0.12373715 0.7940007001 4.969926409e-39
-0.4835001997 -0.12404571 0.7934901901 5.246866426e-39
-0.4835001997 -0.12404571 0.7919587701 5.154313465e-39
-0.4795001897 -0.12466287 0.7924464201 4.9699166e-39
-0.4795001897 -0.12466287 0.7909073701 4.785879869e-39
-0.4775001597 -0.12497144 0.7903702401 4.601861354e-39
-0.4755001797 -0.12528001 0.7898254601 4.783392564e-39
-0.4735002097 -0.12558857 0.7892730701 5.056390728e-39
-0.4735002097 -0.12558857 0.7877225801 4.965275499e-39
-0.4735002097 -0.12558857 0.7861721101 4.963469226e-39
-0.4665001797 -0.12666857 0.7880616401 4.780145755e-39
-0.4645002097 -0.12697715 0.7874768901 4.689041737e-39
-0.4605001997 -0.12759428 0.7878597301 4.782684908e-39
-0.4585001597 -0.12790287 0.7872559601 4.875958136e-39
-0.4565001897 -0.12821144 0.7866445101 5.243663057e-39
-0.4565001897 -0.12821144 0.7850616501 5.611373584e-39
-0.4565001897 -0.12821144 0.7834787801 5.888324811e-39
-0.4505002097 -0.12913714 0.7847644901 6.072334917e-39
-0.4485001697 -0.12944573 0.7841226001 7.365547027e-39
-0.4485001697 -0.12944573 0.7825245101 8.653071267e-39
-0.4755001797 -0.12373334 0.8578787901 1.124138444e-38
-0.4775001597 -0.12342858 0.8551702401 1.16072957e-38
-0.4795001897 -0.12312381 0.8524692501 1.197320695e-38
-0.4815001697 -0.12281905 0.8497759601 1.233623714e-38
-0.4815001697 -0.12281905 0.8482407201 1.24277069e-38
-0.4835001997 -0.12251429 0.8455588101 1.261135687e-38
-0.4835001997 -0.12251429 0.8440273601 1.16011468e-38
-0.4875002097 -0.12190476 0.8402178201 1.068385682e-38
-0.4875002097 -0.12190476 0.8386940201 1.022466813e-38
-0.4875002097 -0.12190476 0.8371702001 9.85517095e-39
-0.4875002097 -0.12190476 0.8356464101 8.74202289e-39
-0.4875002097 -0.12190476 0.8341225901 7.638197669e-39
-0.4855001697 -0.12220953 0.8337187901 6.259224692e-39
-0.4875002097 -0.12190476 0.8310749701 4.878095117e-39
-0.4905001697 -0.12144762 0.8278826101 5.789265621e-39
-0.4945001797 -0.1208381 0.8241473601 6.710480633e-39
-0.4995001697 -0.1200762 0.8198749901 6.070850942e-39
-0.5035001797 -0.11946667 0.8161721101 5.51841845e-39
-0.5035001797 -0.11946667 0.8146787801 5.517356266e-39
-0.5035001797 -0.11946667 0.8131854701 5.515201069e-39
-0.5055001597 -0.11916191 0.8106026201 5.880389258e-39
-0.5035001797 -0.11946667 0.8101988001 6.24916477e-39
-0.5035001797 -0.11946667 0.8087054701 6.06728744e-39
-0.5035001797 -0.11946667 0.8072121301 5.975454747e-39
-0.5035001797 -0.11946667 0.8057188001 5.883982187e-39
-0.5035001797 -0.11946667 0.8042254601 5.883264722e-39
-0.5035001797 -0.11946667 0.8027321301 5.056386524e-39
-0.4995001697 -0.1200762 0.8033645301 4.319177415e-39
-0.4965002097 -0.12053333 0.8034520901 3.955050009e-39
-0.4905001697 -0.12144762 0.8051111901 3.678100183e-39
-0.4895001797 -0.12160001 0.8041188001 2.483514262e-39
-0.4895001797 -0.12160001 0.8025987901 1.381128174e-39
-0.4875002097 -0.12190476 0.8021225801 2.483151326e-39
-0.4875002097 -0.12190476 0.8005987901 3.677021183e-39
-0.4875002097 -0.12190476 0.7990749701 3.861057915e-39
-0.4875002097 -0.12190476 0.7975511701 4.135862353e-39
-0.4875002097 -0.12190476 0.7960273501 4.229505524e-39
-0.4855001697 -0.12220953 0.7955283101 4.411018516e-39
-0.4855001697 -0.12220953 0.7940007001 4.783018417e-39
-0.4835001997 -0.12251429 0.7934901901 5.15179393e-39
-0.4815001697 -0.12281905 0.7929721401 4.877722371e-39
-0.4795001897 -0.12312381 0.7924464201 4.692612245e-39
-0.4775001597 -0.12342858 0.7919130801 4.415666623e-39
-0.4755001797 -0.12373334 0.7913721401 4.139808409e-39
-0.4755001797 -0.12373334 0.7898254601 4.414964573e-39
-0.4735002097 -0.1240381 0.7892730701 4.781591895e-39
-0.4735002097 -0.1240381 0.7877225801 4.781954832e-39
-0.4705001897 -0.12449524 0.7876521201 4.781227558e-39
-0.4665001797 -0.12510476 0.7880616401 4.596829291e-39
-0.4645002097 -0.12540953 0.7874768901 4.413532446e-39
-0.4625001697 -0.12571429 0.7868845001 4.506100821e-39
-0.4605001997 -0.12601906 0.7862844901 4.599729979e-39
-0.4585001597 -0.12632382 0.7856768801 4.876314066e-39
-0.4565001897 -0.12662858 0.7850616501 5.15218209e-39
-0.4525001797 -0.12723809 0.7853988001 5.520961807e-39
-0.4505002097 -0.12754285 0.7847644901 5.889370179e-39
-0.4485001697 -0.12784763 0.7841226001 6.075542489e-39
-0.4485001697 -0.12784763 0.7825245101 6.352858054e-39
-0.4485001697 -0.12784763 0.7809263901 6.906040241e-39
-0.4485001697 -0.12784763 0.7793283301 7.462798542e-39
-0.4755001797 -0.12218667 0.8594254701 1.105842811e-38
-0.4775001597 -0.12188572 0.8567131001 1.14246981e-38
-0.4795001897 -0.12158477 0.8540083101 1.169733753e-38
-0.4795001897 -0.12158477 0.8524692501 1.224799458e-38
-0.4795001897 -0.12158477 0.8509302001 1.279397689e-38
-0.4815001697 -0.12128381 0.8482407201 1.270321059e-38
-0.4815001697 -0.12128381 0.8467054801 1.270426156e-38
-0.4835001997 -0.12098286 0.8440273601 1.18780756e-38
-0.4855001697 -0.1206819 0.8413569201 1.114410349e-38
-0.4855001697 -0.1206819 0.8398292801 1.086679914e-38
-0.4855001697 -0.1206819 0.8383016501 1.058807527e-38
-0.4855001697 -0.1206819 0.8367740401 9.940217155e-39
-0.4835001997 -0.12098286 0.8363702201 9.289461155e-39
-0.4835001997 -0.12098286 0.8348388001 8.094508093e-39
-0.4855001697 -0.1206819 0.8321911601 6.899923573e-39
-0.4875002097 -0.12038095 0.8295511801 6.896690778e-39
-0.4795001897 -0.12158477 0.8324616401 6.893791491e-39
-0.4795001897 -0.12158477 0.8309225901 6.161947954e-39
-0.5035001797 -0.11797334 0.8161721101 5.518052711e-39
-0.5035001797 -0.11797334 0.8146787801 5.149665358e-39
-0.5055001597 -0.11767238 0.8120921401 4.779820654e-39
-0.5055001597 -0.11767238 0.8106026201 5.331919637e-39
-0.5055001597 -0.11767238 0.8091131001 5.976190428e-39
-0.5035001797 -0.11797334 0.8087054701 5.517000336e-39
-0.5035001797 -0.11797334 0.8072121301 5.05818439e-39
-0.5015002097 -0.11827429 0.8067930801 5.148587759e-39
-0.5015002097 -0.11827429 0.8052959001 5.237903721e-39
-0.4995001697 -0.11857525 0.8048654701 4.044033863e-39
-0.4945001797 -0.11932763 0.8060216501 2.850164005e-39
-0.4905001697 -0.11992953 0.8066292601 3.22001011e-39
-0.4905001697 -0.11992953 0.8051111901 3.677738648e-39
-0.4895001797 -0.12008001 0.8041188001 3.126354327e-39
-0.4875002097 -0.12038095 0.8036464001 2.667176846e-39
-0.4875002097 -0.12038095 0.8021225801 3.309666587e-39
-0.4875002097 -0.12038095 0.8005987901 3.952523468e-39
-0.4875002097 -0.12038095 0.7990749701 3.952531876e-39
-0.4875002097 -0.12038095 0.7975511701 3.952541685e-39
-0.4875002097 -0.12038095 0.7960273501 4.044029659e-39
-0.4855001697 -0.1206819 0.7955283101 4.135860951e-39
-0.4855001697 -0.1206819 0.7940007001 4.412439433e-39
-0.4835001997 -0.12098286 0.7934901901 4.780856214e-39
-0.4835001997 -0.12098286 0.7919587701 4.781573678e-39
-0.4795001897 -0.12158477 0.7924464201 4.782289742e-39
-0.4775001597 -0.12188572 0.7919130801 4.505707056e-39
-0.4755001797 -0.12218667 0.7913721401 4.321322803e-39
-0.4755001797 -0.12218667 0.7898254601 4.413521235e-39
-0.4735002097 -0.12248762 0.7892730701 4.597553763e-39
-0.4735002097 -0.12248762 0.7877225801 4.506081203e-39
-0.4705001897 -0.12293904 0.7876521201 4.507867858e-39
-0.4685001497 -0.12324001 0.7870788201 4.323472395e-39
-0.4645002097 -0.1238419 0.7874768901 4.139458084e-39
-0.4625001697 -0.12414286 0.7868845001 4.231669129e-39
-0.4605001997 -0.12444381 0.7862844901 4.323861956e-39
-0.4585001597 -0.12474477 0.7856768801 4.508607744e-39
-0.4565001897 -0.12504572 0.7850616501 4.69335073e-39
-0.4525001797 -0.12564762 0.7853988001 5.06212344e-39
-0.4505002097 -0.12594858 0.7847644901 5.430898953e-39
-0.4485001697 -0.12624954 0.7841226001 5.707121505e-39
-0.4485001697 -0.12624954 0.7825245101 5.891508561e-39
-0.4485001697 -0.12624954 0.7809263901 6.257055482e-39
-0.4485001697 -0.12624954 0.7793283301 6.531129844e-39
-0.4485001697 -0.12624954 0.7777302101 6.345669393e-39
-0.4485001697 -0.12624954 0.7761321201 6.252494256e-39
-0.4755001797 -0.12064 0.8594254701 1.133428772e-38
-0.4775001597 -0.12034287 0.8567131001 1.160799775e-38
-0.4775001597 -0.12034287 0.8551702401 1.188136725e-38
-0.4775001597 -0.12034287 0.8536273701 1.252279481e-38
-0.4795001897 -0.12004571 0.8509302001 1.325997589e-38
-0.4795001897 -0.12004571 0.8493911801 1.298732525e-38
-0.4815001697 -0.11974858 0.8467054801 1.280005152e-38
-0.4815001697 -0.11974858 0.8451702501 1.224579454e-38
-0.4855001697 -0.11915429 0.8413569201 1.169406129e-38
-0.4855001697 -0.11915429 0.8398292801 1.150895257e-38
-0.4855001697 -0.11915429 0.8383016501 1.141567233e-38
-0.4835001997 -0.11945143 0.8379016401 1.1230558e-38
-0.4815001697 -0.11974858 0.8374940601 1.104291713e-38
-0.4815001697 -0.11974858 0.8359588301 9.920779744e-39
-0.4815001697 -0.11974858 0.8344235901 8.916687738e-39
-0.4755001797 -0.12064 0.8362254401 8.004431227e-39
-0.4755001797 -0.12064 0.8346787901 7.174681769e-39
-0.4755001797 -0.12064 0.8331321401 6.344933711e-39
-0.4755001797 -0.12064 0.8315854601 5.517349259e-39
-0.4755001797 -0.12064 0.8300388001 4.781957634e-39
-0.4775001597 -0.12034287 0.8273988001 4.049431665e-39
-0.4775001597 -0.12034287 0.8258559601 4.878110531e-39
-0.4815001697 -0.11974858 0.8221416701 5.704261455e-39
-0.4905001697 -0.11841144 0.8157378301 4.877733582e-39
-0.4965002097 -0.11752 0.8109854301 4.139099352e-39
-0.4925001997 -0.11811429 0.8116273501 4.413168108e-39
-0.4905001697 -0.11841144 0.8111835601 4.689027724e-39
-0.4905001697 -0.11841144 0.8096654901 3.036340519e-39
-0.4905001697 -0.11841144 0.8081473601 1.474781154e-39
-0.4895001797 -0.11856001 0.8071587901 2.576809911e-39
-0.4895001797 -0.11856001 0.8056387801 3.678464521e-39
-0.4895001797 -0.11856001 0.8041188001 3.862124303e-39
-0.4875002097 -0.11885715 0.8036464001 4.044719098e-39
-0.4875002097 -0.11885715 0.8021225801 4.135478397e-39
-0.4875002097 -0.11885715 0.8005987901 4.319510924e-39
-0.4875002097 -0.11885715 0.7990749701 4.041853442e-39
-0.4875002097 -0.11885715 0.7975511701 3.766355362e-39
-0.4875002097 -0.11885715 0.7960273501 3.858197864e-39
-0.4855001697 -0.11915429 0.7955283101 3.951115163e-39
-0.4855001697 -0.11915429 0.7940007001 4.135867958e-39
-0.4855001697 -0.11915429 0.7924731001 4.410295446e-39
-0.4815001697 -0.11974858 0.7929721401 4.592887439e-39
-0.4775001597 -0.12034287 0.7934559501 4.873406372e-39
-0.4755001797 -0.12064 0.7929187901 4.686495578e-39
-0.4755001797 -0.12064 0.7913721401 4.504978381e-39
-0.4755001797 -0.12064 0.7898254601 4.504262318e-39
-0.4755001797 -0.12064 0.7882787801 4.50426512e-39
-0.4735002097 -0.12093715 0.7877225801 4.320598332e-39
-0.4725001597 -0.12108572 0.7866654901 4.23091523e-39
-0.4685001497 -0.12168001 0.7870788201 4.049396632e-39
-0.4645002097 -0.12227429 0.7874768901 3.865386526e-39
-0.4625001697 -0.12257144 0.7868845001 3.957243041e-39
-0.4605001997 -0.12286858 0.7862844901 4.140904224e-39
-0.4585001597 -0.12316572 0.7856768801 4.233090045e-39
-0.4565001897 -0.12346286 0.7850616501 4.325638802e-39
-0.4525001797 -0.12405715 0.7853988001 4.69548771e-39
-0.4505002097 -0.12435429 0.7847644901 5.0628353e-39
-0.4485001697 -0.12465143 0.7841226001 5.246511897e-39
-0.4485001697 -0.12465143 0.7825245101 5.522375717e-39
-0.4485001697 -0.12465143 0.7809263901 5.614927276e-39
-0.4485001697 -0.12465143 0.7793283301 5.704261455e-39
-0.4445001697 -0.12524572 0.7796045101 4.507898687e-39
-0.4425001897 -0.12554286 0.7789321101 3.316942129e-39
-0.4425001897 -0.12554286 0.7773226101 6.258584299e-39
-0.4775001597 -0.11880001 0.8582559401 1.124280675e-38
-0.4775001597 -0.11880001 0.8567131001 1.151615104e-38
-0.4775001597 -0.11880001 0.8551702401 1.188208472e-38
-0.4775001597 -0.11880001 0.8536273701 1.243384179e-38
-0.4795001897 -0.11850667 0.8509302001 1.299093219e-38
-0.4795001897 -0.11850667 0.8493911801 1.289441356e-38
-0.4815001697 -0.11821334 0.8467054801 1.289691768e-38
-0.4815001697 -0.11821334 0.8451702501 1.279826066e-38
-0.4835001997 -0.11792 0.8424959401 1.27953894e-38
-0.4835001997 -0.11792 0.8409645101 1.233621192e-38
-0.4835001997 -0.11792 0.8394330901 1.197135023e-38
-0.4815001697 -0.11821334 0.8390293001 1.178693235e-38
-0.4795001897 -0.11850667 0.8386178501 1.169470729e-38
-0.4795001897 -0.11850667 0.8370787701 1.095712404e-38
-0.4775001597 -0.11880001 0.8366559601 1.021993314e-38
-0.4755001797 -0.11909334 0.8362254401 9.387678164e-39
-0.4735002097 -0.11938667 0.8357873701 8.647641235e-39
-0.4755001797 -0.11909334 0.8331321401 7.911551763e-39
-0.4755001797 -0.11909334 0.8315854601 7.175423055e-39
-0.4755001797 -0.11909334 0.8300388001 6.532924907e-39
-0.4775001597 -0.11880001 0.8273988001 5.890437969e-39
-0.4775001597 -0.11880001 0.8258559601 6.534006709e-39
-0.4795001897 -0.11850667 0.8232273601 7.177567042e-39
-0.4795001897 -0.11850667 0.8216883401 6.442160003e-39
-0.4905001697 -0.11689334 0.8142197601 5.79176834e-39
-0.4895001797 -0.11704 0.8132387901 5.425852877e-39
-0.4895001797 -0.11704 0.8117187801 5.059941618e-39
-0.4895001797 -0.11704 0.8101988001 3.866075964e-39
-0.4895001797 -0.11704 0.8086787901 2.764421355e-39
-0.4895001797 -0.11704 0.8071587901 3.219308059e-39
-0.4895001797 -0.11704 0.8056387801 3.772820953e-39
-0.4875002097 -0.11733334 0.8051702001 3.861775379e-39
-0.4875002097 -0.11733334 0.8036464001 4.045087639e-39
-0.4875002097 -0.11733334 0.8021225801 4.319519332e-39
-0.4855001697 -0.11762667 0.8016388001 4.68649838e-39
-0.4875002097 -0.11733334 0.7990749701 5.695608437e-39
-0.4875002097 -0.11733334 0.7975511701 6.704726901e-39
-0.4875002097 -0.11733334 0.7960273501 6.709037295e-39
-0.4855001697 -0.11762667 0.7955283101 6.805192995e-39
-0.4855001697 -0.11762667 0.7940007001 6.620819952e-39
-0.4835001997 -0.11792 0.7934901901 6.436425889e-39
-0.4815001697 -0.11821334 0.7929721401 6.251674496e-39
-0.4795001897 -0.11850667 0.7924464201 6.066906287e-39
-0.4775001597 -0.11880001 0.7919130801 5.791021448e-39
-0.4775001597 -0.11880001 0.7903702401 5.515154826e-39
-0.4775001597 -0.11880001 0.7888273801 5.239646936e-39
-0.4755001797 -0.11909334 0.7882787801 4.96414325e-39
-0.4735002097 -0.11938667 0.7877225801 4.688639564e-39
-0.4705001897 -0.11982667 0.7876521201 4.413140082e-39
-0.4665001797 -0.12041334 0.7880616401 4.23127116e-39
-0.4625001697 -0.12100001 0.7884559201 4.049776384e-39
-0.4605001997 -0.12129334 0.7878597301 4.141635702e-39
-0.4585001597 -0.12158667 0.7872559601 4.233454383e-39
-0.4585001597 -0.12158667 0.7856768801 3.957931079e-39
-0.4565001897 -0.12188 0.7850616501 3.682420386e-39
-0.4525001797 -0.12246668 0.7853988001 4.049758167e-39
-0.4525001797 -0.12246668 0.7838083101 4.509306992e-39
-0.4505002097 -0.12275999 0.7831702101 4.691557068e-39
-0.4485001697 -0.12305334 0.7825245101 4.873790328e-39
-0.4465001997 -0.12334667 0.7818711601 5.059253581e-39
-0.4465001997 -0.12334667 0.7802692501 5.244733649e-39
-0.4425001897 -0.12393334 0.7805416501 4.322808179e-39
-0.4395001697 -0.12437334 0.7803321401 3.39904841e-39
-0.4395001697 -0.12437334 0.7787169101 5.885041568e-39
-0.4395001697 -0.12437334 0.7771016501 8.478742731e-39
-0.4795001897 -0.11696762 0.8570864101 1.115061533e-38
-0.4795001897 -0.11696762 0.8555473601 1.151651818e-38
-0.4775001597 -0.11725715 0.8551702401 1.197463488e-38
-0.4775001597 -0.11725715 0.8536273701 1.234486073e-38
-0.4795001897 -0.11696762 0.8509302001 1.280294941e-38
-0.4795001897 -0.11696762 0.8493911801 1.289369469e-38
-0.4795001897 -0.11696762 0.8478521301 1.298444979e-38
-0.4815001697 -0.1166781 0.8451702501 1.34429056e-38
-0.4835001997 -0.11638857 0.8424959401 1.399032985e-38
-0.4835001997 -0.11638857 0.8409645101 1.325564448e-38
-0.4815001697 -0.1166781 0.8405645401 1.252309329e-38
-0.4795001897 -0.11696762 0.8401569001 1.24326731e-38
-0.4795001897 -0.11696762 0.8386178501 1.234153405e-38
-0.4795001897 -0.11696762 0.8370787701 1.188341175e-38
-0.4755001797 -0.11754667 0.8377721501 1.150925805e-38
-0.4735002097 -0.11783619 0.8373378401 1.086497885e-38
-0.4735002097 -0.11783619 0.8357873701 1.021316768e-38
-0.4755001797 -0.11754667 0.8331321401 9.569966075e-39
-0.4755001797 -0.11754667 0.8315854601 8.924963806e-39
-0.4755001797 -0.11754667 0.8300388001 8.279962939e-39
-0.4775001597 -0.11725715 0.8273988001 7.729661821e-39
-0.4795001897 -0.11696762 0.8247664201 8.189549761e-39
-0.4795001897 -0.11696762 0.8232273601 8.649078967e-39
-0.4795001897 -0.11696762 0.8216883401 8.098417716e-39
-0.4815001697 -0.1166781 0.8190711901 7.53986155e-39
-0.4855001697 -0.11609905 0.8153873901 6.522129304e-39
-0.4875002097 -0.11580952 0.8127892501 5.516958297e-39
-0.4875002097 -0.11580952 0.8112654601 4.787293779e-39
-0.4875002097 -0.11580952 0.8097416301 4.049043505e-39
-0.4875002097 -0.11580952 0.8082178401 3.954000437e-39
-0.4895001797 -0.11552 0.8056387801 3.863227125e-39
-0.4875002097 -0.11580952 0.8051702001 3.953256347e-39
-0.4875002097 -0.11580952 0.8036464001 4.136588225e-39
-0.4875002097 -0.11580952 0.8021225801 4.595427993e-39
-0.4875002097 -0.11580952 0.8005987901 5.063929714e-39
-0.4875002097 -0.11580952 0.7990749701 7.369142759e-39
-0.4875002097 -0.11580952 0.7975511701 9.666458086e-39
-0.4855001697 -0.11609905 0.7970559501 9.668246143e-39
-0.4855001697 -0.11609905 0.7955283101 9.666093748e-39
-0.4855001697 -0.11609905 0.7940007001 9.113287109e-39
-0.4835001997 -0.11638857 0.7934901901 8.563337718e-39
-0.4815001697 -0.1166781 0.7929721401 7.921912964e-39
-0.4795001897 -0.11696762 0.7924464201 7.36837765e-39
-0.4775001597 -0.11725715 0.7919130801 6.907036564e-39
-0.4775001597 -0.11725715 0.7903702401 6.535029657e-39
-0.4775001597 -0.11725715 0.7888273801 5.979711891e-39
-0.4755001797 -0.11754667 0.7882787801 5.425830456e-39
-0.4735002097 -0.11783619 0.7877225801 4.96414325e-39
-0.4705001897 -0.11827048 0.7876521201 4.596090807e-39
-0.4685001497 -0.11856001 0.7870788201 4.411709357e-39
-0.4625001697 -0.11942858 0.7884559201 4.229490109e-39
-0.4605001997 -0.1197181 0.7878597301 4.231301988e-39
-0.4585001597 -0.12000763 0.7872559601 4.323485007e-39
-0.4585001597 -0.12000763 0.7856768801 3.680984055e-39
-0.4565001897 -0.12029715 0.7850616501 3.038485907e-39
-0.4545001597 -0.12058668 0.7844388101 3.494786522e-39
-0.4525001797 -0.12087619 0.7838083101 4.045814913e-39
-0.4505002097 -0.12116572 0.7831702101 4.138024556e-39
-0.4485001697 -0.12145524 0.7825245101 4.322044472e-39
-0.4465001997 -0.12174476 0.7818711601 4.504269324e-39
-0.4465001997 -0.12174476 0.7802692501 4.780154163e-39
-0.4425001897 -0.12232381 0.7805416501 4.137684041e-39
-0.4395001697 -0.12275811 0.7803321401 3.584860586e-39
-0.4395001697 -0.12275811 0.7787169101 5.603431024e-39
-0.4395001697 -0.12275811 0.7771016501 7.64288221e-39
-0.4775001597 -0.11571429 0.8582559401 1.115061953e-38
-0.4775001597 -0.11571429 0.8567131001 1.151652799e-38
-0.4775001597 -0.11571429 0.8551702401 1.188351404e-38
-0.4795001897 -0.11542857 0.8524692501 1.225014137e-38
-0.4795001897 -0.11542857 0.8509302001 1.270895311e-38
-0.4795001897 -0.11542857 0.8493911801 1.270823004e-38
-0.4795001897 -0.11542857 0.8478521301 1.270750977e-38
-0.4815001697 -0.11514287 0.8451702501 1.298337359e-38
-0.4835001997 -0.11485714 0.8424959401 1.325672488e-38
-0.4815001697 -0.11514287 0.8420997701 1.279826206e-38
-0.4795001897 -0.11542857 0.8416959501 1.234015097e-38
-0.4775001597 -0.11571429 0.8412845301 1.224902453e-38
-0.4775001597 -0.11571429 0.8397416701 1.215861135e-38
-0.4775001597 -0.11571429 0.8381988001 1.169798773e-38
-0.4755001797 -0.116 0.8377721501 1.132957375e-38
-0.4735002097 -0.11628571 0.8373378401 1.06813485e-38
-0.4735002097 -0.11628571 0.8357873701 1.012565378e-38
-0.4735002097 -0.11628571 0.8342368801 9.574265259e-39
-0.4735002097 -0.11628571 0.8326864101 9.02326069e-39
-0.4755001797 -0.116 0.8300388001 8.561221757e-39
-0.4755001797 -0.116 0.8284921201 8.099517735e-39
-0.4775001597 -0.11571429 0.8258559601 8.283173314e-39
-0.4815001697 -0.11514287 0.8221416701 8.467193229e-39
-0.4795001897 -0.11542857 0.8216883401 8.375349325e-39
-0.4835001997 -0.11485714 0.8179930901 8.290678668e-39
-0.4835001997 -0.11485714 0.8164616401 7.737146157e-39
-0.4855001697 -0.11457143 0.8138597501 7.183620651e-39
-0.4875002097 -0.11428571 0.8112654601 6.996721067e-39
-0.4875002097 -0.11428571 0.8097416301 6.803033594e-39
-0.4875002097 -0.11428571 0.8082178401 6.803421753e-39
-0.4895001797 -0.114 0.8056387801 6.712286906e-39
-0.4875002097 -0.11428571 0.8051702001 6.620435996e-39
-0.4875002097 -0.11428571 0.8036464001 6.620476634e-39
-0.4875002097 -0.11428571 0.8021225801 7.27018166e-39
-0.4875002097 -0.11428571 0.8005987901 8.012038876e-39
-0.4875002097 -0.11428571 0.7990749701 9.20948765e-39
-0.4875002097 -0.11428571 0.7975511701 1.04987537e-38
-0.4855001697 -0.11457143 0.7970559501 1.031147857e-38
-0.4855001697 -0.11457143 0.7955283101 1.021926893e-38
-0.4835001997 -0.11485714 0.7950216401 9.112924173e-39
-0.4835001997 -0.11485714 0.7934901901 8.011596066e-39
-0.4815001697 -0.11514287 0.7929721401 7.644234463e-39
-0.4795001897 -0.11542857 0.7924464201 7.276891077e-39
-0.4775001597 -0.11571429 0.7919130801 6.9063191e-39
-0.4775001597 -0.11571429 0.7903702401 6.629735013e-39
-0.4755001797 -0.116 0.7898254601 6.443911626e-39
-0.4735002097 -0.11628571 0.7892730701 6.258446972e-39
-0.4725001597 -0.11642858 0.7882178301 6.165176546e-39
-0.4705001897 -0.11671428 0.7876521201 6.163747221e-39
-0.4705001897 -0.11671428 0.7860959401 5.609871392e-39
-0.4645002097 -0.11757143 0.7874768901 5.055999766e-39
-0.4625001697 -0.11785715 0.7868845001 4.964534212e-39
-0.4585001597 -0.11842857 0.7872559601 4.78157508e-39
-0.4585001597 -0.11842857 0.7856768801 4.323828325e-39
-0.4545001597 -0.11900001 0.7860254801 3.863920767e-39
-0.4525001797 -0.11928572 0.7853988001 4.046504352e-39
-0.4505002097 -0.11957143 0.7847644901 4.321311593e-39
-0.4505002097 -0.11957143 0.7831702101 4.230570511e-39
-0.4485001697 -0.11985715 0.7825245101 4.231985822e-39
-0.4465001997 -0.12014285 0.7818711601 4.415638597e-39
-0.4465001997 -0.12014285 0.7802692501 4.599332011e-39
-0.4425001897 -0.12071429 0.7805416501 4.322414414e-39
-0.4425001897 -0.12071429 0.7789321101 4.045820518e-39
-0.4395001697 -0.12114286 0.7787169101 5.51123119e-39
-0.4395001697 -0.12114286 0.7771016501 6.990694083e-39
-0.4395001697 -0.12114286 0.7754864301 9.777020535e-39
-0.4735002097 -0.11473524 0.8605949801 1.124209349e-38
-0.4755001797 -0.11445334 0.8578787901 1.151652519e-38
-0.4775001597 -0.11417144 0.8551702401 1.179131421e-38
-0.4795001897 -0.11388953 0.8524692501 1.215829746e-38
-0.4795001897 -0.11388953 0.8509302001 1.261675608e-38
-0.4795001897 -0.11388953 0.8493911801 1.252455905e-38
-0.4795001897 -0.11388953 0.8478521301 1.252419751e-38
-0.4795001897 -0.11388953 0.8463130801 1.252383598e-38
-0.4815001697 -0.11360763 0.8436350101 1.261604001e-38
-0.4815001697 -0.11360763 0.8420997701 1.243309629e-38
-0.4795001897 -0.11388953 0.8416959501 1.224940989e-38
-0.4775001597 -0.11417144 0.8412845301 1.215755898e-38
-0.4775001597 -0.11417144 0.8397416701 1.206535494e-38
-0.4775001597 -0.11417144 0.8381988001 1.160294046e-38
-0.4755001797 -0.11445334 0.8377721501 1.114447764e-38
-0.4735002097 -0.11473524 0.8373378401 1.058951721e-38
-0.4735002097 -0.11473524 0.8357873701 1.003454556e-38
-0.4735002097 -0.11473524 0.8342368801 9.577150532e-39
-0.4755001797 -0.11445334 0.8315854601 9.115463326e-39
-0.4755001797 -0.11445334 0.8300388001 8.745611616e-39
-0.4775001597 -0.11417144 0.8273988001 8.466140854e-39
-0.4775001597 -0.11417144 0.8258559601 8.371418683e-39
-0.4795001897 -0.11388953 0.8232273601 8.281009709e-39
-0.4795001897 -0.11388953 0.8216883401 8.652648074e-39
-0.4815001697 -0.11360763 0.8190711901 9.11181995e-39
-0.4815001697 -0.11360763 0.8175359601 9.01998025e-39
-0.4855001697 -0.11304381 0.8138597501 8.927794429e-39
-0.4855001697 -0.11304381 0.8123321401 9.298014681e-39
-0.4855001697 -0.11304381 0.8108045001 9.66464901e-39
-0.4875002097 -0.11276191 0.8082178401 9.663941354e-39
-0.4875002097 -0.11276191 0.8066940201 9.664671431e-39
-0.4875002097 -0.11276191 0.8051702001 9.389895019e-39
-0.4875002097 -0.11276191 0.8036464001 9.113690683e-39
-0.4875002097 -0.11276191 0.8021225801 1.003170653e-38
-0.4875002097 -0.11276191 0.8005987901 1.095364742e-38
-0.4875002097 -0.11276191 0.7990749701 1.11416218e-38
-0.4875002097 -0.11276191 0.7975511701 1.13245557e-38
-0.4855001697 -0.11304381 0.7970559501 1.10468772e-38
-0.4855001697 -0.11304381 0.7955283101 1.077280004e-38
-0.4835001997 -0.11332572 0.7950216401 9.112939587e-39
-0.4835001997 -0.11332572 0.7934901901 7.551000471e-39
-0.4815001697 -0.11360763 0.7929721401 7.366952529e-39
-0.4795001897 -0.11388953 0.7924464201 7.182195531e-39
-0.4775001597 -0.11417144 0.7919130801 6.905603036e-39
-0.4775001597 -0.11417144 0.7903702401 6.721585923e-39
-0.4775001597 -0.11417144 0.7888273801 6.905270928e-39
-0.4755001797 -0.11445334 0.7882787801 7.086063654e-39
-0.4725001597 -0.1148762 0.7882178301 7.361563136e-39
-0.4705001897 -0.1151581 0.7876521201 7.726761134e-39
-0.4705001897 -0.1151581 0.7860959401 6.814873164e-39
-0.4665001797 -0.1157219 0.7864978501 5.976879867e-39
-0.4645002097 -0.11600381 0.7859092501 5.610619685e-39
-0.4605001997 -0.11656762 0.7862844901 5.334391528e-39
-0.4585001597 -0.11684953 0.7856768801 4.966686607e-39
-0.4545001597 -0.11741334 0.7860254801 4.690455647e-39
-0.4525001797 -0.11769524 0.7853988001 4.600405405e-39
-0.4505002097 -0.11797714 0.7847644901 4.600420819e-39
-0.4505002097 -0.11797714 0.7831702101 4.41676384e-39
-0.4485001697 -0.11825905 0.7825245101 4.231995631e-39
-0.4465001997 -0.11854095 0.7818711601 4.325245037e-39
-0.4465001997 -0.11854095 0.7802692501 4.508576915e-39
-0.4425001897 -0.11910477 0.7805416501 4.508596534e-39
-0.4395001697 -0.11952762 0.7803321401 4.597199234e-39
-0.4395001697 -0.11952762 0.7787169101 5.419409707e-39
-0.4425001897 -0.11910477 0.7757130701 6.351805679e-39
-0.4425001897 -0.11910477 0.7741035401 9.503318919e-39
-0.4735002097 -0.11318476 0.8605949801 1.133356886e-38
-0.4755001797 -0.11290666 0.8578787901 1.151616505e-38
-0.4775001597 -0.11262858 0.8551702401 1.178915761e-38
-0.4815001697 -0.11207239 0.8513112001 1.224797356e-38
-0.4815001697 -0.11207239 0.8497759601 1.270679371e-38
-0.4795001897 -0.11235048 0.8493911801 1.261567848e-38
-0.4795001897 -0.11235048 0.8478521301 1.243272075e-38
-0.4795001897 -0.11235048 0.8463130801 1.243271654e-38
-0.4815001697 -0.11207239 0.8436350101 1.234090347e-38
-0.4815001697 -0.11207239 0.8420997701 1.215761363e-38
-0.4795001897 -0.11235048 0.8416959501 1.206647458e-38
-0.4795001897 -0.11235048 0.8401569001 1.178915341e-38
-0.4795001897 -0.11235048 0.8386178501 1.160475794e-38
-0.4775001597 -0.11262858 0.8381988001 1.123453909e-38
-0.4735002097 -0.11318476 0.8388883101 1.086754743e-38
-0.4735002097 -0.11318476 0.8373378401 1.031186253e-38
-0.4735002097 -0.11318476 0.8357873701 9.760125079e-39
-0.4735002097 -0.11318476 0.8342368801 9.392060025e-39
-0.4755001797 -0.11290666 0.8315854601 9.02399497e-39
-0.4755001797 -0.11290666 0.8300388001 8.654494986e-39
-0.4755001797 -0.11290666 0.8284921201 8.282111129e-39
-0.4775001597 -0.11262858 0.8258559601 8.096268124e-39
-0.4795001897 -0.11235048 0.8232273601 7.819677031e-39
-0.4795001897 -0.11235048 0.8216883401 8.738383718e-39
-0.4815001697 -0.11207239 0.8190711901 9.565620649e-39
-0.4815001697 -0.11207239 0.8175359601 1.021062152e-38
-0.4815001697 -0.11207239 0.8160006901 1.085599793e-38
-0.4855001697 -0.1115162 0.8123321401 1.104506813e-38
-0.4855001697 -0.1115162 0.8108045001 1.12341103e-38
-0.4855001697 -0.1115162 0.8092769001 1.095464794e-38
-0.4875002097 -0.1112381 0.8066940201 1.076743166e-38
-0.4875002097 -0.1112381 0.8051702001 1.058344398e-38
-0.4875002097 -0.1112381 0.8036464001 1.039977018e-38
-0.4875002097 -0.1112381 0.8021225801 1.095365162e-38
-0.4875002097 -0.1112381 0.8005987901 1.159972588e-38
-0.4875002097 -0.1112381 0.7990749701 1.141569476e-38
-0.4875002097 -0.1112381 0.7975511701 1.123200134e-38
-0.4875002097 -0.1112381 0.7960273501 1.104938553e-38
-0.4855001697 -0.1115162 0.7955283101 1.077531817e-38
-0.4835001997 -0.11179429 0.7950216401 9.019327245e-39
-0.4835001997 -0.11179429 0.7934901901 7.365552632e-39
-0.4815001697 -0.11207239 0.7929721401 7.180429895e-39
-0.4795001897 -0.11235048 0.7924464201 7.087499985e-39
-0.4795001897 -0.11235048 0.7909073701 6.720857248e-39
-0.4795001897 -0.11235048 0.7893683201 6.44609625e-39
-0.4775001597 -0.11262858 0.7888273801 6.536883575e-39
-0.4755001797 -0.11290666 0.7882787801 6.627984791e-39
-0.4725001597 -0.11332382 0.7882178301 6.9027584e-39
-0.4725001597 -0.11332382 0.7866654901 7.269754264e-39
-0.4725001597 -0.11332382 0.7851130801 6.624407276e-39
-0.4705001897 -0.11360191 0.7845397501 5.979406408e-39
-0.4665001797 -0.1141581 0.7849340301 6.070165707e-39
-0.4605001997 -0.11499239 0.7862844901 6.16056207e-39
-0.4605001997 -0.11499239 0.7847092601 5.517710794e-39
-0.4565001897 -0.11554857 0.7850616501 4.966334881e-39
-0.4525001797 -0.11610477 0.7853988001 4.875572779e-39
-0.4505002097 -0.11638286 0.7847644901 4.876301455e-39
-0.4505002097 -0.11638286 0.7831702101 4.691924208e-39
-0.4485001697 -0.11666095 0.7825245101 4.599347425e-39
-0.4445001697 -0.11721715 0.7828159501 4.506054578e-39
-0.4445001697 -0.11721715 0.7812102301 4.413158299e-39
-0.4425001897 -0.11749524 0.7805416501 3.954354965e-39
-0.4395001697 -0.11791239 0.7803321401 3.404062256e-39
-0.4395001697 -0.11791239 0.7787169101 5.235395396e-39
-0.4395001697 -0.11791239 0.7771016501 6.99861282e-39
-0.4425001897 -0.11749524 0.7741035401 9.685567593e-39
-0.4735002097 -0.11163428 0.8605949801 1.142540435e-38
-0.4755001797 -0.11136001 0.8578787901 1.160763761e-38
-0.4775001597 -0.11108572 0.8551702401 1.188241823e-38
-0.4815001697 -0.11053715 0.8513112001 1.234087124e-38
-0.4795001897 -0.11081143 0.8509302001 1.289080802e-38
-0.4795001897 -0.11081143 0.8493911801 1.26149442e-38
-0.4795001897 -0.11081143 0.8478521301 1.243196965e-38
-0.4795001897 -0.11081143 0.8463130801 1.224899651e-38
-0.4795001897 -0.11081143 0.8447740301 1.215647718e-38
-0.4795001897 -0.11081143 0.8432349701 1.197248108e-38
-0.4795001897 -0.11081143 0.8416959501 1.188027704e-38
-0.4795001897 -0.11081143 0.8401569001 1.151292665e-38
-0.4795001897 -0.11081143 0.8386178501 1.123525796e-38
-0.4775001597 -0.11108572 0.8381988001 1.0957948e-38
-0.4755001797 -0.11136001 0.8377721501 1.068135831e-38
-0.4755001797 -0.11136001 0.8362254401 1.012639367e-38
-0.4755001797 -0.11136001 0.8346787901 9.574659024e-39
-0.4755001797 -0.11136001 0.8331321401 9.206954103e-39
-0.4735002097 -0.11163428 0.8326864101 8.931086079e-39
-0.4755001797 -0.11136001 0.8300388001 8.56338256e-39
-0.4755001797 -0.11136001 0.8284921201 8.189551162e-39
-0.4775001597 -0.11108572 0.8258559601 7.821460884e-39
-0.4795001897 -0.11081143 0.8232273601 7.45161618e-39
-0.4795001897 -0.11081143 0.8216883401 8.734809006e-39
-0.4815001697 -0.11053715 0.8190711901 1.012167269e-38
-0.4815001697 -0.11053715 0.8175359601 1.150889512e-38
-0.4835001997 -0.11026286 0.8149302201 1.289037642e-38
-0.4855001697 -0.10998858 0.8123321401 1.280248978e-38
-0.4855001697 -0.10998858 0.8108045001 1.279783327e-38
-0.4875002097 -0.10971429 0.8082178401 1.23365104e-38
-0.4875002097 -0.10971429 0.8066940201 1.18769966e-38
-0.4875002097 -0.10971429 0.8051702001 1.178518353e-38
-0.4875002097 -0.10971429 0.8036464001 1.169263337e-38
-0.4875002097 -0.10971429 0.8021225801 1.19674252e-38
-0.4875002097 -0.10971429 0.8005987901 1.224366316e-38
-0.4875002097 -0.10971429 0.7990749701 1.169661026e-38
-0.4875002097 -0.10971429 0.7975511701 1.123632575e-38
-0.4855001697 -0.10998858 0.7970559501 1.105190506e-38
-0.4855001697 -0.10998858 0.7955283101 1.086572855e-38
-0.4835001997 -0.11026286 0.7950216401 9.017543392e-39
-0.4835001997 -0.11026286 0.7934901901 7.180459322e-39
-0.4815001697 -0.11053715 0.7929721401 7.088248278e-39
-0.4815001697 -0.11053715 0.7914369001 6.994235164e-39
-0.4815001697 -0.11053715 0.7899016601 6.625072893e-39
-0.4795001897 -0.11081143 0.7893683201 6.258828125e-39
-0.4795001897 -0.11081143 0.7878292701 6.259926743e-39
-0.4755001797 -0.11136001 0.7882787801 6.260281271e-39
-0.4725001597 -0.11177143 0.7882178301 6.535783556e-39
-0.4725001597 -0.11177143 0.7866654901 6.810222255e-39
-0.4725001597 -0.11177143 0.7851130801 6.349978386e-39
-0.4725001597 -0.11177143 0.7835607101 5.977968676e-39
-0.4725001597 -0.11177143 0.7820083401 6.437860819e-39
-0.4605001997 -0.11341715 0.7862844901 6.987786388e-39
-0.4605001997 -0.11341715 0.7847092601 6.160538248e-39
-0.4565001897 -0.11396571 0.7850616501 5.333672662e-39
-0.4525001797 -0.11451429 0.7853988001 5.242925974e-39
-0.4525001797 -0.11451429 0.7838083101 5.152173682e-39
-0.4525001797 -0.11451429 0.7822178501 5.057116601e-39
-0.4505002097 -0.11478857 0.7815759401 4.966329276e-39
-0.4445001697 -0.11561143 0.7828159501 4.688282233e-39
-0.4445001697 -0.11561143 0.7812102301 4.412784152e-39
-0.4425001897 -0.11588572 0.7805416501 3.311125339e-39
-0.4395001697 -0.11629715 0.7803321401 2.300597168e-39
-0.4395001697 -0.11629715 0.7787169101 4.959902921e-39
-0.4395001697 -0.11629715 0.7771016501 7.740482648e-39
-0.4815001697 -0.10900191 0.8513112001 1.215539257e-38
-0.4795001897 -0.10927239 0.8509302001 1.261564485e-38
-0.4795001897 -0.10927239 0.8493911801 1.243089766e-38
-0.4795001897 -0.10927239 0.8478521301 1.224647277e-38
-0.4795001897 -0.10927239 0.8463130801 1.206240801e-38
-0.4795001897 -0.10927239 0.8447740301 1.197061595e-38
-0.4795001897 -0.10927239 0.8432349701 1.178591361e-38
-0.4775001597 -0.10954287 0.8428274001 1.160152795e-38
-0.4775001597 -0.10954287 0.8412845301 1.123311397e-38
-0.4775001597 -0.10954287 0.8397416701 1.095328868e-38
-0.4755001797 -0.10981334 0.8393188001 1.058665155e-38
-0.4735002097 -0.11008381 0.8388883101 1.031185832e-38
-0.4755001797 -0.10981334 0.8362254401 9.849808181e-39
-0.4755001797 -0.10981334 0.8346787901 9.387758038e-39
-0.4755001797 -0.10981334 0.8331321401 9.02149085e-39
-0.4755001797 -0.10981334 0.8315854601 8.655223661e-39
-0.4755001797 -0.10981334 0.8300388001 8.008787864e-39
-0.4775001597 -0.10954287 0.8273988001 7.362308626e-39
-0.4775001597 -0.10954287 0.8258559601 7.452308422e-39
-0.4795001897 -0.10927239 0.8232273601 7.534839296e-39
-0.4795001897 -0.10927239 0.8216883401 9.480627693e-39
-0.4815001697 -0.10900191 0.8190711901 1.133133519e-38
-0.4815001697 -0.10900191 0.8175359601 1.206710376e-38
-0.4835001997 -0.10873143 0.8149302201 1.271101722e-38
-0.4855001697 -0.10846096 0.8123321401 1.270992981e-38
-0.4855001697 -0.10846096 0.8108045001 1.280071293e-38
-0.4875002097 -0.10819048 0.8082178401 1.243016618e-38
-0.4875002097 -0.10819048 0.8066940201 1.20617494e-38
-0.4875002097 -0.10819048 0.8051702001 1.187843994e-38
-0.4875002097 -0.10819048 0.8036464001 1.169513469e-38
-0.4875002097 -0.10819048 0.8021225801 1.178410873e-38
-0.4875002097 -0.10819048 0.8005987901 1.187740999e-38
-0.4875002097 -0.10819048 0.7990749701 1.15108163e-38
-0.4875002097 -0.10819048 0.7975511701 1.114414974e-38
-0.4855001697 -0.10846096 0.7970559501 1.040727274e-38
-0.4855001697 -0.10846096 0.7955283101 9.762636206e-39
-0.4855001697 -0.10846096 0.7940007001 8.650212618e-39
-0.4835001997 -0.10873143 0.7934901901 7.453465894e-39
-0.4835001997 -0.10873143 0.7919587701 7.178304125e-39
-0.4835001997 -0.10873143 0.7904273801 6.901329076e-39
-0.4815001697 -0.10900191 0.7899016601 6.534312192e-39
-0.4815001697 -0.10900191 0.7883664301 6.075866189e-39
-0.4795001897 -0.10927239 0.7878292701 5.98440484e-39
-0.4755001797 -0.10981334 0.7882787801 5.892935083e-39
-0.4725001597 -0.11021905 0.7882178301 5.984061522e-39
-0.4725001597 -0.11021905 0.7866654901 6.075185158e-39
-0.4725001597 -0.11021905 0.7851130801 5.704261455e-39
-0.4705001897 -0.11048953 0.7845397501 5.425878101e-39
-0.4705001897 -0.11048953 0.7829835601 5.518424055e-39
-0.4605001997 -0.11184191 0.7862844901 5.611317532e-39
-0.4605001997 -0.11184191 0.7847092601 5.333999164e-39
-0.4565001897 -0.11238286 0.7850616501 4.966685206e-39
-0.4545001597 -0.11265334 0.7844388101 4.784118436e-39
-0.4525001797 -0.11292382 0.7838083101 4.601526444e-39
-0.4525001797 -0.11292382 0.7822178501 5.059273199e-39
-0.4505002097 -0.11319429 0.7815759401 5.425145222e-39
-0.4465001997 -0.11373524 0.7818711601 5.332199897e-39
-0.4445001697 -0.11400572 0.7812102301 5.147454109e-39
-0.4395001697 -0.11468191 0.7819473901 4.228383084e-39
-0.4375001997 -0.11495239 0.7812654601 3.217514397e-39
-0.4375001997 -0.11495239 0.7796464101 6.626587696e-39
-0.4775001597 -0.10800001 0.8520845401 1.233872024e-38
-0.4795001897 -0.10773333 0.8493911801 1.215541639e-38
-0.4795001897 -0.10773333 0.8478521301 1.206355287e-38
-0.4795001897 -0.10773333 0.8463130801 1.188021258e-38
-0.4795001897 -0.10773333 0.8447740301 1.178696878e-38
-0.4795001897 -0.10773333 0.8432349701 1.160188949e-38
-0.4775001597 -0.10800001 0.8428274001 1.141677936e-38
-0.4755001797 -0.10826667 0.8424121301 1.104835697e-38
-0.4775001597 -0.10800001 0.8397416701 1.068028912e-38
-0.4755001797 -0.10826667 0.8393188001 1.031257999e-38
-0.4755001797 -0.10826667 0.8377721501 1.003419804e-38
-0.4755001797 -0.10826667 0.8362254401 9.665416921e-39
-0.4755001797 -0.10826667 0.8346787901 9.295561007e-39
-0.4735002097 -0.10853333 0.8342368801 8.836021991e-39
-0.4735002097 -0.10853333 0.8326864101 8.466533218e-39
-0.4755001797 -0.10826667 0.8300388001 7.5463916e-39
-0.4775001597 -0.10800001 0.8273988001 6.625847811e-39
-0.4775001597 -0.10800001 0.8258559601 7.175389424e-39
-0.4795001897 -0.10773333 0.8232273601 7.724639568e-39
-0.4795001897 -0.10773333 0.8216883401 1.013463471e-38
-0.4815001697 -0.10746667 0.8190711901 1.261599657e-38
-0.4815001697 -0.10746667 0.8175359601 1.26228223e-38
-0.4835001997 -0.1072 0.8149302201 1.261670983e-38
-0.4835001997 -0.1072 0.8133988001 1.270781385e-38
-0.4855001697 -0.10693334 0.8108045001 1.279931584e-38
-0.4875002097 -0.10666667 0.8082178401 1.252383457e-38
-0.4875002097 -0.10666667 0.8066940201 1.224723507e-38
-0.4875002097 -0.10666667 0.8051702001 1.19709943e-38
-0.4875002097 -0.10666667 0.8036464001 1.169405709e-38
-0.4875002097 -0.10666667 0.8021225801 1.1601151e-38
-0.4875002097 -0.10666667 0.8005987901 1.150932531e-38
-0.4875002097 -0.10666667 0.7990749701 1.123383004e-38
-0.4875002097 -0.10666667 0.7975511701 1.10487059e-38
-0.4855001697 -0.10693334 0.7970559501 9.84872778e-39
-0.4855001697 -0.10693334 0.7955283101 8.744193502e-39
-0.4855001697 -0.10693334 0.7940007001 8.28286783e-39
-0.4835001997 -0.1072 0.7934901901 7.821525344e-39
-0.4835001997 -0.1072 0.7919587701 7.362693983e-39
-0.4835001997 -0.1072 0.7904273801 6.903126942e-39
-0.4835001997 -0.1072 0.7888959501 6.443561301e-39
-0.4815001697 -0.10746667 0.7883664301 5.984755165e-39
-0.4795001897 -0.10773333 0.7878292701 5.709978753e-39
-0.4775001597 -0.10800001 0.7872845101 5.524165175e-39
-0.4735002097 -0.10853333 0.7877225801 5.431263291e-39
-0.4735002097 -0.10853333 0.7861721101 5.428407444e-39
-0.4725001597 -0.10866667 0.7851130801 5.150403842e-39
-0.4725001597 -0.10866667 0.7835607101 4.873089679e-39
-0.4725001597 -0.10866667 0.7820083401 4.596135649e-39
-0.4725001597 -0.10866667 0.7804559401 4.322047274e-39
-0.4645002097 -0.10973334 0.7827740201 4.507496514e-39
-0.4605001997 -0.11026667 0.7831340301 4.692617851e-39
-0.4565001897 -0.11080001 0.7834787801 4.419280572e-39
-0.4545001597 -0.11106668 0.7828521601 4.143790899e-39
-0.4525001797 -0.11133334 0.7822178501 5.062164078e-39
-0.4485001697 -0.11186668 0.7825245101 5.979044873e-39
-0.4465001997 -0.11213334 0.7818711601 5.977572109e-39
-0.4465001997 -0.11213334 0.7802692501 5.977207771e-39
-0.4425001897 -0.11266667 0.7805416501 5.058488472e-39
-0.4425001897 -0.11266667 0.7789321101 4.231301988e-39
-0.4355001597 -0.11360001 0.7805759501 8.201445383e-39
-0.4735002097 -0.10698286 0.8559435501 1.160224401e-38
