# .PCD v0.7 - Point Cloud Data file format
VERSION 0.7
FIELDS x y z rgb
SIZE 4 4 4 4
TYPE F F F F
COUNT 1 1 1 1
WIDTH 908
HEIGHT 1
VIEWPOINT 0 0 0 1 0 0 0
POINTS 908
DATA ascii
0.2683871558 0.14277144 0.6361895176 1.03975197e-38
0.2703871358 0.14313334 0.6338257176 1.048901468e-38
0.2723871658 0.14349525 0.6314542576 1.058049144e-38
0.2703871358 0.14313334 0.6308123676 1.067232834e-38
0.2723871658 0.14349525 0.6284333076 1.085599373e-38
0.2743871458 0.14385715 0.6260466576 1.021313965e-38
0.2743871458 0.14385715 0.6245323976 9.572083437e-39
0.2763871758 0.14421906 0.6221342976 1.003018472e-38
0.2763871758 0.14421906 0.6206161676 1.057939983e-38
0.2773871658 0.14440002 0.6186523676 1.085418605e-38
0.2773871658 0.14440002 0.6171323576 1.103750532e-38
0.2793871358 0.14476191 0.6147133376 1.085384133e-38
0.2793871358 0.14476191 0.6131895176 1.076344777e-38
0.2813871758 0.14512381 0.6107590476 1.067269548e-38
0.2833871458 0.14548573 0.6083209476 1.05833571e-38
0.2833871458 0.14548573 0.6067895276 1.039895463e-38
0.2833871458 0.14548573 0.6052580976 1.021564377e-38
0.2853871758 0.14584763 0.6028047476 1.030532967e-38
0.2853871758 0.14584763 0.6012695076 1.03964421e-38
0.2873871558 0.14620952 0.5988047676 1.02127669e-38
0.2873871558 0.14620952 0.5972657176 1.012128313e-38
0.2873871558 0.14620952 0.5957266676 1.002872457e-38
0.2873871558 0.14620952 0.5941876176 9.937247804e-39
0.2893871858 0.14657144 0.5917037676 9.845413709e-39
0.2893871858 0.14657144 0.5901609276 9.660673526e-39
0.2893871858 0.14657144 0.5886180676 9.752516029e-39
0.2913871658 0.14693335 0.5861190176 9.844354327e-39
0.2933871358 0.14729524 0.5836123776 1.021098305e-38
0.2943871858 0.1474762 0.5815800076 1.066836687e-38
0.2943871858 0.1474762 0.5800276076 1.048577207e-38
0.2963871558 0.1478381 0.5775037976 1.030317308e-38
0.2963871558 0.1478381 0.5759476076 1.021241097e-38
0.2983871958 0.14820002 0.5734123576 1.012093841e-38
0.2983871958 0.14820002 0.5718523476 1.011950909e-38
0.3003871658 0.14856191 0.5693057176 1.00255268e-38
0.3003871658 0.14856191 0.5677418976 1.002553381e-38
0.3003871658 0.14856191 0.5661781076 1.011772524e-38
0.3003871658 0.14856191 0.5646142876 1.011772384e-38
0.3003871658 0.14856191 0.5630504776 1.01162805e-38
0.3003871658 0.14856191 0.5614866576 9.932961232e-39
0.3023871358 0.1489238 0.5589133476 9.749650373e-39
0.3023871358 0.1489238 0.5573457176 9.473429223e-39
0.3023871358 0.1489238 0.5557781076 9.28939109e-39
0.3023871358 0.1489238 0.5542104776 9.196470989e-39
0.3063871458 0.14964762 0.5505933076 9.106436161e-39
0.3063871458 0.14964762 0.5490180776 8.92348964e-39
0.3083871858 0.15000953 0.5464104676 8.740557132e-39
0.3083871858 0.15000953 0.5448313876 8.556191096e-39
0.3083871858 0.15000953 0.5432523776 8.372501887e-39
0.3083871858 0.15000953 0.5416733276 7.911153795e-39
0.3083871858 0.15000953 0.5400942476 7.45019106e-39
0.1543871358 0.12342858 0.8907609606 1.278777895e-38
0.1543871358 0.12342858 0.8894752446 1.287997878e-38
0.1553871858 0.12361144 0.8880619066 1.306401131e-38
0.1573871558 0.12397715 0.8865152406 1.306509031e-38
0.1583871458 0.12416001 0.8850923876 1.306437425e-38
0.1583871458 0.12416001 0.8837990496 1.306330085e-38
0.1583871458 0.12416001 0.8825057256 1.306400991e-38
0.1593871358 0.12434285 0.8810752506 1.30650777e-38
0.1593871358 0.12434285 0.8797800126 1.306401131e-38
0.1593871358 0.12434285 0.8784847736 1.334024647e-38
0.1593871358 0.12434285 0.8771895346 1.370758986e-38
0.1613871658 0.12470857 0.8756047586 1.352356154e-38
0.1623871558 0.12489143 0.8741590476 1.333880314e-38
0.1623871558 0.12489143 0.8728580976 1.306221064e-38
0.1623871558 0.12489143 0.8715571476 1.28781627e-38
0.1633871458 0.12507428 0.8701038176 1.278774532e-38
0.1633871458 0.12507428 0.8688009676 1.269484483e-38
0.1633871458 0.12507428 0.8674981076 1.269377985e-38
0.1653871758 0.12544 0.8658790476 1.269413998e-38
0.1653871758 0.12544 0.8645723776 1.26988035e-38
0.1663871658 0.12562287 0.8631038076 1.27917152e-38
0.1683871358 0.12598856 0.8614676276 1.260445548e-38
0.1693871858 0.12617144 0.8599895176 1.242041735e-38
0.1703871658 0.12635429 0.8585076176 1.242040894e-38
0.1723871458 0.12672 0.8568523876 1.241968867e-38
0.1743871758 0.12708572 0.8551895276 1.195979092e-38
0.1763871558 0.12745143 0.8535190576 1.149810932e-38
0.1763871558 0.12745143 0.8521914376 9.282943716e-39
0.1773871358 0.12763429 0.8506866676 7.078528872e-39
0.1773871358 0.12763429 0.8493571576 7.537343416e-39
0.1793871758 0.12800001 0.8476657076 7.996876827e-39
0.1793871758 0.12800001 0.8463323776 8.180903749e-39
0.1803871558 0.12818287 0.8448142976 8.456411639e-39
0.1803871558 0.12818287 0.8434790476 8.915591922e-39
0.1803871558 0.12818287 0.8421438176 9.4676853e-39
0.1823871358 0.12854856 0.8404276176 1.047931489e-38
0.1823871358 0.12854856 0.8390885876 1.149740026e-38
0.1823871358 0.12854856 0.8377495376 1.21420466e-38
0.1833871858 0.12873144 0.8362142876 1.278668874e-38
0.1833871858 0.12873144 0.8348733276 1.324765988e-38
0.1833871858 0.12873144 0.8335323776 1.379975046e-38
0.1833871858 0.12873144 0.8321914176 1.370899396e-38
0.1843871658 0.1289143 0.8306466576 1.370899536e-38
0.1843871658 0.1289143 0.8293038076 1.380119099e-38
0.1863871458 0.12928 0.8275457176 1.389303069e-38
0.1863871458 0.12928 0.8261990476 1.398522912e-38
0.1873871258 0.12946285 0.8246409676 1.407706462e-38
0.1873871258 0.12946285 0.8232923976 1.398666405e-38
0.1873871258 0.12946285 0.8219438176 1.398487319e-38
0.1873871258 0.12946285 0.8205952476 1.398523613e-38
0.1893871658 0.12982857 0.8188085776 1.407455209e-38
0.1903871558 0.13001144 0.8172352376 1.379975326e-38
0.1923871858 0.13037716 0.8154352376 1.361643399e-38
0.1923871858 0.13037716 0.8140771376 1.324980247e-38
0.1933871758 0.13056001 0.8124923776 1.297178906e-38
0.1933871758 0.13056001 0.8111323676 1.26977203e-38
0.1933871758 0.13056001 0.8097723776 1.242150896e-38
0.1933871758 0.13056001 0.8084123676 1.232932594e-38
0.1953871458 0.13092571 0.8065838176 1.23289574e-38
0.1953871458 0.13092571 0.8052200076 1.223675196e-38
0.1953871458 0.13092571 0.8038562076 1.21442004e-38
0.1963871358 0.13110857 0.8022523776 1.186797785e-38
0.1983871658 0.13147429 0.8004028576 1.15917581e-38
0.1993871558 0.13165715 0.7987895276 1.140773398e-38
0.1993871558 0.13165715 0.7974180976 1.131553414e-38
0.2013871858 0.13202286 0.7955514176 1.094782922e-38
0.2013871858 0.13202286 0.7941761876 1.067159546e-38
0.2043871458 0.13257144 0.7920466576 1.057939283e-38
0.2043871458 0.13257144 0.7906657076 1.048647973e-38
0.2043871458 0.13257144 0.7892847576 1.030208987e-38
0.2053871358 0.13275428 0.7876466776 1.021204524e-38
0.2053871358 0.13275428 0.7862638176 1.002908891e-38
0.2053871358 0.13275428 0.7848809576 9.937620549e-39
0.2073871658 0.13312 0.7829723776 9.662841335e-39
0.2073871658 0.13312 0.7815857076 9.479159132e-39
0.2073871658 0.13312 0.7801990476 9.846491308e-39
0.2373871458 0.13860573 0.7563171476 9.017481735e-39
0.2373871458 0.13860573 0.7548733276 9.01785448e-39
0.2373871458 0.13860573 0.7534295276 9.017477531e-39
0.2423871358 0.13952 0.7476123976 8.4682414e-39
0.2443871758 0.13988572 0.7455609576 8.466806471e-39
0.2463871458 0.14025143 0.7435019076 8.924909156e-39
0.2473871358 0.14043428 0.7417381076 9.384083834e-39
0.2493871658 0.14080001 0.7396657076 8.649398463e-39
0.2473871358 0.14043428 0.7388123776 8.00619406e-39
0.2473871358 0.14043428 0.7373495376 7.914001233e-39
0.2473871358 0.14043428 0.7358866776 7.81965461e-39
0.2463871458 0.14025143 0.7347361976 7.725307987e-39
0.2463871458 0.14025143 0.7332752476 7.724590522e-39
0.2463871458 0.14025143 0.7318142876 7.539483199e-39
0.2463871458 0.14025143 0.7303533376 7.356535277e-39
0.2463871458 0.14025143 0.7288923776 7.355824818e-39
0.2463871458 0.14025143 0.7274314376 7.448373575e-39
0.2473871358 0.14043428 0.7256466876 7.263982316e-39
0.2493871658 0.14080001 0.7235323776 7.172505552e-39
0.2513871358 0.14116572 0.7214104776 7.35689541e-39
0.2513871358 0.14116572 0.7199399976 7.539850339e-39
0.2513871358 0.14116572 0.7184695276 7.630971173e-39
0.2513871358 0.14116572 0.7169990476 7.81715049e-39
0.2523871858 0.14134859 0.7151933276 7.818223884e-39
0.2523871858 0.14134859 0.7137209476 7.910062183e-39
0.2513871358 0.14116572 0.7125876176 8.001900482e-39
0.2513871358 0.14116572 0.7111171476 8.094456245e-39
0.2513871358 0.14116572 0.7096466676 8.003698348e-39
0.2513871358 0.14116572 0.7081761876 7.912220183e-39
0.2523871858 0.14134859 0.7063590576 8.004414411e-39
0.2513871358 0.14116572 0.7052352376 8.187005003e-39
0.2523871858 0.14134859 0.7034142876 8.278837696e-39
0.2543871658 0.14171429 0.7012371676 8.370674594e-39
0.2543871658 0.14171429 0.6997609376 8.371034727e-39
0.2543871658 0.14171429 0.6982847676 8.460366103e-39
0.2543871658 0.14171429 0.6968085676 8.368894944e-39
0.2543871658 0.14171429 0.6953323776 8.278134244e-39
0.2563871358 0.14208001 0.6931323976 8.37140467e-39
0.2563871358 0.14208001 0.6916523876 8.462873026e-39
0.2543871658 0.14171429 0.6909038076 8.462866019e-39
0.2543871658 0.14171429 0.6894276076 8.555057445e-39
0.2563871358 0.14208001 0.6872123776 8.647607604e-39
0.2563871358 0.14208001 0.6857323876 8.830563934e-39
0.2583871658 0.14244573 0.6835057076 8.922044902e-39
0.2583871658 0.14244573 0.6820218776 9.104645302e-39
0.2583871658 0.14244573 0.6805380876 9.011739214e-39
0.2593871558 0.14262858 0.6786752576 8.920979915e-39
0.2593871558 0.14262858 0.6771895276 8.922054711e-39
0.2593871558 0.14262858 0.6757038176 9.014244735e-39
0.2593871558 0.14262858 0.6742180876 9.106794894e-39
0.2593871558 0.14262858 0.6727323776 9.199345052e-39
0.2613871858 0.1429943 0.6704695176 9.199700982e-39
0.2613871858 0.1429943 0.6689799976 9.291543485e-39
0.2613871858 0.1429943 0.6674904776 9.29154909e-39
0.2613871858 0.1429943 0.6660009576 9.383740516e-39
0.2613871858 0.1429943 0.6645114376 9.384453777e-39
0.2613871858 0.1429943 0.6630218876 9.475566203e-39
0.2633871658 0.14336002 0.6607323576 9.475201865e-39
0.2633871658 0.14336002 0.6592390476 9.475924935e-39
0.2633871658 0.14336002 0.6577457176 9.203293911e-39
0.2633871658 0.14336002 0.6562523776 8.927431493e-39
0.2653871358 0.14372571 0.6539437976 9.294416146e-39
0.2653871358 0.14372571 0.6524466576 9.661043469e-39
0.2673871758 0.14409143 0.6501266576 9.752164303e-39
0.2673871758 0.14409143 0.6486256976 9.935480767e-39
0.2673871758 0.14409143 0.6471247676 9.568142986e-39
0.2673871758 0.14409143 0.6456237976 9.294065822e-39
0.2683871558 0.14427429 0.6437038176 9.755750226e-39
0.2683871558 0.14427429 0.6422009376 1.03056856e-38
0.2683871558 0.14427429 0.6406980976 1.021313124e-38
0.2683871558 0.14427429 0.6391952276 1.02138417e-38
0.2683871558 0.14427429 0.6376923876 1.021455356e-38
0.2683871558 0.14427429 0.6361895176 1.030532687e-38
0.2703871358 0.14464001 0.6338257176 1.030534088e-38
0.2743871458 0.14537142 0.6305895376 1.039681485e-38
0.2743871458 0.14537142 0.6290752276 1.0673036e-38
0.2743871458 0.14537142 0.6275609376 1.104001504e-38
0.2743871458 0.14537142 0.6260466576 9.937986288e-39
0.2763871758 0.14573716 0.6236523676 8.92780564e-39
0.2763871758 0.14573716 0.6221342976 9.66285815e-39
0.2763871758 0.14573716 0.6206161676 1.048721401e-38
0.2773871658 0.14592001 0.6186523676 1.085239099e-38
0.2793871358 0.14628571 0.6162371576 1.122081478e-38
0.2793871358 0.14628571 0.6147133376 1.0853477e-38
0.2813871758 0.14665143 0.6122866776 1.057941244e-38
0.2813871758 0.14665143 0.6107590476 1.030534789e-38
0.2833871458 0.14701715 0.6083209476 1.012238596e-38
0.2833871458 0.14701715 0.6067895276 1.003126092e-38
0.2833871458 0.14701715 0.6052580976 9.939066689e-39
0.2853871758 0.14738287 0.6028047476 1.003054345e-38
0.2853871758 0.14738287 0.6012695076 1.021205645e-38
0.2873871558 0.14774857 0.5988047676 9.935826887e-39
0.2873871558 0.14774857 0.5972657176 9.752521634e-39
0.2893871858 0.14811431 0.5947895276 9.661053278e-39
0.2893871858 0.14811431 0.5932466376 9.569562501e-39
0.2893871858 0.14811431 0.5917037676 9.478073126e-39
0.2893871858 0.14811431 0.5901609276 9.477001132e-39
0.2913871658 0.14848 0.5876656976 9.569200966e-39
0.2913871658 0.14848 0.5861190176 9.751797163e-39
0.2913871658 0.14848 0.5845723676 9.935112225e-39
0.2933871358 0.1488457 0.5820619076 1.020990405e-38
0.2943871858 0.14902858 0.5800276076 1.011771263e-38
0.2963871558 0.1493943 0.5775037976 1.002694912e-38
0.2983871958 0.14976001 0.5749723576 9.844710257e-39
0.2983871958 0.14976001 0.5734123576 9.65996587e-39
0.3003871658 0.15012571 0.5708695276 9.659251208e-39
0.3003871658 0.15012571 0.5693057176 9.658537947e-39
0.3003871658 0.15012571 0.5677418976 9.657465954e-39
0.3023871358 0.15049143 0.5651838176 9.750017514e-39
0.3003871658 0.15012571 0.5646142876 9.842567672e-39
0.3003871658 0.15012571 0.5630504776 1.00244394e-38
0.3023871358 0.15049143 0.5604809476 9.749287437e-39
0.3023871358 0.15049143 0.5589133476 9.565623451e-39
0.3023871358 0.15049143 0.5573457176 9.383037064e-39
0.3023871358 0.15049143 0.5557781076 9.197203868e-39
0.3023871358 0.15049143 0.5542104776 9.013162933e-39
0.3063871458 0.15122285 0.5505933076 8.922050507e-39
0.3063871458 0.15122285 0.5490180776 8.740178782e-39
0.3083871858 0.15158859 0.5464104676 8.647995764e-39
0.3083871858 0.15158859 0.5448313876 8.280307658e-39
0.3083871858 0.15158859 0.5432523776 8.003350826e-39
0.3103871558 0.15195429 0.5406294976 7.265781583e-39
0.3103871558 0.15195429 0.5390466676 6.53146055e-39
0.1543871358 0.12471429 0.8920466706 1.306327843e-38
0.1543871358 0.12471429 0.8907609606 1.278813488e-38
0.1543871358 0.12471429 0.8894752446 1.278813908e-38
0.1553871858 0.12489906 0.8880619066 1.288034172e-38
0.1553871858 0.12489906 0.8867742896 1.278887476e-38
0.1573871558 0.12526858 0.8852238166 1.278923069e-38
0.1573871558 0.12526858 0.8839323846 1.288034592e-38
0.1583871458 0.12545332 0.8825057256 1.288068924e-38
0.1583871458 0.12545332 0.8812123866 1.278812087e-38
0.1593871358 0.1256381 0.8797800126 1.278777755e-38
0.1593871358 0.1256381 0.8784847736 1.288070466e-38
0.1593871358 0.1256381 0.8771895346 1.306473158e-38
0.1613871658 0.12600763 0.8756047586 1.297181848e-38
0.1623871558 0.12619238 0.8741590476 1.287961865e-38
0.1623871558 0.12619238 0.8728580976 1.269414979e-38
0.1623871558 0.12619238 0.8715571476 1.251046619e-38
0.1623871558 0.12619238 0.8702561976 1.241754328e-38
0.1633871458 0.12637714 0.8688009676 1.223316043e-38
0.1633871458 0.12637714 0.8674981076 1.214133194e-38
0.1653871758 0.12674668 0.8658790476 1.214132774e-38
0.1653871758 0.12674668 0.8645723776 1.223602889e-38
0.1653871758 0.12674668 0.8632657076 1.23335985e-38
0.1683871358 0.12730095 0.8614676276 1.196373978e-38
0.1683871358 0.12730095 0.8601552376 1.168607529e-38
0.1703871658 0.1276705 0.8585076176 1.149953024e-38
0.1723871458 0.12804 0.8568523876 1.131299079e-38
0.1743871758 0.12840953 0.8551895276 1.121972316e-38
0.1763871558 0.12877905 0.8535190576 1.121866098e-38
0.1763871558 0.12877905 0.8521914376 1.038928707e-38
0.1773871358 0.12896381 0.8506866676 9.555231422e-39
0.1773871358 0.12896381 0.8493571576 1.001871229e-38
0.1793871758 0.12933333 0.8476657076 1.048218335e-38
0.1793871758 0.12933333 0.8463323776 1.085202665e-38
0.1803871558 0.12951809 0.8448142976 1.122188116e-38
0.1803871558 0.12951809 0.8434790476 1.139837891e-38
0.1803871558 0.12951809 0.8421438176 1.157488086e-38
0.1823871358 0.12988763 0.8404276176 1.158421491e-38
0.1823871358 0.12988763 0.8390885876 1.167676507e-38
0.1823871358 0.12988763 0.8377495376 1.214024594e-38
0.1823871358 0.12988763 0.8364104776 1.269412737e-38
0.1833871858 0.13007239 0.8348733276 1.297178625e-38
0.1833871858 0.13007239 0.8335323776 1.333805624e-38
0.1833871858 0.13007239 0.8321914176 1.333842058e-38
0.1833871858 0.13007239 0.8308504776 1.324694522e-38
0.1833871858 0.13007239 0.8295095176 1.334021845e-38
0.1843871658 0.13025714 0.8279609676 1.343421194e-38
0.1843871658 0.13025714 0.8266180976 1.352605305e-38
0.1863871458 0.13062666 0.8248523676 1.361824587e-38
0.1863871458 0.13062666 0.8235057076 1.352605164e-38
0.1863871458 0.13062666 0.8221590576 1.352606426e-38
0.1873871258 0.13081144 0.8205952476 1.352571813e-38
0.1873871258 0.13081144 0.8192466776 1.352319019e-38
0.1893871658 0.13118096 0.8174561976 1.324802702e-38
0.1903871558 0.13136572 0.8158809476 1.306542102e-38
0.1903871558 0.13136572 0.8145266676 1.278882712e-38
0.1923871858 0.13173524 0.8127190376 1.251224584e-38
0.1933871758 0.13192001 0.8111323676 1.223602328e-38
0.1933871758 0.13192001 0.8097723776 1.196016367e-38
0.1953871458 0.13228953 0.8079476176 1.186905264e-38
0.1953871458 0.13228953 0.8065838176 1.177793181e-38
0.1953871458 0.13228953 0.8052200076 1.168429985e-38
0.1963871358 0.13247429 0.8036180976 1.159067209e-38
0.1983871658 0.13284382 0.8017723776 1.131444954e-38
0.1993871558 0.13302858 0.8001609576 1.103823259e-38
0.1993871558 0.13302858 0.7987895276 1.076165832e-38
0.2013871858 0.1333981 0.7969266576 1.057726565e-38
0.2013871858 0.1333981 0.7955514176 1.039394919e-38
0.2023871758 0.13358286 0.7939266676 1.011914755e-38
0.2043871458 0.13395239 0.7920466576 1.011985241e-38
0.2053871358 0.13413715 0.7904123876 1.011805454e-38
0.2053871358 0.13413715 0.7890295176 1.002585751e-38
0.2053871358 0.13413715 0.7876466776 9.935815677e-39
0.2053871358 0.13413715 0.7862638176 9.845773843e-39
0.2053871358 0.13413715 0.7848809576 9.845787856e-39
0.2053871358 0.13413715 0.7834981076 9.662848341e-39
0.2073871658 0.13450667 0.7815857076 9.478804604e-39
0.2403871658 0.14060381 0.7496561776 8.559718164e-39
0.2423871358 0.14097333 0.7476123976 8.376048573e-39
0.2443871758 0.14134286 0.7455609576 8.284211676e-39
0.2463871458 0.14171238 0.7435019076 8.283851542e-39
0.2473871358 0.14189714 0.7417381076 8.375328306e-39
0.2493871658 0.14226668 0.7396657076 8.283134077e-39
0.2493871658 0.14226668 0.7381990376 8.19094125e-39
0.2473871358 0.14189714 0.7373495376 8.18915039e-39
0.2473871358 0.14189714 0.7358866776 8.188075595e-39
0.2473871358 0.14189714 0.7344238076 8.186643468e-39
0.2473871358 0.14189714 0.7329609676 8.185563066e-39
0.2473871358 0.14189714 0.7314981076 8.001171807e-39
0.2473871358 0.14189714 0.7300352576 7.816790356e-39
0.2473871358 0.14189714 0.7285723776 7.724961866e-39
0.2473871358 0.14189714 0.7271095176 7.633120765e-39
0.2493871658 0.14226668 0.7249990376 7.265414443e-39
0.2513871358 0.14263619 0.7228809576 6.897715127e-39
0.2523871858 0.14282095 0.7210828576 7.172864284e-39
0.2523871858 0.14282095 0.7196104776 7.448017646e-39
0.2523871858 0.14282095 0.7181380676 7.539142683e-39
0.2523871858 0.14282095 0.7166657076 7.540933543e-39
0.2543871658 0.14319047 0.7145228676 7.54093074e-39
0.2523871858 0.14282095 0.7137209476 7.632764835e-39
0.2523871858 0.14282095 0.7122485576 7.63204737e-39
0.2523871858 0.14282095 0.7107762076 7.631695644e-39
0.2523871858 0.14282095 0.7093037876 7.448750525e-39
0.2543871658 0.14319047 0.7071418976 7.265795596e-39
0.2523871858 0.14282095 0.7063590576 7.544171944e-39
0.2543871658 0.14319047 0.7041895076 7.820027355e-39
0.2523871858 0.14282095 0.7034142876 7.911135578e-39
0.2543871658 0.14319047 0.7012371676 7.910781049e-39
0.2543871658 0.14319047 0.6997609376 8.002622151e-39
0.2543871658 0.14319047 0.6982847676 7.998684502e-39
0.2543871658 0.14319047 0.6968085676 8.000845304e-39
0.2563871358 0.14356001 0.6946124076 8.001205438e-39
0.2563871358 0.14356001 0.6931323976 8.003719367e-39
0.2563871358 0.14356001 0.6916523876 8.003706756e-39
0.2563871358 0.14356001 0.6901723676 8.09552964e-39
0.2583871658 0.14392953 0.6879571376 8.188435728e-39
0.2583871658 0.14392953 0.6864733376 8.279908288e-39
0.2593871558 0.14411429 0.6846180776 8.371026319e-39
0.2593871558 0.14411429 0.6831323776 8.461785618e-39
0.2593871558 0.14411429 0.6816466676 8.643311223e-39
0.2593871558 0.14411429 0.6801609676 8.55255893e-39
0.2593871558 0.14411429 0.6786752576 8.552916261e-39
0.2613871858 0.14448382 0.6764275976 8.554708522e-39
0.2613871858 0.14448382 0.6749380776 8.646181082e-39
0.2613871858 0.14448382 0.6734485576 8.739806036e-39
0.2613871858 0.14448382 0.6719590376 8.923835761e-39
0.2613871858 0.14448382 0.6704695176 8.923835761e-39
0.2613871858 0.14448382 0.6689799976 8.923481233e-39
0.2633871658 0.14485334 0.6667056976 8.923126704e-39
0.2633871658 0.14485334 0.6652123576 9.013886003e-39
0.2633871658 0.14485334 0.6637190576 9.107156429e-39
0.2633871658 0.14485334 0.6622257176 9.107506753e-39
0.2633871658 0.14485334 0.6607323576 9.198976511e-39
0.2653871358 0.14522286 0.6584352176 9.290819013e-39
0.2633871658 0.14485334 0.6577457176 9.108232626e-39
0.2653871358 0.14522286 0.6554409476 9.017833461e-39
0.2673871758 0.14559239 0.6531285576 9.384818114e-39
0.2673871758 0.14559239 0.6516275976 9.752160099e-39
0.2673871758 0.14559239 0.6501266576 9.752160099e-39
0.2673871758 0.14559239 0.6486256976 9.844002602e-39
0.2673871758 0.14559239 0.6471247676 9.843652277e-39
0.2673871758 0.14559239 0.6456237976 9.935479365e-39
0.2673871758 0.14559239 0.6441228376 1.011878322e-38
0.2683871558 0.14577715 0.6422009376 1.030245841e-38
0.2683871558 0.14577715 0.6406980976 1.011915036e-38
0.2683871558 0.14577715 0.6391952276 1.002802532e-38
0.2683871558 0.14577715 0.6376923876 1.012236634e-38
0.2683871558 0.14577715 0.6361895176 1.021349418e-38
0.2743871458 0.14688571 0.6321038276 1.021314525e-38
0.2743871458 0.14688571 0.6305895376 1.030461501e-38
0.2743871458 0.14688571 0.6290752276 1.039680223e-38
0.2743871458 0.14688571 0.6275609376 1.058226549e-38
0.2743871458 0.14688571 0.6260466576 9.937623352e-39
0.2763871758 0.14725524 0.6236523676 9.294435765e-39
0.2763871758 0.14725524 0.6221342976 9.75435173e-39
0.2773871658 0.14744002 0.6201723776 1.02113558e-38
0.2773871658 0.14744002 0.6186523676 1.039285478e-38
0.2793871358 0.14780952 0.6162371576 1.057760477e-38
0.2793871358 0.14780952 0.6147133376 1.039465404e-38
0.2813871758 0.14817905 0.6122866776 1.030354162e-38
0.2813871758 0.14817905 0.6107590476 1.01205951e-38
0.2833871458 0.14854857 0.6083209476 9.937640167e-39
0.2833871458 0.14854857 0.6067895276 9.844009608e-39
0.2853871758 0.14891811 0.6043399776 9.842571876e-39
0.2853871758 0.14891811 0.6028047476 9.843287939e-39
0.2853871758 0.14891811 0.6012695076 9.843998398e-39
0.2873871558 0.14928761 0.5988047676 9.384815312e-39
0.2873871558 0.14928761 0.5972657176 9.017495748e-39
0.2893871858 0.14965716 0.5947895276 9.109712397e-39
0.2893871858 0.14965716 0.5932466376 9.293355363e-39
0.2913871658 0.15002666 0.5907590376 9.202209306e-39
0.2913871658 0.15002666 0.5892123876 9.201853376e-39
0.2913871658 0.15002666 0.5876656976 9.385168439e-39
0.2933871358 0.15039618 0.5851628776 9.475929139e-39
0.2933871358 0.15039618 0.5836123776 9.659960265e-39
0.2943871858 0.15058097 0.5815800076 9.936547155e-39
0.2943871858 0.15058097 0.5800276076 9.843641067e-39
0.2963871558 0.15095048 0.5775037976 9.842562067e-39
0.2963871558 0.15095048 0.5759476076 9.658529539e-39
0.2983871958 0.15132001 0.5734123576 9.474858547e-39
0.3003871658 0.15168953 0.5708695276 9.383024452e-39
0.3003871658 0.15168953 0.5693057176 9.383384586e-39
0.3023871358 0.15205905 0.5667514176 9.474146687e-39
0.3023871358 0.15205905 0.5651838176 9.564903184e-39
0.3023871358 0.15205905 0.5636161776 9.657096011e-39
0.3023871358 0.15205905 0.5620485776 9.749287437e-39
0.3023871358 0.15205905 0.5604809476 9.565613642e-39
0.3043871758 0.15242857 0.5579037876 9.381239198e-39
0.3043871758 0.15242857 0.5563323776 9.287982785e-39
0.3043871758 0.15242857 0.5547609576 9.19505848e-39
0.3043871758 0.15242857 0.5531895076 8.920615577e-39
0.3063871458 0.1527981 0.5505933076 8.645829356e-39
0.3083871858 0.15316762 0.5479895176 8.461445103e-39
0.3103871558 0.15353714 0.5453780876 8.277416779e-39
0.3103871558 0.15353714 0.5437952276 8.09374859e-39
0.3103871558 0.15353714 0.5422123876 7.910064986e-39
0.3083871858 0.15316762 0.5416733276 7.171422348e-39
0.3083871858 0.15316762 0.5400942476 6.340958228e-39
0.1533871458 0.12581334 0.8973038146 1.278490629e-38
0.1533871458 0.12581334 0.8960200056 1.287781798e-38
0.1533871458 0.12581334 0.8947361956 1.324659489e-38
0.1533871458 0.12581334 0.8934523866 1.370541224e-38
0.1543871358 0.126 0.8920466706 1.324838575e-38
0.1543871358 0.126 0.8907609606 1.287997318e-38
0.1543871358 0.126 0.8894752446 1.278742582e-38
0.1553871858 0.12618668 0.8880619066 1.269703927e-38
0.1553871858 0.12618668 0.8867742896 1.260701285e-38
0.1573871558 0.12656 0.8852238166 1.260556811e-38
0.1573871558 0.12656 0.8839323846 1.26963176e-38
0.1573871558 0.12656 0.8826409606 1.278778596e-38
0.1573871558 0.12656 0.8813495296 1.260374922e-38
0.1573871558 0.12656 0.8800580976 1.25126438e-38
0.1583871458 0.12674667 0.8786257166 1.251337388e-38
0.1593871358 0.12693334 0.8771895346 1.251264801e-38
0.1613871658 0.12730667 0.8756047586 1.242008664e-38
0.1613871658 0.12730667 0.8743057176 1.241900203e-38
0.1613871658 0.12730667 0.8730066676 1.232608334e-38
0.1623871558 0.12749334 0.8715571476 1.223424083e-38
0.1623871558 0.12749334 0.8702561976 1.205056283e-38
0.1623871558 0.12749334 0.8689552376 1.186653311e-38
0.1633871458 0.12767999 0.8674981076 1.168250198e-38
0.1633871458 0.12767999 0.8661952376 1.159030775e-38
0.1653871758 0.12805334 0.8645723776 1.177362001e-38
0.1653871758 0.12805334 0.8632657076 1.195549174e-38
0.1663871658 0.12824 0.8617952376 1.140303963e-38
0.1693871858 0.1288 0.8599895176 1.094529848e-38
0.1693871858 0.1288 0.8586752376 1.056396733e-38
0.1743871758 0.12973335 0.8565133276 1.020093014e-38
0.1743871758 0.12973335 0.8551895276 1.057293424e-38
0.1763871558 0.13010666 0.8535190576 1.094459503e-38
0.1763871558 0.13010666 0.8521914376 1.149598075e-38
0.1773871358 0.13029332 0.8506866676 1.205093978e-38
0.1773871358 0.13029332 0.8493571576 1.251406332e-38
0.1773871358 0.13029332 0.8480276276 1.29764722e-38
0.1793871758 0.13066667 0.8463323776 1.353071657e-38
0.1803871558 0.13085334 0.8448142976 1.407957435e-38
0.1803871558 0.13085334 0.8434790476 1.389410689e-38
0.1823871358 0.13122666 0.8417666776 1.370468217e-38
0.1823871358 0.13122666 0.8404276176 1.27809322e-38
0.1823871358 0.13122666 0.8390885876 1.195441134e-38
0.1823871358 0.13122666 0.8377495376 1.223027656e-38
0.1823871358 0.13122666 0.8364104776 1.260085134e-38
0.1833871858 0.13141334 0.8348733276 1.278775513e-38
0.1833871858 0.13141334 0.8335323776 1.296999399e-38
0.1833871858 0.13141334 0.8321914176 1.287672777e-38
0.1833871858 0.13141334 0.8308504776 1.287780957e-38
0.1843871658 0.13160001 0.8293038076 1.29710856e-38
0.1843871658 0.13160001 0.8279609676 1.306471336e-38
0.1863871458 0.13197334 0.8261990476 1.315870125e-38
0.1863871458 0.13197334 0.8248523676 1.325018362e-38
0.1863871458 0.13197334 0.8235057076 1.3157995e-38
0.1873871258 0.13216001 0.8219438176 1.306616511e-38
0.1873871258 0.13216001 0.8205952476 1.297469395e-38
0.1873871258 0.13216001 0.8192466776 1.297252894e-38
0.1903871558 0.13272001 0.8172352376 1.278812927e-38
0.1923871858 0.13309334 0.8154352376 1.26037282e-38
0.1923871858 0.13309334 0.8140771376 1.232749304e-38
0.1923871858 0.13309334 0.8127190376 1.214311019e-38
0.1933871758 0.13328001 0.8111323676 1.186689184e-38
0.1933871758 0.13328001 0.8097723776 1.159174549e-38
0.1953871458 0.13365333 0.8079476176 1.140843323e-38
0.1953871458 0.13365333 0.8065838176 1.122404197e-38
0.1953871458 0.13365333 0.8052200076 1.113184353e-38
0.1983871658 0.13421334 0.8031418976 1.113076594e-38
0.1993871558 0.13440001 0.8015323876 1.076234635e-38
0.1993871558 0.13440001 0.8001609576 1.048612941e-38
0.2013871858 0.13477334 0.7983018976 1.021027119e-38
0.2013871858 0.13477334 0.7969266576 9.934405971e-39
0.2013871858 0.13477334 0.7955514176 9.749658781e-39
0.2023871758 0.13496001 0.7939266676 9.659247004e-39
0.2043871458 0.13533334 0.7920466576 9.75250622e-39
0.2053871358 0.13552 0.7904123876 9.842905385e-39
0.2053871358 0.13552 0.7890295176 9.74999229e-39
0.2073871658 0.13589333 0.7871323776 9.752143283e-39
0.2073871658 0.13589333 0.7857457176 9.754295678e-39
0.2073871658 0.13589333 0.7843590476 9.754302684e-39
0.2073871658 0.13589333 0.7829723776 9.570998832e-39
0.2443871758 0.1428 0.7455609576 8.192383186e-39
0.2463871458 0.14317334 0.7435019076 7.733560234e-39
0.2473871358 0.14336 0.7417381076 7.365499383e-39
0.2493871658 0.14373334 0.7396657076 7.916869691e-39
0.2493871658 0.14373334 0.7381990376 8.465730274e-39
0.2493871658 0.14373334 0.7367323776 8.556489572e-39
0.2493871658 0.14373334 0.7352657076 8.64832647e-39
0.2493871658 0.14373334 0.7337990476 8.648688005e-39
0.2493871658 0.14373334 0.7323323876 8.739804635e-39
0.2493871658 0.14373334 0.7308657076 8.463938013e-39
0.2493871658 0.14373334 0.7293990376 8.279566371e-39
0.2493871658 0.14373334 0.7279323876 8.095552061e-39
0.2493871658 0.14373334 0.7264657076 7.911865654e-39
0.2513871358 0.14410666 0.7243514276 7.269003168e-39
0.2513871358 0.14410666 0.7228809576 6.715836395e-39
0.2543871658 0.14466667 0.7204276276 7.081024584e-39
0.2523871858 0.14429334 0.7196104776 7.448010639e-39
0.2543871658 0.14466667 0.7174752276 7.355820614e-39
0.2543871658 0.14466667 0.7159990576 7.355819213e-39
0.2543871658 0.14466667 0.7145228676 7.356176544e-39
0.2543871658 0.14466667 0.7130466676 7.356892608e-39
0.2543871658 0.14466667 0.7115704676 7.265057112e-39
0.2543871658 0.14466667 0.7100942976 7.172508355e-39
0.2543871658 0.14466667 0.7086180976 6.896288605e-39
0.2543871658 0.14466667 0.7071418976 6.62294432e-39
0.2543871658 0.14466667 0.7056657376 7.084284005e-39
0.2543871658 0.14466667 0.7041895076 7.543448874e-39
0.2543871658 0.14466667 0.7027133376 7.543436262e-39
0.2543871658 0.14466667 0.7012371676 7.5427216e-39
0.2583871658 0.14541334 0.6983438076 7.542367071e-39
0.2563871358 0.14504001 0.6975724076 7.633489307e-39
0.2583871658 0.14541334 0.6953761876 7.724611542e-39
0.2583871658 0.14541334 0.6938923876 7.817883369e-39
0.2583871658 0.14541334 0.6924085576 7.63600744e-39
0.2583871658 0.14541334 0.6909247576 7.543804803e-39
0.2593871558 0.14560001 0.6890752276 7.635274561e-39
0.2593871558 0.14560001 0.6875895176 7.819658814e-39
0.2593871558 0.14560001 0.6861038176 7.820730807e-39
0.2593871558 0.14560001 0.6846180776 7.910772641e-39
0.2593871558 0.14560001 0.6831323776 8.001892074e-39
0.2613871858 0.14597335 0.6808961576 8.185207137e-39
0.2613871858 0.14597335 0.6794066376 8.18521134e-39
0.2613871858 0.14597335 0.6779171176 8.185214143e-39
0.2613871858 0.14597335 0.6764275976 8.187728073e-39
0.2613871858 0.14597335 0.6749380776 8.28027683e-39
0.2633871658 0.14634667 0.6726790276 8.464659682e-39
0.2633871658 0.14634667 0.6711856976 8.648329273e-39
0.2633871658 0.14634667 0.6696923876 8.556492375e-39
0.2633871658 0.14634667 0.6681990576 8.555776312e-39
0.2653871358 0.14671999 0.6659209676 8.647254477e-39
0.2633871658 0.14634667 0.6652123576 8.739452909e-39
0.2633871658 0.14634667 0.6637190576 8.739817247e-39
0.2633871658 0.14634667 0.6622257176 8.831295412e-39
0.2653871358 0.14671999 0.6599323976 9.014609073e-39
0.2653871358 0.14671999 0.6584352176 9.198633192e-39
0.2653871358 0.14671999 0.6569380976 9.108228422e-39
0.2653871358 0.14671999 0.6554409476 9.108585753e-39
0.2653871358 0.14671999 0.6539437976 9.476285069e-39
0.2673871758 0.14709334 0.6516275976 9.843628455e-39
0.2673871758 0.14709334 0.6501266576 9.843988589e-39
0.2673871758 0.14709334 0.6486256976 9.843996996e-39
0.2673871758 0.14709334 0.6471247676 1.021098866e-38
0.2683871558 0.14728001 0.6452066876 1.05779621e-38
0.2683871558 0.14728001 0.6437038176 1.03942827e-38
0.2683871558 0.14728001 0.6422009376 1.030246122e-38
0.2683871558 0.14728001 0.6406980976 1.01195217e-38
0.2683871558 0.14728001 0.6391952276 9.935123435e-39
0.2703871358 0.14765333 0.6368390576 1.003017912e-38
0.2703871358 0.14765333 0.6353323676 1.012094122e-38
0.2743871458 0.14840001 0.6321038276 1.011986782e-38
0.2743871458 0.14840001 0.6305895376 1.021205925e-38
0.2743871458 0.14840001 0.6290752276 1.012093841e-38
0.2743871458 0.14840001 0.6275609376 1.012093421e-38
0.2763871758 0.14877334 0.6251704676 9.937257613e-39
0.2773871658 0.14896001 0.6232123676 9.753959366e-39
0.2773871658 0.14896001 0.6216923876 9.846167608e-39
0.2773871658 0.14896001 0.6201723776 9.935477964e-39
0.2793871358 0.14933333 0.6177609776 9.933670289e-39
0.2793871358 0.14933333 0.6162371576 9.933675894e-39
0.2813871758 0.14970668 0.6138142876 9.935835295e-39
0.2833871458 0.15008 0.6113838176 1.002731346e-38
0.2833871458 0.15008 0.6098523676 9.84364527e-39
0.2853871758 0.15045334 0.6074104576 9.750733577e-39
0.2853871758 0.15045334 0.6058752176 9.749655979e-39
0.2853871758 0.15045334 0.6043399776 9.75001331e-39
0.2873871558 0.15082668 0.6018828376 9.658895278e-39
0.2873871558 0.15082668 0.6003437876 9.567051374e-39
0.2893871858 0.15120001 0.5978752376 8.924553226e-39
0.2893871858 0.15120001 0.5963323676 8.282081702e-39
0.2893871858 0.15120001 0.5947895276 8.650518101e-39
0.2913871658 0.15157335 0.5923057176 9.018557932e-39
0.2913871658 0.15157335 0.5907590376 9.019254377e-39
0.2913871658 0.15157335 0.5892123876 9.017464919e-39
0.2913871658 0.15157335 0.5876656976 9.109304619e-39
0.2933871358 0.15194666 0.5851628776 9.292621083e-39
0.2933871358 0.15194666 0.5836123776 9.476656413e-39
0.2943871858 0.15213333 0.5815800076 9.660695947e-39
0.2963871558 0.15250666 0.5790600176 9.66106589e-39
0.2963871558 0.15250666 0.5775037976 9.658543552e-39
0.2983871958 0.15288001 0.5749723576 9.475578814e-39
0.2983871958 0.15288001 0.5734123576 9.383381783e-39
0.2983871958 0.15288001 0.5718523476 9.199349256e-39
0.3023871358 0.15362667 0.5683190776 9.107515161e-39
0.3043871758 0.15400001 0.5657609376 9.199350657e-39
0.3043871758 0.15400001 0.5641895176 9.380510523e-39
0.3043871758 0.15400001 0.5626180976 9.471988688e-39
0.3043871758 0.15400001 0.5610466576 9.564540247e-39
0.3043871758 0.15400001 0.5594752076 9.381945452e-39
0.3043871758 0.15400001 0.5579037876 9.196487805e-39
0.3043871758 0.15400001 0.5563323776 9.195777346e-39
0.3043871758 0.15400001 0.5547609576 9.195766136e-39
0.3043871758 0.15400001 0.5531895076 8.736577445e-39
0.3083871858 0.15474667 0.5495685276 8.369239664e-39
0.3083871858 0.15474667 0.5479895176 8.185572875e-39
0.3103871558 0.15512 0.5453780876 7.999392158e-39
0.3103871558 0.15512 0.5437952276 7.905405668e-39
0.3123871858 0.15549333 0.5411723776 7.901809936e-39
0.3123871858 0.15549333 0.5395856776 7.072054873e-39
0.3123871858 0.15549333 0.5379990276 6.245217313e-39
0.1493871458 0.12634286 0.9130752446 1.223281711e-38
0.1483871558 0.12615429 0.9118923836 1.213452583e-38
0.1483871558 0.12615429 0.9106180996 1.213919076e-38
0.1493871458 0.12634286 0.9092466706 1.223245698e-38
0.1493871458 0.12634286 0.9079704836 1.223317024e-38
0.1493871458 0.12634286 0.9066942886 1.2325719e-38
0.1493871458 0.12634286 0.9054181006 1.241719296e-38
0.1493871458 0.12634286 0.9041419056 1.260086815e-38
0.1503871258 0.12653142 0.9027590556 1.250867813e-38
0.1503871258 0.12653142 0.9014809536 1.241650352e-38
0.1503871258 0.12653142 0.9002028656 1.25998368e-38
0.1513871758 0.12672001 0.8988123866 1.278564477e-38
0.1513871758 0.12672001 0.8975323836 1.278455316e-38
0.1533871458 0.12709714 0.8960200056 1.287496494e-38
0.1533871458 0.12709714 0.8947361956 1.29696815e-38
0.1533871458 0.12709714 0.8934523866 1.315405595e-38
0.1533871458 0.12709714 0.8921685766 1.287745925e-38
0.1543871358 0.12728572 0.8907609606 1.26012409e-38
0.1543871358 0.12728572 0.8894752446 1.250941241e-38
0.1543871358 0.12728572 0.8881895276 1.250943203e-38
0.1543871358 0.12728572 0.8869038176 1.241761755e-38
0.1553871858 0.12747429 0.8854866656 1.232612397e-38
0.1553871858 0.12747429 0.8841990486 1.232754349e-38
0.1573871558 0.12785143 0.8826409606 1.241973632e-38
0.1573871558 0.12785143 0.8813495296 1.232718335e-38
0.1583871458 0.12804 0.8799190546 1.223499893e-38
0.1583871458 0.12804 0.8786257166 1.223357381e-38
0.1583871458 0.12804 0.8773323846 1.223212347e-38
0.1613871658 0.12860572 0.8756047586 1.223210946e-38
0.1613871658 0.12860572 0.8743057176 1.223245838e-38
0.1623871558 0.1287943 0.8728580976 1.195873575e-38
0.1623871558 0.1287943 0.8715571476 1.168322645e-38
0.1623871558 0.1287943 0.8702561976 1.140448997e-38
0.1633871458 0.12898286 0.8688009676 1.112610522e-38
0.1633871458 0.12898286 0.8674981076 1.103785004e-38
0.1653871758 0.12936001 0.8658790476 1.094960467e-38
0.1663871658 0.12954856 0.8644123776 1.048540914e-38
0.1663871658 0.12954856 0.8631038076 1.011591056e-38
0.1683871358 0.12992571 0.8614676276 9.930443099e-39
0.1703871658 0.13030286 0.8598238076 9.745344183e-39
0.1733871358 0.13086857 0.8580047776 1.038497247e-38
0.1743871758 0.13105716 0.8565133276 1.102494688e-38
0.1763871558 0.13143429 0.8548466676 1.131157127e-38
0.1773871358 0.13162287 0.8533457176 1.149704854e-38
0.1763871558 0.13143429 0.8521914376 1.204986919e-38
0.1763871558 0.13143429 0.8508638176 1.251120047e-38
0.1773871358 0.13162287 0.8493571576 1.325055076e-38
0.1773871358 0.13162287 0.8480276276 1.398740254e-38
0.1793871758 0.132 0.8463323776 1.407961218e-38
0.1803871558 0.13218857 0.8448142976 1.42636349e-38
0.1803871558 0.13218857 0.8434790476 1.435367113e-38
0.1823871358 0.13256571 0.8417666776 1.453802455e-38
0.1823871358 0.13256571 0.8404276176 1.37993609e-38
0.1823871358 0.13256571 0.8390885876 1.30610896e-38
0.1823871358 0.13256571 0.8377495376 1.287598368e-38
0.1823871358 0.13256571 0.8364104776 1.26912449e-38
0.1833871858 0.1327543 0.8348733276 1.259941921e-38
0.1833871858 0.1327543 0.8335323776 1.250794525e-38
0.1833871858 0.1327543 0.8321914176 1.250830679e-38
0.1833871858 0.1327543 0.8308504776 1.241683843e-38
0.1843871658 0.13294287 0.8293038076 1.241720557e-38
0.1843871658 0.13294287 0.8279609676 1.24175573e-38
0.1863871458 0.13332 0.8261990476 1.260194015e-38
0.1863871458 0.13332 0.8248523676 1.269486305e-38
0.1873871258 0.13350858 0.8232923976 1.260375623e-38
0.1873871258 0.13350858 0.8219438176 1.25126368e-38
0.1873871258 0.13350858 0.8205952476 1.251407033e-38
0.1893871658 0.13388571 0.8188085776 1.242222642e-38
0.1903871558 0.13407429 0.8172352376 1.223747223e-38
0.1903871558 0.13407429 0.8158809476 1.214490665e-38
0.1923871858 0.13445143 0.8140771376 1.186902882e-38
0.1923871858 0.13445143 0.8127190376 1.168249778e-38
0.1933871758 0.13464001 0.8111323676 1.14070025e-38
0.1933871758 0.13464001 0.8097723776 1.112897928e-38
0.1953871458 0.13501714 0.8079476176 1.085633845e-38
0.1953871458 0.13501714 0.8065838176 1.067302198e-38
0.1963871358 0.13520572 0.8049838076 1.057938862e-38
0.1983871658 0.13558286 0.8031418976 1.03932009e-38
0.1993871558 0.13577144 0.8015323876 1.020880824e-38
0.1993871558 0.13577144 0.8001609576 9.932950022e-39
0.2013871858 0.13614857 0.7983018976 9.658526737e-39
0.2023871758 0.13633715 0.7966809476 9.291547688e-39
0.2023871758 0.13633715 0.7953037976 9.475222885e-39
0.2043871458 0.13671429 0.7934276076 9.56704717e-39
0.2053871358 0.13690285 0.7917952476 9.844696244e-39
0.2053871358 0.13690285 0.7904123876 1.012199639e-38
0.2073871658 0.13728002 0.7885190376 9.935815677e-39
0.2073871658 0.13728002 0.7871323776 9.660307787e-39
0.2073871658 0.13728002 0.7857457176 9.661741315e-39
0.2073871658 0.13728002 0.7843590476 9.570983418e-39
0.2073871658 0.13728002 0.7829723776 9.478790591e-39
0.2513871358 0.14557715 0.7405266676 7.915797698e-39
0.2513871358 0.14557715 0.7390561976 8.557925903e-39
0.2513871358 0.14557715 0.7375857176 9.291891007e-39
0.2513871358 0.14557715 0.7361152376 9.108218613e-39
0.2513871358 0.14557715 0.7346447676 8.924549022e-39
0.2513871358 0.14557715 0.7331742876 9.016027187e-39
0.2513871358 0.14557715 0.7317038176 9.017104786e-39
0.2513871358 0.14557715 0.7302333176 8.741240966e-39
0.2513871358 0.14557715 0.7287628776 8.465759701e-39
0.2513871358 0.14557715 0.7272923976 8.373590696e-39
0.2513871358 0.14557715 0.7258219076 8.18989448e-39
0.2523871858 0.14576572 0.7240276276 7.913287972e-39
0.2513871358 0.14557715 0.7228809576 7.637059815e-39
0.2543871658 0.14614287 0.7204276276 7.728891107e-39
0.2543871658 0.14614287 0.7189514276 7.912563501e-39
0.2543871658 0.14614287 0.7174752276 7.819294476e-39
0.2563871358 0.14652 0.7153323876 7.726024051e-39
0.2563871358 0.14652 0.7138523976 7.633829822e-39
0.2543871658 0.14614287 0.7130466676 7.541634192e-39
0.2563871358 0.14652 0.7108924076 7.357961799e-39
0.2563871358 0.14652 0.7094123576 7.266126302e-39
0.2563871358 0.14652 0.7079323776 7.082456711e-39
0.2563871358 0.14652 0.7064523676 6.990640833e-39
0.2563871358 0.14652 0.7049723776 7.173974113e-39
0.2563871358 0.14652 0.7034923976 7.449465187e-39
0.2563871358 0.14652 0.7020123876 7.265780182e-39
0.2583871658 0.14689715 0.6998276076 7.174304819e-39
0.2583871658 0.14689715 0.6983438076 7.174306221e-39
0.2583871658 0.14689715 0.6968600076 7.174306221e-39
0.2583871658 0.14689715 0.6953761876 7.266141717e-39
0.2593871558 0.14708571 0.6935323776 7.359054811e-39
0.2593871558 0.14708571 0.6920466676 7.359773677e-39
0.2593871558 0.14708571 0.6905609276 7.355464685e-39
0.2593871558 0.14708571 0.6890752276 7.542361466e-39
0.2593871558 0.14708571 0.6875895176 7.726386987e-39
0.2613871858 0.14746287 0.6853647476 7.726025452e-39
0.2613871858 0.14746287 0.6838752276 7.726026853e-39
0.2613871858 0.14746287 0.6823856776 7.817863751e-39
0.2613871858 0.14746287 0.6808961576 7.909699247e-39
0.2613871858 0.14746287 0.6794066376 7.909699247e-39
0.2613871858 0.14746287 0.6779171176 7.909706253e-39
0.2613871858 0.14746287 0.6764275976 8.000832692e-39
0.2613871858 0.14746287 0.6749380776 8.092303851e-39
0.2633871658 0.14784001 0.6726790276 8.095526837e-39
0.2653871358 0.14821714 0.6704123876 8.187718263e-39
0.2653871358 0.14821714 0.6689152376 8.187356728e-39
0.2653871358 0.14821714 0.6674180876 8.279189422e-39
0.2653871358 0.14821714 0.6659209676 8.371382249e-39
0.2653871358 0.14821714 0.6644238176 8.463945019e-39
0.2653871358 0.14821714 0.6629266676 8.462880032e-39
0.2653871358 0.14821714 0.6614295176 8.553649141e-39
0.2653871358 0.14821714 0.6599323976 8.739125005e-39
0.2653871358 0.14821714 0.6584352176 8.923136513e-39
0.2653871358 0.14821714 0.6569380976 8.923477029e-39
0.2653871358 0.14821714 0.6554409476 8.923831557e-39
0.2673871758 0.14859429 0.6531285576 9.198976511e-39
0.2673871758 0.14859429 0.6516275976 9.565962565e-39
0.2673871758 0.14859429 0.6501266576 9.476640999e-39
0.2683871558 0.14878285 0.6482123676 9.477008139e-39
0.2683871558 0.14878285 0.6467094976 9.659612743e-39
0.2683871558 0.14878285 0.6452066876 9.933673092e-39
0.2683871558 0.14878285 0.6437038176 9.842903984e-39
0.2683871558 0.14878285 0.6422009376 9.84364527e-39
0.2683871558 0.14878285 0.6406980976 9.842951628e-39
0.2703871358 0.14916 0.6383457176 9.842222952e-39
0.2703871358 0.14916 0.6368390576 9.842570474e-39
0.2723871658 0.14953715 0.6344752576 9.842923602e-39
0.2743871458 0.14991429 0.6321038276 9.842560665e-39
0.2743871458 0.14991429 0.6305895376 9.842562067e-39
0.2743871458 0.14991429 0.6290752276 9.75180557e-39
0.2763871758 0.15029144 0.6266885676 9.662471392e-39
0.2763871758 0.15029144 0.6251704676 9.569192558e-39
0.2773871658 0.15048002 0.6232123676 9.567405903e-39
0.2773871658 0.15048002 0.6216923876 9.567771642e-39
0.2793871358 0.15085715 0.6192847476 9.568123368e-39
0.2793871358 0.15085715 0.6177609776 9.566681432e-39
0.2813871758 0.15123428 0.6153418976 9.565613642e-39
0.2813871758 0.15123428 0.6138142876 9.657458947e-39
0.2833871458 0.15161143 0.6113838176 9.657816278e-39
0.2833871458 0.15161143 0.6098523676 9.565979381e-39
0.2853871758 0.15198858 0.6074104576 9.474143885e-39
0.2853871758 0.15198858 0.6058752176 9.474143885e-39
0.2873871558 0.15236571 0.6034218876 9.474143885e-39
0.2873871558 0.15236571 0.6018828376 9.382308389e-39
0.2893871858 0.15274286 0.5994180676 9.382657312e-39
0.2893871858 0.15274286 0.5978752376 9.291170739e-39
0.2913871658 0.15312 0.5953990476 9.291543485e-39
0.2913871658 0.15312 0.5938523676 9.291198765e-39
0.2913871658 0.15312 0.5923057176 9.199350657e-39
0.2913871658 0.15312 0.5907590376 9.107861282e-39
0.2913871658 0.15312 0.5892123876 9.108582951e-39
0.2933871358 0.15349714 0.5867133376 9.01675306e-39
0.2933871358 0.15349714 0.5851628776 9.016761467e-39
0.2943871858 0.15368572 0.5831323476 9.108606773e-39
0.2943871858 0.15368572 0.5815800076 9.199740218e-39
0.2963871558 0.15406287 0.5790600176 9.291232396e-39
0.2963871558 0.15406287 0.5775037976 9.290854046e-39
0.2983871958 0.15444002 0.5749723576 9.198998931e-39
0.2983871958 0.15444002 0.5734123576 9.014604869e-39
0.3003871658 0.15481715 0.5708695276 8.923839965e-39
0.3023871358 0.1551943 0.5683190776 8.924197296e-39
0.3043871758 0.15557143 0.5657609376 8.922044902e-39
0.3043871758 0.15557143 0.5641895176 9.012448271e-39
0.3043871758 0.15557143 0.5626180976 9.012809806e-39
0.3063871458 0.15594856 0.5600447576 9.103211774e-39
0.3043871758 0.15557143 0.5594752076 8.919543584e-39
0.3063871458 0.15594856 0.5568942976 8.73587119e-39
0.3063871458 0.15594856 0.5553190376 8.644753159e-39
0.3063871458 0.15594856 0.5537438076 8.551472924e-39
0.3043871758 0.15557143 0.5531895076 8.275240563e-39
0.3103871558 0.15670286 0.5485438076 8.09085631e-39
0.3103871558 0.15670286 0.5469609476 7.445502315e-39
0.3123871858 0.15708001 0.5443456976 6.800142715e-39
0.3123871858 0.15708001 0.5427590276 7.073496809e-39
0.3123871858 0.15708001 0.5411723776 7.347206833e-39
0.3143871658 0.15745714 0.5385419076 8.174082228e-39
0.3143871658 0.15745714 0.5369514176 9.001399032e-39
0.1483871558 0.12742858 0.9157152426 1.131196083e-38
0.1483871558 0.12742858 0.9144409586 1.103645014e-38
0.1483871558 0.12742858 0.9131666746 1.140378932e-38
0.1483871558 0.12742858 0.9118923836 1.186332414e-38
0.1493871458 0.12761904 0.9105228666 1.186368287e-38
0.1493871458 0.12761904 0.9092466706 1.19558757e-38
0.1493871458 0.12761904 0.9079704836 1.214169908e-38
0.1493871458 0.12761904 0.9066942886 1.232499873e-38
0.1493871458 0.12761904 0.9054181006 1.250865711e-38
0.1493871458 0.12761904 0.9041419056 1.269018412e-38
0.1493871458 0.12761904 0.9028657186 1.259656196e-38
0.1503871258 0.12780952 0.9014809536 1.250653414e-38
0.1503871258 0.12780952 0.9002028656 1.269237154e-38
0.1513871758 0.12800001 0.8988123866 1.287603413e-38
0.1513871758 0.12800001 0.8975323836 1.287638305e-38
0.1513871758 0.12800001 0.8962523816 1.287639006e-38
0.1533871458 0.12838095 0.8947361956 1.26930834e-38
0.1533871458 0.12838095 0.8934523866 1.260088357e-38
0.1533871458 0.12838095 0.8921685766 1.241720697e-38
0.1533871458 0.12838095 0.8908847676 1.232465541e-38
0.1543871358 0.12857142 0.8894752446 1.232429668e-38
0.1543871358 0.12857142 0.8881895276 1.232430789e-38
0.1543871358 0.12857142 0.8869038176 1.223248501e-38
0.1543871358 0.12857142 0.8856181006 1.214135997e-38
0.1553871858 0.12876192 0.8841990486 1.205166986e-38
0.1573871558 0.12914287 0.8826409606 1.205094819e-38
0.1573871558 0.12914287 0.8813495296 1.205058666e-38
0.1583871458 0.12933333 0.8799190546 1.205059086e-38
0.1583871458 0.12933333 0.8786257166 1.205059646e-38
0.1583871458 0.12933333 0.8773323846 1.204843566e-38
0.1613871658 0.12990476 0.8756047586 1.204950485e-38
0.1613871658 0.12990476 0.8743057176 1.204842165e-38
0.1613871658 0.12990476 0.8730066676 1.159138956e-38
0.1623871558 0.13009524 0.8715571476 1.113041561e-38
0.1623871558 0.13009524 0.8702561976 1.075374518e-38
0.1633871458 0.13028571 0.8688009676 1.048253648e-38
0.1633871458 0.13028571 0.8674981076 1.038818285e-38
0.1653871758 0.13066667 0.8658790476 1.038962058e-38
0.1663871658 0.13085715 0.8644123776 9.289033759e-39
0.1663871658 0.13085715 0.8631038076 8.276685302e-39
0.1683871358 0.1312381 0.8614676276 8.458199696e-39
0.1703871658 0.13161905 0.8598238076 8.642960898e-39
0.1733871358 0.13219048 0.8580047776 1.029673131e-38
0.1743871758 0.13238096 0.8565133276 1.195406942e-38
0.1763871558 0.13276191 0.8548466676 1.205056283e-38
0.1773871358 0.13295239 0.8533457176 1.21452794e-38
0.1763871558 0.13276191 0.8521914376 1.261020781e-38
0.1763871558 0.13276191 0.8508638176 1.306902936e-38
0.1773871358 0.13295239 0.8493571576 1.398702979e-38
0.1773871358 0.13295239 0.8480276276 1.49965168e-38
0.1773871358 0.13295239 0.8466980976 1.472030686e-38
0.1793871758 0.13333334 0.8449990576 1.444514649e-38
0.1793871758 0.13333334 0.8436657176 1.490503023e-38
0.1823871358 0.13390477 0.8417666776 1.536346782e-38
0.1823871358 0.13390477 0.8404276176 1.47202396e-38
