# .PCD v0.7 - Point Cloud Data file format
VERSION 0.7
FIELDS x y z rgb
SIZE 4 4 4 4
TYPE F F F F
COUNT 1 1 1 1
WIDTH 911
HEIGHT 1
VIEWPOINT 0 0 0 1 0 0 0
POINTS 911
DATA ascii
0.2583400477 0.04077045135 0.69100004 9.476292075e-39
0.2583400477 0.03945428135 0.69100004 9.201858982e-39
0.2586143337 0.03743332135 0.69300002 9.017833461e-39
0.2586143337 0.03611332135 0.69300002 8.925643436e-39
0.2586143337 0.03479333135 0.69300002 8.833459017e-39
0.2586143337 0.03347334135 0.69300002 8.834187692e-39
0.2583400477 0.03287330135 0.69100004 8.925653245e-39
0.2583400477 0.03155713135 0.69100004 9.019629925e-39
0.2540943347 0.2072333314 0.65100002 1.132269478e-38
0.2539552847 0.2061095224 0.65000004 1.132162419e-38
0.2539552847 0.2048714224 0.65000004 1.123015303e-38
0.2539552847 0.2036333294 0.65000004 1.123051456e-38
0.2539552847 0.2023952294 0.65000004 1.113473722e-38
0.2539552847 0.2011571364 0.65000004 1.11300765e-38
0.2539552847 0.1999190444 0.65000004 1.158925678e-38
0.2539552847 0.1986809434 0.65000004 1.196018609e-38
0.2542333777 0.1971838014 0.65200001 1.24218747e-38
0.2543724347 0.1958104664 0.65300006 1.297540721e-38
0.2543724347 0.1945666584 0.65300006 1.31633928e-38
0.2543724347 0.1933228514 0.65300006 1.334597078e-38
0.2546505277 0.1918047504 0.65500003 1.297574212e-38
0.2547895707 0.1904180934 0.65600002 1.26058778e-38
0.2547895707 0.1891685644 0.65600002 1.23292839e-38
0.2547895707 0.1879190424 0.65600002 1.214490806e-38
0.2547895707 0.1866695204 0.65600002 1.195802108e-38
0.2549286137 0.1852733334 0.65700001 1.177400817e-38
0.2553457637 0.1835761804 0.66000003 1.140740187e-38
0.2554848137 0.1821685644 0.66100001 1.11322331e-38
0.2556238647 0.1807571314 0.66200006 1.122333151e-38
0.2556238647 0.1794961714 0.66200006 1.131445234e-38
0.2557629067 0.1780790414 0.66300005 1.122226232e-38
0.2557629067 0.1768161914 0.66300005 1.113400714e-38
0.2557629067 0.1755533214 0.66300005 1.141166042e-38
0.2557629067 0.1742904714 0.66300005 1.168968504e-38
0.2560409997 0.1726999914 0.66500002 1.214671713e-38
0.2560409997 0.1714333314 0.66500002 1.260733795e-38
0.2560409997 0.1701666614 0.66500002 1.251622973e-38
0.2561800427 0.1687304714 0.66600001 1.251694019e-38
0.2561800427 0.1674619014 0.66600001 1.260877008e-38
0.2563191077 0.1660199914 0.66700006 1.279243827e-38
0.2563191077 0.1647495114 0.66700006 1.242401868e-38
0.2563191077 0.1634790414 0.66700006 1.214743039e-38
0.2563191077 0.1622085614 0.66700006 1.205307957e-38
0.2563191077 0.1609380814 0.66700006 1.186978412e-38
0.2563191077 0.1596676114 0.66700006 1.177760671e-38
0.2563191077 0.1583971314 0.66700006 1.168325168e-38
0.2565971937 0.1567533214 0.66900003 1.149921354e-38
0.2565971937 0.1554790414 0.66900003 1.140700811e-38
0.2565971937 0.1542047514 0.66900003 1.150026732e-38
0.2567362357 0.1527380914 0.67000002 1.159497548e-38
0.2567362357 0.1514619014 0.67000002 1.177864927e-38
0.2567362357 0.1501857014 0.67000002 1.18708407e-38
0.2567362357 0.1489095214 0.67000002 1.214634439e-38
0.2567362357 0.1476333414 0.67000002 1.242256974e-38
0.2567362357 0.1463571314 0.67000002 1.251404791e-38
0.2567362357 0.1450809514 0.67000002 1.269773992e-38
0.2568752867 0.1435990514 0.671 1.278995657e-38
0.2568752867 0.1423209414 0.671 1.297432961e-38
0.2568752867 0.1410428614 0.671 1.325125701e-38
0.2568752867 0.1397647514 0.671 1.361609908e-38
0.2568752867 0.1384866714 0.671 1.324876831e-38
0.2568752867 0.1372085814 0.671 1.297325481e-38
0.2568752867 0.1359304614 0.671 1.288033752e-38
0.2568752867 0.1346523714 0.671 1.278670415e-38
0.2568752867 0.1333742914 0.671 1.269378826e-38
0.2568752867 0.1320961814 0.671 1.269306519e-38
0.2568752867 0.1308181014 0.671 1.232643646e-38
0.2568752867 0.1295399914 0.671 1.205200617e-38
0.2568752867 0.1282618914 0.671 1.21431242e-38
0.2568752867 0.1269838014 0.671 1.223459396e-38
0.2568752867 0.1257057214 0.671 1.186832257e-38
0.2568752867 0.1244276314 0.671 1.140700811e-38
0.2568752867 0.1231495114 0.671 1.149850028e-38
0.2568752867 0.1218714214 0.671 1.158888684e-38
0.2568752867 0.1205933414 0.671 1.177290395e-38
0.2568752867 0.1193152314 0.671 1.186509538e-38
0.2568752867 0.1180371514 0.671 1.177469341e-38
0.2568752867 0.1167590414 0.671 1.168753264e-38
0.2568752867 0.1154809414 0.671 1.17732809e-38
0.2568752867 0.1142028514 0.671 1.195550575e-38
0.2568752867 0.1129247714 0.671 1.186330031e-38
0.2568752867 0.1116466614 0.671 1.177146482e-38
0.2568752867 0.1103685614 0.671 1.177146482e-38
0.2570143367 0.1088333114 0.67200005 1.186580724e-38
0.2570143367 0.1075533214 0.67200005 1.18675981e-38
0.2570143367 0.1062733114 0.67200005 1.17757626e-38
0.2570143367 0.1049933114 0.67200005 1.159065808e-38
0.2570143367 0.1037133214 0.67200005 1.131371946e-38
0.2570143367 0.1024333114 0.67200005 1.122152804e-38
0.2570143367 0.1011533314 0.67200005 1.112968273e-38
0.2570143367 0.09987333135 0.67200005 1.076161487e-38
0.2570143367 0.09859332135 0.67200005 1.048575806e-38
0.2572924367 0.09676476135 0.67400002 1.066943886e-38
0.2572924367 0.09548095135 0.67400002 1.094531109e-38
0.2574314797 0.09391904135 0.67500001 1.085420147e-38
0.2572924367 0.09291333135 0.67400002 1.076308624e-38
0.2572924367 0.09162950135 0.67400002 1.158996864e-38
0.2574314797 0.09006190135 0.67500001 1.232537288e-38
0.2574314797 0.08877618135 0.67500001 1.204915173e-38
0.2574314797 0.08749047135 0.67500001 1.168503273e-38
0.2574314797 0.08620476135 0.67500001 1.168502852e-38
0.2574314797 0.08491905135 0.67500001 1.177721294e-38
0.2575705297 0.08333997135 0.67600006 1.19605168e-38
0.2575705297 0.08205236135 0.67600006 1.223566315e-38
0.2575705297 0.08076474135 0.67600006 1.205163202e-38
0.2578486227 0.07887903135 0.67800003 1.19594476e-38
0.2578486227 0.07758760135 0.67800003 1.205129291e-38
0.2579876657 0.07599333135 0.67900002 1.223531002e-38
0.2581267077 0.07439524135 0.68000001 1.214346192e-38
0.2581267077 0.07310000135 0.68000001 1.205199216e-38
0.2581267077 0.07180476135 0.68000001 1.241969988e-38
0.2584048157 0.06988856135 0.68200004 1.269519796e-38
0.2584048157 0.06858951135 0.68200004 1.242147673e-38
0.2584048157 0.06729047135 0.68200004 1.21488457e-38
0.2584048157 0.06599141135 0.68200004 1.214705905e-38
0.2585438587 0.06437428135 0.68300003 1.223674776e-38
0.2585438587 0.06307332135 0.68300003 1.196124827e-38
0.2585438587 0.06177237135 0.68300003 1.17779248e-38
0.2585438587 0.06047141135 0.68300003 1.186939036e-38
0.2586829017 0.05884476135 0.68400002 1.205270682e-38
0.2589610017 0.05688664135 0.68600005 1.177433468e-38
0.2589610017 0.05557999135 0.68600005 1.159173988e-38
0.2589610017 0.05427332135 0.68600005 1.149811072e-38
0.2593781447 0.05196665135 0.68900001 1.140555776e-38
0.2593781447 0.05065429135 0.68900001 1.122296297e-38
0.2595171947 0.04900473135 0.69000006 1.113149461e-38
0.2595171947 0.04769046135 0.69000006 1.122118612e-38
0.2595171947 0.04637617135 0.69000006 1.131193421e-38
0.2596562457 0.04471904135 0.69100004 1.076055129e-38
0.2596562457 0.04340285135 0.69100004 1.030317167e-38
0.2596562457 0.04208664135 0.69100004 9.752164303e-39
0.2596562457 0.04077045135 0.69100004 9.201503052e-39
0.2596562457 0.03945428135 0.69100004 8.92634969e-39
0.2596562457 0.03813807135 0.69100004 8.743041634e-39
0.2599343307 0.03611332135 0.69300002 8.741969641e-39
0.2599343307 0.03479333135 0.69300002 8.741613711e-39
0.2599343307 0.03347334135 0.69300002 8.741616514e-39
0.2551933847 0.2023952294 0.65000004 1.113473722e-38
0.2551933847 0.2011571364 0.65000004 1.113006529e-38
0.2551933847 0.1999190444 0.65000004 1.159066929e-38
0.2551933847 0.1986809434 0.65000004 1.214205641e-38
0.2554752847 0.1971838014 0.65200001 1.269667213e-38
0.2556162427 0.1958104664 0.65300006 1.325308571e-38
0.2554752847 0.1947000014 0.65200001 1.362403464e-38
0.2556162427 0.1933228514 0.65300006 1.408031844e-38
0.2558981427 0.1918047504 0.65500003 1.352784671e-38
0.2558981427 0.1905571364 0.65500003 1.297395406e-38
0.2558981427 0.1893095214 0.65500003 1.260552467e-38
0.2558981427 0.1880618994 0.65500003 1.232643506e-38
0.2558981427 0.1868142774 0.65500003 1.195802108e-38
0.2560390997 0.1854199984 0.65600002 1.168216567e-38
0.2563210077 0.1838733244 0.65800005 1.12240756e-38
0.2566029007 0.1823190444 0.66000003 1.0856721e-38
0.2567438577 0.1809095214 0.66100001 1.104073811e-38
0.2567438577 0.1796504814 0.66100001 1.131480547e-38
0.2568848157 0.1782352314 0.66200006 1.122153224e-38
0.2568848157 0.1769742714 0.66200006 1.113292253e-38
0.2568848157 0.1757133214 0.66200006 1.141165621e-38
0.2570257657 0.1742904714 0.66300005 1.168717111e-38
0.2570257657 0.1730276114 0.66300005 1.233038532e-38
0.2570257657 0.1717647514 0.66300005 1.297360934e-38
0.2573076737 0.1701666614 0.66500002 1.279246489e-38
0.2573076737 0.1689000014 0.66500002 1.270061818e-38
0.2574486157 0.1674619014 0.66600001 1.260877148e-38
0.2574486157 0.1661933314 0.66600001 1.251658005e-38
0.2575895807 0.1647495114 0.66700006 1.233255313e-38
0.2575895807 0.1634790414 0.66700006 1.223855543e-38
0.2575895807 0.1622085614 0.66700006 1.205307957e-38
0.2575895807 0.1609380814 0.66700006 1.186869952e-38
0.2575895807 0.1596676114 0.66700006 1.17765137e-38
0.2575895807 0.1583971314 0.66700006 1.17743557e-38
0.2575895807 0.1571266614 0.66700006 1.149920233e-38
0.2578714737 0.1554790414 0.66900003 1.131444814e-38
0.2578714737 0.1542047514 0.66900003 1.131372367e-38
0.2578714737 0.1529304814 0.66900003 1.131587746e-38
0.2578714737 0.1516561814 0.66900003 1.150206238e-38
0.2580124307 0.1501857014 0.67000002 1.177828774e-38
0.2580124307 0.1489095214 0.67000002 1.1962679e-38
0.2580124307 0.1476333414 0.67000002 1.223782816e-38
0.2580124307 0.1463571314 0.67000002 1.223567716e-38
0.2580124307 0.1450809514 0.67000002 1.232860427e-38
0.2580124307 0.1438047614 0.67000002 1.242153278e-38
0.2580124307 0.1425285814 0.67000002 1.260591283e-38
0.2581533807 0.1410428614 0.671 1.279208654e-38
0.2581533807 0.1397647514 0.671 1.297468554e-38
0.2581533807 0.1384866714 0.671 1.288213818e-38
0.2581533807 0.1372085814 0.671 1.288033892e-38
0.2581533807 0.1359304614 0.671 1.269630359e-38
0.2581533807 0.1346523714 0.671 1.260266602e-38
0.2581533807 0.1333742914 0.671 1.260229888e-38
0.2581533807 0.1320961814 0.671 1.260229608e-38
0.2581533807 0.1308181014 0.671 1.223495269e-38
0.2581533807 0.1295399914 0.671 1.195801268e-38
0.2581533807 0.1282618914 0.671 1.223208564e-38
0.2581533807 0.1269838014 0.671 1.260121568e-38
0.2581533807 0.1257057214 0.671 1.205163202e-38
0.2581533807 0.1244276314 0.671 1.158995182e-38
0.2581533807 0.1231495114 0.671 1.14988436e-38
0.2581533807 0.1218714214 0.671 1.14956066e-38
0.2581533807 0.1205933414 0.671 1.140412143e-38
0.2581533807 0.1193152314 0.671 1.14048389e-38
0.2581533807 0.1180371514 0.671 1.140663256e-38
0.2581533807 0.1167590414 0.671 1.140556477e-38
0.2581533807 0.1154809414 0.671 1.140449698e-38
0.2581533807 0.1142028514 0.671 1.140449137e-38
0.2581533807 0.1129247714 0.671 1.149668e-38
0.2582943387 0.1113933214 0.67200005 1.158779382e-38
0.2582943387 0.1101133214 0.67200005 1.158814975e-38
0.2585762467 0.1083190414 0.67400002 1.158850288e-38
0.2581533807 0.1078123914 0.671 1.149989177e-38
0.2582943387 0.1062733114 0.67200005 1.140626402e-38
0.2582943387 0.1049933114 0.67200005 1.121936583e-38
0.2582943387 0.1037133214 0.67200005 1.113076453e-38
0.2581533807 0.1026999914 0.671 1.113077154e-38
0.2585762467 0.1006161814 0.67400002 1.122367763e-38
0.2585762467 0.09933237135 0.67400002 1.122474962e-38
0.2585762467 0.09804857135 0.67400002 1.13151572e-38
0.2587171887 0.09649047135 0.67500001 1.14059249e-38
0.2587171887 0.09520475135 0.67500001 1.15896043e-38
0.2587171887 0.09391904135 0.67500001 1.168144961e-38
0.2587171887 0.09263333135 0.67500001 1.177471723e-38
0.2587171887 0.09134762135 0.67500001 1.251083193e-38
0.2587171887 0.09006190135 0.67500001 1.324372504e-38
0.2588581537 0.08849045135 0.67600006 1.250904387e-38
0.2588581537 0.08720283135 0.67600006 1.186906666e-38
0.2588581537 0.08591522135 0.67600006 1.177723116e-38
0.2588581537 0.08462760135 0.67600006 1.177721294e-38
0.2588581537 0.08333997135 0.67600006 1.186903022e-38
0.2591400467 0.08146189135 0.67800003 1.196015106e-38
0.2591400467 0.08017047135 0.67800003 1.18676023e-38
0.2591400467 0.07887903135 0.67800003 1.186762052e-38
0.2592810037 0.07728666135 0.67900002 1.195947423e-38
0.2592810037 0.07599333135 0.67900002 1.20512859e-38
0.2594219467 0.07439524135 0.68000001 1.195942659e-38
0.2594219467 0.07310000135 0.68000001 1.196050979e-38
0.2597038617 0.07118760135 0.68200004 1.214454512e-38
0.2597038617 0.06988856135 0.68200004 1.232857204e-38
0.2597038617 0.06858951135 0.68200004 1.214525698e-38
0.2598448117 0.06697617135 0.68300003 1.205415296e-38
0.2598448117 0.06567523135 0.68300003 1.223891416e-38
0.2599857617 0.06405619135 0.68400002 1.251333745e-38
0.2599857617 0.06275333135 0.68400002 1.214598846e-38
0.2599857617 0.06145048135 0.68400002 1.187047636e-38
0.2602676697 0.05949998135 0.68600005 1.214597725e-38
0.2602676697 0.05819332135 0.68600005 1.251117104e-38
0.2604086197 0.05655902135 0.68700004 1.20502041e-38
0.2604086197 0.05525046135 0.68700004 1.159030495e-38
0.2604086197 0.05394189135 0.68700004 1.149810792e-38
0.2606905197 0.05196665135 0.68900001 1.149846385e-38
0.2609724347 0.04998380135 0.69100004 1.122331469e-38
0.2612543347 0.04799333135 0.69300002 1.094781241e-38
0.2609724347 0.04735142135 0.69100004 1.067123393e-38
0.2612543347 0.04535332135 0.69300002 1.048576227e-38
0.2612543347 0.04403332135 0.69300002 1.011733708e-38
0.2613952857 0.04236857135 0.69400001 9.843988589e-39
0.2613952857 0.04104666135 0.69400001 9.38589291e-39
0.2613952857 0.03972476135 0.69400001 9.01854532e-39
0.2609724347 0.03945428135 0.69100004 8.743390558e-39
0.2609724347 0.03813807135 0.69100004 8.467529541e-39
0.2612543347 0.03611332135 0.69300002 8.558651776e-39
0.2564314847 0.1999190444 0.65000004 1.131370685e-38
0.2564314847 0.1986809434 0.65000004 1.186510939e-38
0.2565743347 0.1973133304 0.65100002 1.223535206e-38
0.2565743347 0.1960733304 0.65100002 1.270424475e-38
0.2565743347 0.1948333294 0.65100002 1.362155434e-38
0.2567171927 0.1934580944 0.65200001 1.453916101e-38
0.2568600577 0.1920790444 0.65300006 1.380372874e-38
0.2568600577 0.1908352294 0.65300006 1.306688257e-38
0.2571457647 0.1893095214 0.65500003 1.260554289e-38
0.2571457647 0.1880618994 0.65500003 1.223245558e-38
0.2571457647 0.1868142774 0.65500003 1.204878038e-38
0.2572886217 0.1854199984 0.65600002 1.186511219e-38
0.2574314797 0.1840218964 0.65700001 1.149777441e-38
0.2575743367 0.1826199954 0.65800005 1.113078555e-38
0.2578600517 0.1810619014 0.66000003 1.122369304e-38
0.2580029017 0.1796504814 0.66100001 1.13151586e-38
0.2580029017 0.1783914214 0.66100001 1.09478068e-38
0.2580029017 0.1771323714 0.66100001 1.058082635e-38
0.2581457737 0.1757133214 0.66200006 1.10428765e-38
0.2581457737 0.1744523714 0.66200006 1.150385605e-38
0.2581457737 0.1731914114 0.66200006 1.20545187e-38
0.2581457737 0.1719304614 0.66200006 1.26055541e-38
0.2582886237 0.1705018914 0.66300005 1.260665412e-38
0.2582886237 0.1692390414 0.66300005 1.2515878e-38
0.2585743317 0.1676333314 0.66500002 1.242366696e-38
0.2587171887 0.1661933314 0.66600001 1.242367537e-38
0.2587171887 0.1649247614 0.66600001 1.224001278e-38
0.2587171887 0.1636561914 0.66600001 1.214636681e-38
0.2587171887 0.1623876114 0.66600001 1.196088674e-38
0.2587171887 0.1611190414 0.66600001 1.177649688e-38
0.2587171887 0.1598504814 0.66600001 1.159210842e-38
0.2587171887 0.1585819114 0.66600001 1.149847646e-38
0.2587171887 0.1573133414 0.66600001 1.131444393e-38
0.2588600537 0.1558561714 0.66700006 1.113041141e-38
0.2591457687 0.1542047514 0.66900003 1.103821438e-38
0.2591457687 0.1529304814 0.66900003 1.094602155e-38
0.2591457687 0.1516561814 0.66900003 1.12233231e-38
0.2591457687 0.1503818914 0.66900003 1.150063026e-38
0.2591457687 0.1491076014 0.66900003 1.168502572e-38
0.2591457687 0.1478333314 0.66900003 1.186977431e-38
0.2591457687 0.1465590414 0.66900003 1.195981895e-38
0.2592886187 0.1450809514 0.67000002 1.196018749e-38
0.2592886187 0.1438047614 0.67000002 1.214422702e-38
0.2592886187 0.1425285814 0.67000002 1.223641985e-38
0.2592886187 0.1412523714 0.67000002 1.241937198e-38
0.2592886187 0.1399761914 0.67000002 1.260268143e-38
0.2594314757 0.1384866714 0.671 1.2511562e-38
0.2594314757 0.1372085814 0.671 1.251227386e-38
0.2594314757 0.1359304614 0.671 1.24197167e-38
0.2594314757 0.1346523714 0.671 1.232715112e-38
0.2594314757 0.1333742914 0.671 1.232713851e-38
0.2594314757 0.1320961814 0.671 1.223566175e-38
0.2594314757 0.1308181014 0.671 1.195872173e-38
0.2594314757 0.1295399914 0.671 1.177290115e-38
0.2594314757 0.1282618914 0.671 1.186473945e-38
0.2594314757 0.1269838014 0.671 1.195800427e-38
0.2594314757 0.1257057214 0.671 1.158994061e-38
0.2594314757 0.1244276314 0.671 1.12222427e-38
0.2594314757 0.1231495114 0.671 1.103821718e-38
0.2594314757 0.1218714214 0.671 1.085167212e-38
0.2594314757 0.1205933414 0.671 1.085202805e-38
0.2594314757 0.1193152314 0.671 1.094458242e-38
0.2594314757 0.1180371514 0.671 1.085274832e-38
0.2594314757 0.1167590414 0.671 1.085311266e-38
0.2594314757 0.1154809414 0.671 1.085311966e-38
0.2594314757 0.1142028514 0.671 1.075984784e-38
0.2594314757 0.1129247714 0.671 1.085204207e-38
0.2595743407 0.1113933214 0.67200005 1.085275252e-38
0.2595743407 0.1101133214 0.67200005 1.094422228e-38
0.2595743407 0.1088333114 0.67200005 1.103605077e-38
0.2598600487 0.1070352314 0.67400002 1.10364039e-38
0.2598600487 0.1057514214 0.67400002 1.103676403e-38
0.2598600487 0.1044676114 0.67400002 1.113003726e-38
0.2598600487 0.1031838014 0.67400002 1.122367623e-38
0.2598600487 0.1018999914 0.67400002 1.122404477e-38
0.2600029057 0.1003476114 0.67500001 1.131659633e-38
0.2600029057 0.09906190135 0.67500001 1.168393831e-38
0.2600029057 0.09777619135 0.67500001 1.205164464e-38
0.2600029057 0.09649047135 0.67500001 1.195981615e-38
0.2601457707 0.09492855135 0.67600006 1.186799186e-38
0.2601457707 0.09364094135 0.67600006 1.18683618e-38
0.2601457707 0.09235331135 0.67600006 1.196054482e-38
0.2601457707 0.09106569135 0.67600006 1.223568277e-38
0.2601457707 0.08977808135 0.67600006 1.260123389e-38
0.2601457707 0.08849045135 0.67600006 1.223532964e-38
0.2601457707 0.08720283135 0.67600006 1.196162242e-38
0.2604314777 0.08533618135 0.67800003 1.196234689e-38
0.2604314777 0.08404474135 0.67800003 1.205487183e-38
0.2604314777 0.08275333135 0.67800003 1.205556267e-38
0.2605743357 0.08116667135 0.67900002 1.205628714e-38
0.2605743357 0.07987332135 0.67900002 1.196302512e-38
0.2605743357 0.07857999135 0.67900002 1.196197555e-38
0.2607171857 0.07698571135 0.68000001 1.205348034e-38
0.2607171857 0.07569048135 0.68000001 1.214492207e-38
0.2607171857 0.07439524135 0.68000001 1.214488704e-38
0.2610029077 0.07248665135 0.68200004 1.214525137e-38
0.2610029077 0.07118760135 0.68200004 1.223637501e-38
0.2610029077 0.06988856135 0.68200004 1.223494288e-38
0.2611457657 0.06827713135 0.68300003 1.205199216e-38
0.2611457657 0.06697617135 0.68300003 1.186905965e-38
0.2612886227 0.06535904135 0.68400002 1.196163503e-38
0.2612886227 0.06405619135 0.68400002 1.205416697e-38
0.2615743377 0.06211331135 0.68600005 1.177828213e-38
0.2615743377 0.06080666135 0.68600005 1.150026312e-38
0.2615743377 0.05949998135 0.68600005 1.168393411e-38
0.2615743377 0.05819332135 0.68600005 1.186760931e-38
0.2617171947 0.05655902135 0.68700004 1.159139096e-38
0.2617171947 0.05525046135 0.68700004 1.131372367e-38
0.2620029027 0.05327904135 0.68900001 1.158958188e-38
0.2621457677 0.05163331135 0.69000006 1.186759529e-38
0.2625743397 0.04931333135 0.69300002 1.113218966e-38
0.2625743397 0.04799333135 0.69300002 1.048862372e-38
0.2625743397 0.04667333135 0.69300002 1.030423666e-38
0.2627171897 0.04501238135 0.69400001 1.002693371e-38
0.2627171897 0.04369049135 0.69400001 9.75178315e-39
0.2627171897 0.04236857135 0.69400001 9.476640999e-39
0.2627171897 0.04104666135 0.69400001 9.11074095e-39
0.2627171897 0.03972476135 0.69400001 8.836303652e-39
0.2578143347 0.2010333304 0.65100002 1.057761598e-38
0.2576695707 0.1999190444 0.65000004 1.103713958e-38
0.2576695707 0.1986809434 0.65000004 1.158924977e-38
0.2576695707 0.1974428514 0.65000004 1.186585488e-38
0.2578143347 0.1960733304 0.65100002 1.224110719e-38
0.2578143347 0.1948333294 0.65100002 1.362045152e-38
0.2578143347 0.1935933294 0.65100002 1.508980264e-38
0.2579590997 0.1922161864 0.65200001 1.40799541e-38
0.2581038647 0.1908352294 0.65300006 1.315943693e-38
0.2581038647 0.1895914214 0.65300006 1.269773992e-38
0.2583933867 0.1880618994 0.65500003 1.223244997e-38
0.2583933867 0.1868142774 0.65500003 1.21388082e-38
0.2583933867 0.1855666624 0.65500003 1.204877057e-38
0.2586829017 0.1840218964 0.65700001 1.177219349e-38
0.2586829017 0.1827704744 0.65700001 1.149847506e-38
0.2588276737 0.1813666614 0.65800005 1.140878635e-38
0.2591171957 0.1798047514 0.66000003 1.140590949e-38
0.2592619527 0.1783914214 0.66100001 1.066798992e-38
0.2592619527 0.1771323714 0.66100001 1.002801831e-38
0.2592619527 0.1758733314 0.66100001 1.067446112e-38
0.2592619527 0.1746142814 0.66100001 1.13183942e-38
0.2594067177 0.1731914114 0.66200006 1.177901501e-38
0.2594067177 0.1719304614 0.66200006 1.232968327e-38
0.2595514827 0.1705018914 0.66300005 1.232933855e-38
0.2595514827 0.1692390414 0.66300005 1.242367396e-38
0.2598409977 0.1676333314 0.66500002 1.233146853e-38
0.2598409977 0.1663666614 0.66500002 1.233147273e-38
0.2598409977 0.1651000014 0.66500002 1.223964144e-38
0.2599857617 0.1636561914 0.66600001 1.214672274e-38
0.2598409977 0.1625666614 0.66500002 1.186905685e-38
0.2598409977 0.1612999914 0.66500002 1.168430405e-38
0.2598409977 0.1600333214 0.66500002 1.149955266e-38
0.2598409977 0.1587666514 0.66500002 1.13140824e-38
0.2598409977 0.1574999914 0.66500002 1.11304044e-38
0.2599857617 0.1560447614 0.66600001 1.094673341e-38
0.2599857617 0.1547762014 0.66600001 1.076342255e-38
0.2599857617 0.1535076214 0.66600001 1.067122972e-38
0.2601305347 0.1520447614 0.66700006 1.094638028e-38
0.2601305347 0.1507742814 0.66700006 1.12233273e-38
0.2601305347 0.1495037914 0.66700006 1.140844023e-38
0.2601305347 0.1482333214 0.66700006 1.159211123e-38
0.2604200487 0.1465590414 0.66900003 1.159247136e-38
0.2604200487 0.1452847514 0.66900003 1.168359219e-38
0.2604200487 0.1440104714 0.66900003 1.177507036e-38
0.2604200487 0.1427361814 0.66900003 1.195945882e-38
0.2605648137 0.1412523714 0.67000002 1.214384727e-38
0.2605648137 0.1399761914 0.67000002 1.23268022e-38
0.2605648137 0.1386999914 0.67000002 1.223748063e-38
0.2605648137 0.1374238114 0.67000002 1.214384727e-38
0.2605648137 0.1361476014 0.67000002 1.214240954e-38
0.2605648137 0.1348714214 0.67000002 1.214276127e-38
0.2607095707 0.1333742914 0.671 1.205163763e-38
0.2607095707 0.1320961814 0.671 1.195872173e-38
0.2607095707 0.1308181014 0.671 1.177432907e-38
0.2607095707 0.1295399914 0.671 1.158850709e-38
0.2607095707 0.1282618914 0.671 1.149739186e-38
0.2607095707 0.1269838014 0.671 1.140626962e-38
0.2607095707 0.1257057214 0.671 1.113183513e-38
0.2607095707 0.1244276314 0.671 1.085489371e-38
0.2607095707 0.1231495114 0.671 1.04861182e-38
0.2607095707 0.1218714214 0.671 1.020846071e-38
0.2607095707 0.1205933414 0.671 1.029958015e-38
0.2607095707 0.1193152314 0.671 1.048432734e-38
0.2607095707 0.1180371514 0.671 1.039356804e-38
0.2607095707 0.1167590414 0.671 1.039357224e-38
0.2607095707 0.1154809414 0.671 1.030174095e-38
0.2607095707 0.1142028514 0.671 1.020811319e-38
0.2608543357 0.1126733114 0.67200005 1.020775446e-38
0.2608543357 0.1113933214 0.67200005 1.020990265e-38
0.2608543357 0.1101133214 0.67200005 1.030137521e-38
0.2611438577 0.1083190414 0.67400002 1.0485042e-38
0.2611438577 0.1070352314 0.67400002 1.057615583e-38
0.2611438577 0.1057514214 0.67400002 1.076269668e-38
0.2611438577 0.1044676114 0.67400002 1.104035556e-38
0.2612886157 0.1029190414 0.67500001 1.131622919e-38
0.2612886157 0.1016333414 0.67500001 1.140879056e-38
0.2612886157 0.1003476114 0.67500001 1.15009946e-38
0.2612886157 0.09906190135 0.67500001 1.214421021e-38
0.2614333877 0.09750379135 0.67600006 1.278705308e-38
0.2614333877 0.09621617135 0.67600006 1.251405211e-38
0.2614333877 0.09492855135 0.67600006 1.223783797e-38
0.2614333877 0.09364094135 0.67600006 1.214529621e-38
0.2614333877 0.09235331135 0.67600006 1.214421301e-38
0.2614333877 0.09106569135 0.67600006 1.205236911e-38
0.2614333877 0.08977808135 0.67600006 1.205272924e-38
0.2614333877 0.08849045135 0.67600006 1.205309078e-38
0.2614333877 0.08720283135 0.67600006 1.205380824e-38
0.2617229097 0.08533618135 0.67800003 1.223891556e-38
0.2617229097 0.08404474135 0.67800003 1.242257114e-38
0.2618676667 0.08246000135 0.67900002 1.223888333e-38
0.2618676667 0.08116667135 0.67900002 1.214704784e-38
0.2618676667 0.07987332135 0.67900002 1.214704924e-38
0.2620124247 0.07828095135 0.68000001 1.214598986e-38
0.2620124247 0.07698571135 0.68000001 1.214528921e-38
0.2620124247 0.07569048135 0.68000001 1.223674635e-38
0.2623019617 0.07378569135 0.68200004 1.23282035e-38
0.2623019617 0.07248665135 0.68200004 1.24200432e-38
0.2623019617 0.07118760135 0.68200004 1.232857064e-38
0.2623019617 0.06988856135 0.68200004 1.223601908e-38
0.2624467107 0.06827713135 0.68300003 1.195979653e-38
0.2625914757 0.06666191135 0.68400002 1.177721575e-38
0.2625914757 0.06535904135 0.68400002 1.16846782e-38
0.2628810057 0.06341998135 0.68600005 1.168537885e-38
0.2628810057 0.06211331135 0.68600005 1.141057441e-38
0.2628810057 0.06080666135 0.68600005 1.113363439e-38
0.2628810057 0.05949998135 0.68600005 1.113184353e-38
0.2630257627 0.05786761135 0.68700004 1.122404337e-38
0.2630257627 0.05655902135 0.68700004 1.113293094e-38
0.2633152847 0.05459143135 0.68900001 1.112969534e-38
0.2634600497 0.05294759135 0.69000006 1.168142018e-38
0.2634600497 0.05163331135 0.69000006 1.223422402e-38
0.2638943327 0.04931333135 0.69300002 1.113470639e-38
0.2638943327 0.04799333135 0.69300002 1.01209272e-38
0.2638943327 0.04667333135 0.69300002 9.845778047e-39
0.2638943327 0.04535332135 0.69300002 9.661745519e-39
0.2640390927 0.04369049135 0.69400001 9.38623763e-39
0.2589076707 0.2011571364 0.65000004 1.002589394e-38
0.2589076707 0.1999190444 0.65000004 1.048614342e-38
0.2589076707 0.1986809434 0.65000004 1.094640831e-38
0.2589076707 0.1974428514 0.65000004 1.149886883e-38
0.2589076707 0.1962047584 0.65000004 1.205347473e-38
0.2589076707 0.1949666584 0.65000004 1.297398909e-38
0.2590543347 0.1935933294 0.65100002 1.398955774e-38
0.2590543347 0.1923533294 0.65100002 1.334527153e-38
0.2592009997 0.1909742864 0.65200001 1.279281522e-38
0.2592009997 0.1897323794 0.65200001 1.24208013e-38
0.2593476797 0.1883476064 0.65300006 1.214060887e-38
0.2593476797 0.1871037994 0.65300006 1.204875236e-38
0.2596410017 0.1855666624 0.65500003 1.19572812e-38
0.2597876657 0.1841704684 0.65600002 1.177397594e-38
0.2597876657 0.1829209464 0.65600002 1.159065808e-38
0.2599343307 0.1815190414 0.65700001 1.149774078e-38
0.2599343307 0.1802676214 0.65700001 1.140482488e-38
0.2600810027 0.1788599914 0.65800005 1.085273291e-38
0.2603743397 0.1772904714 0.66000003 1.039392537e-38
0.2603743397 0.1760333214 0.66000003 1.076450715e-38
0.2603743397 0.1747761914 0.66000003 1.122512797e-38
0.2605209967 0.1733552314 0.66100001 1.159247837e-38
0.2605209967 0.1720961914 0.66100001 1.195982455e-38
0.2605209967 0.1708371414 0.66100001 1.205381805e-38
0.2605209967 0.1695780914 0.66100001 1.214779893e-38
0.2606676687 0.1681476114 0.66200006 1.21474346e-38
0.2606676687 0.1668866614 0.66200006 1.223891136e-38
0.2608143337 0.1654504714 0.66300005 1.223891136e-38
0.2608143337 0.1641876114 0.66300005 1.233074826e-38
0.2611076707 0.1625666614 0.66500002 1.195802809e-38
0.2611076707 0.1612999914 0.66500002 1.149740727e-38
0.2611076707 0.1600333214 0.66500002 1.131372787e-38
0.2611076707 0.1587666514 0.66500002 1.122188257e-38
0.2612543347 0.1573133414 0.66600001 1.0946725e-38
0.2612543347 0.1560447614 0.66600001 1.067122131e-38
0.2612543347 0.1547762014 0.66600001 1.067158425e-38
0.2612543347 0.1535076214 0.66600001 1.076378128e-38
0.2612543347 0.1522390514 0.66600001 1.094638028e-38
0.2612543347 0.1509704714 0.66600001 1.112897928e-38
0.2614010077 0.1495037914 0.66700006 1.122404897e-38
0.2614010077 0.1482333214 0.66700006 1.140736123e-38
0.2614010077 0.1469628514 0.66700006 1.140664377e-38
0.2614010077 0.1456923814 0.66700006 1.140627943e-38
0.2616943287 0.1440104714 0.66900003 1.140735002e-38
0.2616943287 0.1427361814 0.66900003 1.149954425e-38
0.2618410017 0.1412523714 0.67000002 1.159173988e-38
0.2618410017 0.1399761914 0.67000002 1.177577521e-38
0.2618410017 0.1386999914 0.67000002 1.168287052e-38
0.2618410017 0.1374238114 0.67000002 1.168215026e-38
0.2618410017 0.1361476014 0.67000002 1.168286632e-38
0.2619876657 0.1346523714 0.671 1.168035519e-38
0.2619876657 0.1333742914 0.671 1.15885197e-38
0.2619876657 0.1320961814 0.671 1.149703312e-38
0.2619876657 0.1308181014 0.671 1.131299499e-38
0.2619876657 0.1295399914 0.671 1.112896667e-38
0.2619876657 0.1282618914 0.671 1.094637327e-38
0.2619876657 0.1269838014 0.671 1.076305681e-38
0.2619876657 0.1257057214 0.671 1.048754752e-38
0.2619876657 0.1244276314 0.671 1.030387373e-38
0.2619876657 0.1231495114 0.671 9.658153991e-39
0.2619876657 0.1218714214 0.671 9.106430556e-39
0.2619876657 0.1205933414 0.671 9.565256311e-39
0.2619876657 0.1193152314 0.671 1.002407366e-38
0.2619876657 0.1180371514 0.671 1.002514845e-38
0.2619876657 0.1167590414 0.671 1.011698535e-38
0.2621343377 0.1152333114 0.67200005 9.933317162e-39
0.2621343377 0.1139533214 0.67200005 9.839330672e-39
0.2621343377 0.1126733114 0.67200005 9.933321366e-39
0.2621343377 0.1113933214 0.67200005 1.002623166e-38
0.2621343377 0.1101133214 0.67200005 1.020990125e-38
0.2624276677 0.1083190414 0.67400002 1.048540493e-38
0.2624276677 0.1070352314 0.67400002 1.057723903e-38
0.2624276677 0.1057514214 0.67400002 1.067230031e-38
0.2625743397 0.1042047614 0.67500001 1.122331049e-38
0.2625743397 0.1029190414 0.67500001 1.177612413e-38
0.2625743397 0.1016333414 0.67500001 1.159282028e-38
0.2627210117 0.1000790314 0.67600006 1.140988497e-38
0.2627210117 0.09879140135 0.67600006 1.177724657e-38
0.2627210117 0.09750379135 0.67600006 1.214528781e-38
0.2627210117 0.09621617135 0.67600006 1.19615986e-38
0.2627210117 0.09492855135 0.67600006 1.186977291e-38
0.2627210117 0.09364094135 0.67600006 1.177758989e-38
0.2627210117 0.09235331135 0.67600006 1.177722556e-38
0.2627210117 0.09106569135 0.67600006 1.177686262e-38
0.2627210117 0.08977808135 0.67600006 1.186833938e-38
0.2630143337 0.08791904135 0.67800003 1.186905825e-38
0.2630143337 0.08662760135 0.67800003 1.19626832e-38
0.2630143337 0.08533618135 0.67800003 1.214634999e-38
0.2630143337 0.08404474135 0.67800003 1.233001538e-38
0.2631609987 0.08246000135 0.67900002 1.214669891e-38
0.2631609987 0.08116667135 0.67900002 1.205521514e-38
0.2631609987 0.07987332135 0.67900002 1.205484941e-38
0.2633076627 0.07828095135 0.68000001 1.214669191e-38
0.2633076627 0.07698571135 0.68000001 1.214741638e-38
0.2633076627 0.07569048135 0.68000001 1.214848697e-38
0.2636010027 0.07378569135 0.68200004 1.242183686e-38
0.2636010027 0.07248665135 0.68200004 1.260586939e-38
0.2636010027 0.07118760135 0.68200004 1.232929091e-38
0.2636010027 0.06988856135 0.68200004 1.205342569e-38
0.2638943327 0.06796476135 0.68400002 1.186939596e-38
0.2638943327 0.06666191135 0.68400002 1.168537324e-38
0.2638943327 0.06535904135 0.68400002 1.150063306e-38
0.2641876627 0.06341998135 0.68600005 1.140914509e-38
0.2641876627 0.06211331135 0.68600005 1.122582162e-38
0.2643343427 0.06048475135 0.68700004 1.113434906e-38
0.2643343427 0.05917617135 0.68700004 1.104036537e-38
0.2643343427 0.05786761135 0.68700004 1.094781801e-38
0.2646276627 0.05590380135 0.68900001 1.085491333e-38
0.2647743427 0.05426189135 0.69000006 1.085419026e-38
0.2647743427 0.05294759135 0.69000006 1.094673901e-38
0.2649210027 0.05129997135 0.69100004 1.103964931e-38
0.2653610027 0.04897810135 0.69400001 1.03964407e-38
0.2653610027 0.04765619135 0.69400001 9.661752526e-39
0.2652143327 0.04667333135 0.69300002 9.478796196e-39
0.2652143327 0.04535332135 0.69300002 9.295482535e-39
0.2601457707 0.2011571364 0.65000004 9.474869757e-39
0.2601457707 0.1999190444 0.65000004 9.840415277e-39
0.2601457707 0.1986809434 0.65000004 1.030139623e-38
0.2601457707 0.1974428514 0.65000004 1.104003747e-38
0.2601457707 0.1962047584 0.65000004 1.186763873e-38
0.2601457707 0.1949666584 0.65000004 1.241973491e-38
0.2601457707 0.1937285654 0.65000004 1.297254155e-38
0.2602943277 0.1923533294 0.65100002 1.269882873e-38
0.2604428997 0.1909742864 0.65200001 1.242116564e-38
0.2604428997 0.1897323794 0.65200001 1.223569538e-38
0.2605914867 0.1883476064 0.65300006 1.214097601e-38
0.2605914867 0.1871037994 0.65300006 1.19583672e-38
0.2608886237 0.1855666624 0.65500003 1.186654012e-38
0.2610371957 0.1841704684 0.65600002 1.177471303e-38
0.2610371957 0.1829209464 0.65600002 1.168106986e-38
0.2611857677 0.1815190414 0.65700001 1.149451639e-38
0.2611857677 0.1802676214 0.65700001 1.140303683e-38
0.2613343397 0.1788599914 0.65800005 1.103605077e-38
0.2613343397 0.1776066514 0.65800005 1.076091002e-38
0.2616314837 0.1760333214 0.66000003 1.094674182e-38
0.2616314837 0.1747761914 0.66000003 1.113185054e-38
0.2616314837 0.1735190414 0.66000003 1.14091549e-38
0.2616314837 0.1722619014 0.66000003 1.168394532e-38
0.2617800477 0.1708371414 0.66100001 1.177865348e-38
0.2617800477 0.1695780914 0.66100001 1.19626832e-38
0.2617800477 0.1683190414 0.66100001 1.205487603e-38
0.2619286277 0.1668866614 0.66200006 1.214743179e-38
0.2619286277 0.1656257014 0.66200006 1.233182305e-38
0.2620771997 0.1641876114 0.66300005 1.260338349e-38
0.2620771997 0.1629247514 0.66300005 1.195551416e-38
0.2623743367 0.1612999914 0.66500002 1.140485151e-38
0.2623743367 0.1600333214 0.66500002 1.122153084e-38
0.2623743367 0.1587666514 0.66500002 1.113004427e-38
0.2623743367 0.1574999914 0.66500002 1.076305121e-38
0.2625229087 0.1560447614 0.66600001 1.048754892e-38
0.2625229087 0.1547762014 0.66600001 1.067158285e-38
0.2625229087 0.1535076214 0.66600001 1.085489511e-38
0.2625229087 0.1522390514 0.66600001 1.094637187e-38
0.2625229087 0.1509704714 0.66600001 1.11293296e-38
0.2626714807 0.1495037914 0.66700006 1.11314876e-38
0.2626714807 0.1482333214 0.66700006 1.12233217e-38
0.2626714807 0.1469628514 0.66700006 1.11314862e-38
0.2626714807 0.1456923814 0.66700006 1.1131482e-38
0.2629686247 0.1440104714 0.66900003 1.113183793e-38
0.2629686247 0.1427361814 0.66900003 1.113219666e-38
0.2629686247 0.1414618914 0.66900003 1.11325568e-38
0.2631171967 0.1399761914 0.67000002 1.122367903e-38
0.2631171967 0.1386999914 0.67000002 1.122296577e-38
0.2631171967 0.1374238114 0.67000002 1.131479986e-38
0.2631171967 0.1361476014 0.67000002 1.13151586e-38
0.2631171967 0.1348714214 0.67000002 1.13140838e-38
0.2632657607 0.1333742914 0.671 1.112969675e-38
0.2632657607 0.1320961814 0.671 1.103785424e-38
0.2632657607 0.1308181014 0.671 1.085453638e-38
0.2632657607 0.1295399914 0.671 1.076234215e-38
0.2632657607 0.1282618914 0.671 1.048755313e-38
0.2632657607 0.1269838014 0.671 1.021132637e-38
0.2632657607 0.1257057214 0.671 9.934740881e-39
0.2632657607 0.1244276314 0.671 9.751788755e-39
0.2632657607 0.1231495114 0.671 8.922042099e-39
0.2632657607 0.1218714214 0.671 8.095884169e-39
0.2632657607 0.1205933414 0.671 8.832364602e-39
0.2632657607 0.1193152314 0.671 9.566331107e-39
0.2632657607 0.1180371514 0.671 9.657807871e-39
0.2632657607 0.1167590414 0.671 9.841120131e-39
0.2634143407 0.1152333114 0.67200005 9.657091807e-39
0.2634143407 0.1139533214 0.67200005 9.564538846e-39
0.2634143407 0.1126733114 0.67200005 9.750722367e-39
0.2634143407 0.1113933214 0.67200005 9.934391958e-39
0.2634143407 0.1101133214 0.67200005 1.020989845e-38
0.2637114727 0.1083190414 0.67400002 1.048540353e-38
0.2638600527 0.1067761914 0.67500001 1.057867256e-38
0.2638600527 0.1054904714 0.67500001 1.067122552e-38
0.2638600527 0.1042047614 0.67500001 1.140662695e-38
0.2638600527 0.1029190414 0.67500001 1.223458555e-38
0.2640086327 0.1013666514 0.67600006 1.177720594e-38
0.2640086327 0.1000790314 0.67600006 1.140987376e-38
0.2640086327 0.09879140135 0.67600006 1.14102409e-38
0.2640086327 0.09750379135 0.67600006 1.150242532e-38
0.2640086327 0.09621617135 0.67600006 1.150277424e-38
0.2640086327 0.09492855135 0.67600006 1.150242392e-38
0.2643057627 0.09308475135 0.67800003 1.15020736e-38
0.2643057627 0.09179331135 0.67800003 1.150063726e-38
0.2643057627 0.09050190135 0.67800003 1.15917553e-38
0.2643057627 0.08921046135 0.67800003 1.168430545e-38
0.2643057627 0.08791904135 0.67800003 1.177721575e-38
0.2643057627 0.08662760135 0.67800003 1.186940857e-38
0.2644543327 0.08504666135 0.67900002 1.205379703e-38
0.2644543327 0.08375333135 0.67900002 1.223783096e-38
0.2644543327 0.08246000135 0.67900002 1.21463584e-38
0.2644543327 0.08116667135 0.67900002 1.205558649e-38
0.2646029027 0.07957619135 0.68000001 1.205629274e-38
0.2646029027 0.07828095135 0.68000001 1.214849818e-38
0.2646029027 0.07698571135 0.68000001 1.214886812e-38
0.2646029027 0.07569048135 0.68000001 1.214742759e-38
0.2649000527 0.07378569135 0.68200004 1.251368637e-38
0.2649000527 0.07248665135 0.68200004 1.288103116e-38
0.2649000527 0.07118760135 0.68200004 1.242185648e-38
0.2651971927 0.06926761135 0.68400002 1.196195593e-38
0.2651971927 0.06796476135 0.68400002 1.177756187e-38
0.2654943427 0.06603332135 0.68600005 1.159281748e-38
0.2654943427 0.06472665135 0.68600005 1.140879056e-38
0.2654943427 0.06341998135 0.68600005 1.122439229e-38
0.2656429027 0.06179331135 0.68700004 1.113218966e-38
0.2656429027 0.06048475135 0.68700004 1.113255259e-38
0.2656429027 0.05917617135 0.68700004 1.094924594e-38
0.2659400527 0.05721619135 0.68900001 1.076414562e-38
0.2660886227 0.05557617135 0.69000006 1.06708808e-38
0.2662371927 0.05393237135 0.69100004 1.057868237e-38
0.2662371927 0.05261618135 0.69100004 1.021205504e-38
0.2662371927 0.05129997135 0.69100004 9.937267422e-39
0.2666829027 0.04897810135 0.69400001 9.572079233e-39
0.2665343327 0.04799333135 0.69300002 9.294063019e-39
0.2665343327 0.04667333135 0.69300002 9.111826956e-39
0.2665343327 0.04535332135 0.69300002 8.927438499e-39
0.2613838637 0.2023952294 0.65000004 1.085956844e-38
0.2613838637 0.2011571364 0.65000004 1.002623026e-38
0.2613838637 0.1999190444 0.65000004 9.657451941e-39
0.2613838637 0.1986809434 0.65000004 9.287608638e-39
0.2613838637 0.1974428514 0.65000004 1.030139623e-38
0.2613838637 0.1962047584 0.65000004 1.140593892e-38
0.2613838637 0.1949666584 0.65000004 1.18661982e-38
0.2613838637 0.1937285654 0.65000004 1.241864891e-38
0.2615343357 0.1923533294 0.65100002 1.232681762e-38
0.2615343357 0.1911133294 0.65100002 1.223533945e-38
0.2616848077 0.1897323794 0.65200001 1.205130832e-38
0.2616848077 0.1884904714 0.65200001 1.186583666e-38
0.2618352937 0.1871037994 0.65300006 1.168215866e-38
0.2618352937 0.1858599844 0.65300006 1.159033298e-38
0.2622867177 0.1841704684 0.65600002 1.149707376e-38
0.2622867177 0.1829209464 0.65600002 1.149597655e-38
0.2622867177 0.1816714244 0.65600002 1.140304523e-38
0.2624371897 0.1802676214 0.65700001 1.131048947e-38
0.2624371897 0.1790161914 0.65700001 1.103641651e-38
0.2625876687 0.1776066514 0.65800005 1.085274832e-38
0.2625876687 0.1763533314 0.65800005 1.094709915e-38
0.2628886197 0.1747761914 0.66000003 1.103857451e-38
0.2628886197 0.1735190414 0.66000003 1.12243965e-38
0.2628886197 0.1722619014 0.66000003 1.150026172e-38
0.2630390997 0.1708371414 0.66100001 1.159245594e-38
0.2630390997 0.1695780914 0.66100001 1.168501311e-38
0.2630390997 0.1683190414 0.66100001 1.177685421e-38
0.2631895787 0.1668866614 0.66200006 1.186905264e-38
0.2631895787 0.1656257014 0.66200006 1.195945882e-38
0.2633400507 0.1641876114 0.66300005 1.214169348e-38
0.2633400507 0.1629247514 0.66300005 1.168108107e-38
0.2636409927 0.1612999914 0.66500002 1.122010152e-38
0.2636409927 0.1600333214 0.66500002 1.103821578e-38
0.2636409927 0.1587666514 0.66500002 1.085453498e-38
0.2636409927 0.1574999914 0.66500002 1.067085558e-38
0.2637914827 0.1560447614 0.66600001 1.039284216e-38
0.2637914827 0.1547762014 0.66600001 1.076018835e-38
0.2637914827 0.1535076214 0.66600001 1.112788487e-38
0.2637914827 0.1522390514 0.66600001 1.103712276e-38
0.2637914827 0.1509704714 0.66600001 1.085453217e-38
0.2639419627 0.1495037914 0.66700006 1.085453778e-38
0.2639419627 0.1482333214 0.66700006 1.085453638e-38
0.2639419627 0.1469628514 0.66700006 1.085525244e-38
0.2639419627 0.1456923814 0.66700006 1.085632724e-38
0.2639419627 0.1444219014 0.66700006 1.076377287e-38
0.2642429027 0.1427361814 0.66900003 1.076305681e-38
0.2642429027 0.1414618914 0.66900003 1.067086398e-38
0.2643933727 0.1399761914 0.67000002 1.067050665e-38
0.2643933727 0.1386999914 0.67000002 1.067014932e-38
0.2643933727 0.1374238114 0.67000002 1.067014932e-38
0.2643933727 0.1361476014 0.67000002 1.05768803e-38
0.2643933727 0.1348714214 0.67000002 1.05758069e-38
0.2645438527 0.1333742914 0.671 1.048325674e-38
0.2645438527 0.1320961814 0.671 1.039105831e-38
0.2645438527 0.1308181014 0.671 1.030173114e-38
0.2645438527 0.1295399914 0.671 1.011913494e-38
0.2645438527 0.1282618914 0.671 9.935463951e-39
0.2646943427 0.1267533314 0.67200005 9.751790156e-39
0.2645438527 0.1257057214 0.671 9.659235794e-39
0.2645438527 0.1244276314 0.671 9.567045769e-39
0.2645438527 0.1231495114 0.671 9.105721499e-39
0.2645438527 0.1218714214 0.671 8.646901349e-39
0.2645438527 0.1205933414 0.671 8.923841366e-39
0.2645438527 0.1193152314 0.671 9.290824618e-39
0.2645438527 0.1180371514 0.671 9.290108555e-39
0.2645438527 0.1167590414 0.671 9.288314893e-39
0.2645438527 0.1154809414 0.671 9.289749823e-39
0.2646943427 0.1139533214 0.67200005 9.197912925e-39
0.2646943427 0.1126733114 0.67200005 9.382299981e-39
0.2646943427 0.1113933214 0.67200005 9.565970973e-39
0.2649952827 0.1096028514 0.67400002 9.75035943e-39
0.2649952827 0.1083190414 0.67400002 9.934747887e-39
0.2652962427 0.1065171314 0.67600006 9.935465352e-39
0.2652962427 0.1052295114 0.67600006 1.002766098e-38
0.2652962427 0.1039418914 0.67600006 1.05779593e-38
0.2652962427 0.1026542814 0.67600006 1.112861494e-38
0.2655971927 0.1008333214 0.67800003 1.085454479e-38
0.2655971927 0.09954189135 0.67800003 1.067230732e-38
0.2655971927 0.09825048135 0.67800003 1.076486028e-38
0.2655971927 0.09695904135 0.67800003 1.085777057e-38
0.2655971927 0.09566761135 0.67800003 1.094960467e-38
0.2655971927 0.09437617135 0.67800003 1.104144577e-38
0.2655971927 0.09308475135 0.67800003 1.113256941e-38
0.2655971927 0.09179331135 0.67800003 1.122404897e-38
0.2655971927 0.09050190135 0.67800003 1.131552994e-38
0.2655971927 0.08921046135 0.67800003 1.14988366e-38
0.2657476727 0.08763332135 0.67900002 1.159102662e-38
0.2657476727 0.08633999135 0.67900002 1.168322365e-38
0.2657476727 0.08504666135 0.67900002 1.177721434e-38
0.2657476727 0.08375333135 0.67900002 1.187013865e-38
0.2657476727 0.08246000135 0.67900002 1.187122886e-38
0.2657476727 0.08116667135 0.67900002 1.187228824e-38
0.2658981427 0.07957619135 0.68000001 1.187227143e-38
0.2658981427 0.07828095135 0.68000001 1.187228684e-38
0.2658981427 0.07698571135 0.68000001 1.187158619e-38
0.2658981427 0.07569048135 0.68000001 1.177794863e-38
0.2661991027 0.07378569135 0.68200004 1.205308937e-38
0.2661991027 0.07248665135 0.68200004 1.232859726e-38
0.2663495727 0.07087904135 0.68300003 1.196125808e-38
0.2665000527 0.06926761135 0.68400002 1.168430545e-38
0.2668010127 0.06733998135 0.68600005 1.150026452e-38
0.2668010127 0.06603332135 0.68600005 1.140842622e-38
0.2668010127 0.06472665135 0.68600005 1.131623059e-38
0.2669514827 0.06310190135 0.68700004 1.122402936e-38
0.2669514827 0.06179331135 0.68700004 1.113182812e-38
0.2672524227 0.05984095135 0.68900001 1.103999823e-38
0.2672524227 0.05852856135 0.68900001 1.103821157e-38
0.2674029127 0.05689046135 0.69000006 1.112825761e-38
0.2674029127 0.05557617135 0.69000006 1.076271349e-38
0.2675533927 0.05393237135 0.69100004 1.039500997e-38
0.2675533927 0.05261618135 0.69100004 9.936907288e-39
0.2675533927 0.05129997135 0.69100004 9.56992824e-39
0.2678543327 0.04931333135 0.69300002 9.294068624e-39
0.2678543327 0.04799333135 0.69300002 9.110043104e-39
0.2678543327 0.04667333135 0.69300002 9.018213213e-39
0.2678543327 0.04535332135 0.69300002 8.924582653e-39
0.2626219567 0.2023952294 0.65000004 1.114044751e-38
0.2626219567 0.2011571364 0.65000004 1.058046342e-38
0.2626219567 0.1999190444 0.65000004 9.383013242e-39
0.2626219567 0.1986809434 0.65000004 8.276693709e-39
0.2626219567 0.1974428514 0.65000004 9.564552859e-39
0.2626219567 0.1962047584 0.65000004 1.094459783e-38
0.2626219567 0.1949666584 0.65000004 1.140664797e-38
0.2626219567 0.1937285654 0.65000004 1.195838542e-38
0.2627743357 0.1923533294 0.65100002 1.195982876e-38
0.2627743357 0.1911133294 0.65100002 1.205130412e-38
0.2629267147 0.1897323794 0.65200001 1.17754389e-38
0.2629267147 0.1884904714 0.65200001 1.158925118e-38
0.2630791017 0.1871037994 0.65300006 1.140485711e-38
0.2630791017 0.1858599844 0.65300006 1.131266569e-38
0.2633838597 0.1843190404 0.65500003 1.131266709e-38
0.2635362397 0.1829209464 0.65600002 1.131229434e-38
0.2635362397 0.1816714244 0.65600002 1.12200875e-38
0.2636886227 0.1802676214 0.65700001 1.12200875e-38
0.2636886227 0.1790161914 0.65700001 1.112861074e-38
0.2638410027 0.1776066514 0.65800005 1.103641651e-38
0.2638410027 0.1763533314 0.65800005 1.094745227e-38
0.2641457627 0.1747761914 0.66000003 1.094637608e-38
0.2641457627 0.1735190414 0.66000003 1.113184073e-38
0.2641457627 0.1722619014 0.66000003 1.131551172e-38
0.2642981427 0.1708371414 0.66100001 1.131551313e-38
0.2642981427 0.1695780914 0.66100001 1.140806749e-38
0.2642981427 0.1683190414 0.66100001 1.150098058e-38
0.2642981427 0.1670599914 0.66100001 1.159281888e-38
0.2644505327 0.1656257014 0.66200006 1.159318042e-38
0.2646029127 0.1641876114 0.66300005 1.168214605e-38
0.2644505327 0.1631038014 0.66200006 1.13151614e-38
0.2646029127 0.1616618914 0.66300005 1.103893324e-38
0.2646029127 0.1603990414 0.66300005 1.085489931e-38
0.2649076727 0.1587666514 0.66500002 1.067086258e-38
0.2649076727 0.1574999914 0.66500002 1.048718458e-38
0.2649076727 0.1562333414 0.66500002 1.03921247e-38
0.2650600427 0.1547762014 0.66600001 1.094457821e-38
0.2650600427 0.1535076214 0.66600001 1.149559539e-38
0.2650600427 0.1522390514 0.66600001 1.103642352e-38
0.2650600427 0.1509704714 0.66600001 1.066979479e-38
0.2652124327 0.1495037914 0.66700006 1.057939142e-38
0.2652124327 0.1482333214 0.66700006 1.048719439e-38
0.2652124327 0.1469628514 0.66700006 1.057866976e-38
0.2652124327 0.1456923814 0.66700006 1.067086118e-38
0.2652124327 0.1444219014 0.66700006 1.048790625e-38
0.2655172027 0.1427361814 0.66900003 1.039464003e-38
0.2655172027 0.1414618914 0.66900003 1.020989564e-38
0.2656695727 0.1399761914 0.67000002 1.011841888e-38
0.2656695727 0.1386999914 0.67000002 1.011877761e-38
0.2656695727 0.1374238114 0.67000002 1.011806155e-38
0.2656695727 0.1361476014 0.67000002 9.933674493e-39
0.2658219527 0.1346523714 0.671 9.840761398e-39
0.2658219527 0.1333742914 0.671 9.839685201e-39
0.2658219527 0.1320961814 0.671 9.840401264e-39
0.2658219527 0.1308181014 0.671 9.657444934e-39
0.2659743327 0.1293133314 0.67200005 9.566684234e-39
0.2659743327 0.1280333214 0.67200005 9.475923534e-39
0.2659743327 0.1267533314 0.67200005 9.384086636e-39
0.2659743327 0.1254733214 0.67200005 9.384085235e-39
0.2659743327 0.1241933214 0.67200005 9.382295777e-39
0.2658219527 0.1231495114 0.671 9.289388288e-39
0.2659743327 0.1216333214 0.67200005 9.198270256e-39
0.2659743327 0.1203533214 0.67200005 9.107512359e-39
0.2659743327 0.1190733114 0.67200005 9.014956595e-39
0.2659743327 0.1177933214 0.67200005 8.922760965e-39
0.2659743327 0.1165133214 0.67200005 8.830928272e-39
0.2659743327 0.1152333114 0.67200005 8.830931074e-39
0.2659743327 0.1139533214 0.67200005 8.923123901e-39
0.2662790927 0.1121704714 0.67400002 9.015316729e-39
0.2662790927 0.1108866614 0.67400002 9.19898632e-39
0.2662790927 0.1096028514 0.67400002 9.291180548e-39
