# .PCD v0.7 - Point Cloud Data file format
VERSION 0.7
FIELDS x y z rgb
SIZE 4 4 4 4
TYPE F F F F
COUNT 1 1 1 1
WIDTH 887
HEIGHT 1
VIEWPOINT 0 0 0 1 0 0 0
POINTS 887
DATA ascii
0.3127522727 -0.01103516367 0.86900002 1.168364965e-38
0.3127522727 -0.01269035367 0.86900002 1.215404032e-38
0.3148646537 0.1264734263 0.83900005 1.049438446e-38
0.3148646537 0.1248753363 0.83900005 1.002838125e-38
0.3148646537 0.1232772363 0.83900005 9.567044368e-39
0.3148951297 0.1222505763 0.83700001 9.382648904e-39
0.3149256057 0.1212315263 0.83500004 9.198984918e-39
0.3149256057 0.1196410463 0.83500004 9.198991925e-39
0.3149560817 0.1186334163 0.83300006 9.290830224e-39
0.3149560817 0.1170467463 0.83300006 9.384462184e-39
0.3149865577 0.1160505663 0.83100003 9.568494712e-39
0.3149865577 0.1144677263 0.83100003 9.752527239e-39
0.3149865577 0.1128848463 0.83100003 9.93727583e-39
0.3150170337 0.1119038863 0.82900006 1.021386132e-38
0.3150170337 0.1103248463 0.82900006 1.058156344e-38
0.3150170337 0.1087457963 0.82900006 1.07659547e-38
0.3150475107 0.1077801163 0.82700002 1.104147099e-38
0.3150475107 0.1062048863 0.82700002 1.140882419e-38
0.3150475107 0.1046296163 0.82700002 1.177615216e-38
0.3150475107 0.1030543863 0.82700002 1.195980914e-38
0.3150475107 0.1014791563 0.82700002 1.223532404e-38
0.3150475107 0.09990392633 0.82700002 1.278670415e-38
0.3150170337 0.09769247633 0.82900006 1.333734298e-38
0.3150170337 0.09611342633 0.82900006 1.241897261e-38
0.3149865577 0.09389056633 0.83100003 1.158959029e-38
0.3149865577 0.09230772633 0.83100003 1.140664517e-38
0.3149865577 0.09072486633 0.83100003 1.122226792e-38
0.3149560817 0.08848674633 0.83300006 1.131339857e-38
0.3148341777 0.08426393633 0.84100002 1.140450118e-38
0.3148037007 0.08199913633 0.84300005 1.131229294e-38
0.3147732247 0.07972676633 0.84500003 1.122045044e-38
0.3147275107 0.07711149633 0.84800005 1.112896667e-38
0.3147275107 0.07549626633 0.84800005 1.112825341e-38
0.3147275107 0.07388101633 0.84800005 1.085239239e-38
0.3147732247 0.07328866633 0.84500003 1.06687214e-38
0.3147732247 0.07167912633 0.84500003 1.076055549e-38
0.3147732247 0.07006962633 0.84500003 1.085166652e-38
0.3147732247 0.06846009633 0.84500003 1.066762979e-38
0.3148037007 0.06754769633 0.84300005 1.04807302e-38
0.3148341777 0.06664295633 0.84100002 9.835011871e-39
0.3148646537 0.06574578633 0.83900005 9.192520729e-39
0.3148951297 0.06485627633 0.83700001 8.641865083e-39
0.3149256057 0.06397439633 0.83500004 8.089419979e-39
0.3149256057 0.06238390633 0.83500004 7.995792222e-39
0.3149560817 0.06151340633 0.83300006 7.90396093e-39
0.3149865577 0.06065057633 0.83100003 8.179828953e-39
0.3150170337 0.05979533633 0.82900006 8.550400931e-39
0.3150170337 0.05821625633 0.82900006 8.54860867e-39
0.3150170337 0.05663724633 0.82900006 8.551116994e-39
0.3150170337 0.05505819633 0.82900006 8.459638829e-39
0.3150170337 0.05347911633 0.82900006 8.459634625e-39
0.3150170337 0.05190010633 0.82900006 8.735495642e-39
0.3150170337 0.05032105633 0.82900006 9.106074626e-39
0.3150170337 0.04874197633 0.82900006 9.198275861e-39
0.3150170337 0.04716293633 0.82900006 9.38194265e-39
0.3150170337 0.04558388633 0.82900006 9.657444934e-39
0.3150170337 0.04400484633 0.82900006 1.002730225e-38
0.3150170337 0.04242579633 0.82900006 1.04872028e-38
0.3150170337 0.04084674633 0.82900006 1.094710335e-38
0.3147275107 0.03188486633 0.84800005 1.131516841e-38
0.3147275107 0.03026960633 0.84800005 1.168538165e-38
0.3147275107 0.02865437633 0.84800005 1.205595363e-38
0.3147275107 0.02703912633 0.84800005 1.251513952e-38
0.3147275107 0.02542389633 0.84800005 1.306652104e-38
0.3147275107 0.02380867633 0.84800005 1.370970862e-38
0.3147275107 0.02219341633 0.84800005 1.343454265e-38
0.3146970347 0.01977439633 0.85000002 1.315975783e-38
0.3146970347 0.01815531633 0.85000002 1.279349485e-38
0.3146970347 0.01653627633 0.85000002 1.251798976e-38
0.3146665577 0.01410196633 0.85200006 1.270166075e-38
0.3146360817 0.01166011633 0.85400003 1.288498282e-38
0.3146056047 0.009210566331 0.85600007 1.297682812e-38
0.3146056047 0.007580086331 0.85600007 1.315942292e-38
0.3145751297 0.005119126331 0.85800004 1.343277701e-38
0.3145751297 0.003484856331 0.85800004 1.380084067e-38
0.3145446537 0.001012486331 0.86000001 1.352641598e-38
0.3145446537 -0.0006255936688 0.86000001 1.325054936e-38
0.3145141767 -0.003109443669 0.86200005 1.288248851e-38
0.3144684627 -0.006025653669 0.86500007 1.260517434e-38
0.3144379867 -0.008526583669 0.86700004 1.242113201e-38
0.3144075107 -0.01103516367 0.86900002 1.232682322e-38
0.3144075107 -0.01269035367 0.86900002 1.168473145e-38
0.3164360827 0.1259134263 0.84100002 1.076988394e-38
0.3164627487 0.1248753363 0.83900005 1.002982038e-38
0.3164627487 0.1232772363 0.83900005 9.384093643e-39
0.3164894157 0.1222505763 0.83700001 8.833072258e-39
0.3164894157 0.1206562963 0.83700001 8.282422218e-39
0.3165160817 0.1196410463 0.83500004 8.556139248e-39
0.3165427487 0.1186334163 0.83300006 8.924200099e-39
0.3165427487 0.1170467463 0.83300006 9.108231225e-39
0.3165427487 0.1154600963 0.83300006 9.292262351e-39
0.3165694147 0.1144677263 0.83100003 9.47665361e-39
0.3165694147 0.1128848463 0.83100003 9.662839933e-39
0.3165694147 0.1113020063 0.83100003 9.938350626e-39
0.3165960817 0.1103248463 0.82900006 1.021422425e-38
0.3165960817 0.1087457963 0.82900006 1.058085718e-38
0.3165960817 0.1071667563 0.82900006 1.094785865e-38
0.3165960817 0.1055877063 0.82900006 1.131701251e-38
0.3166227497 0.1046296163 0.82700002 1.177509278e-38
0.3166227497 0.1030543863 0.82700002 1.186762612e-38
0.3166227497 0.1014791563 0.82700002 1.19580393e-38
0.3165960817 0.09927151633 0.82900006 1.195948824e-38
0.3165960817 0.09769247633 0.82900006 1.205452571e-38
0.3165694147 0.09547342633 0.83100003 1.159065948e-38
0.3165694147 0.09389056633 0.83100003 1.12222483e-38
0.3165427487 0.09166006633 0.83300006 1.112934362e-38
0.3165694147 0.09072486633 0.83100003 1.112791289e-38
0.3164894157 0.08717627633 0.83700001 1.121975259e-38
0.3164094147 0.08360485633 0.84300005 1.131193421e-38
0.3163827497 0.08133630633 0.84500003 1.122080497e-38
0.3163827497 0.07972676633 0.84500003 1.122151683e-38
0.3163427487 0.07711149633 0.84800005 1.140446615e-38
0.3163427487 0.07549626633 0.84800005 1.149630865e-38
0.3163427487 0.07388101633 0.84800005 1.122081057e-38
0.3163427487 0.07226581633 0.84800005 1.094566282e-38
0.3163827497 0.07167912633 0.84500003 1.103749831e-38
0.3163427487 0.06903533633 0.84800005 1.103749131e-38
0.3163827497 0.06846009633 0.84500003 1.0946725e-38
0.3163827497 0.06685055633 0.84500003 1.085632303e-38
0.3164094147 0.06594197633 0.84300005 1.030208006e-38
0.3164360827 0.06504104633 0.84100002 9.748197227e-39
0.3164627487 0.06414769633 0.83900005 9.192879461e-39
0.3164894157 0.06326202633 0.83700001 8.638998026e-39
0.3164894157 0.06166772633 0.83700001 8.454971104e-39
0.3165160817 0.06079344633 0.83500004 8.364216009e-39
0.3165160817 0.05920295633 0.83500004 8.548968804e-39
0.3165694147 0.05906770633 0.83100003 8.825550088e-39
0.3165694147 0.05748484633 0.83100003 8.82590882e-39
0.3165694147 0.05590198633 0.83100003 8.82626475e-39
0.3165960817 0.05505819633 0.82900006 8.45999616e-39
0.3165960817 0.05347911633 0.82900006 8.185920397e-39
0.3165960817 0.05190010633 0.82900006 8.645811139e-39
0.3165960817 0.05032105633 0.82900006 9.106071824e-39
0.3165694147 0.04798771633 0.83100003 9.381945452e-39
0.3165694147 0.04640485633 0.83100003 9.751790156e-39
0.3165960817 0.04558388633 0.82900006 1.021024317e-38
0.3165694147 0.04323912633 0.83100003 1.066871159e-38
0.3165694147 0.04165629633 0.83100003 1.10418031e-38
0.3163827497 0.03466008633 0.84500003 1.150350012e-38
0.3163427487 0.03188486633 0.84800005 1.187156797e-38
0.3163427487 0.03026960633 0.84800005 1.223962322e-38
0.3163427487 0.02865437633 0.84800005 1.242364874e-38
0.3163427487 0.02703912633 0.84800005 1.26091148e-38
0.3163427487 0.02542389633 0.84800005 1.297610085e-38
0.3163427487 0.02380867633 0.84800005 1.343491259e-38
0.3163160827 0.02139343633 0.85000002 1.3251236e-38
0.3163160827 0.01977439633 0.85000002 1.306792794e-38
0.3163160827 0.01815531633 0.85000002 1.279278439e-38
0.3162894157 0.01572485633 0.85200006 1.260983646e-38
0.3162894157 0.01410196633 0.85200006 1.279315433e-38
0.3162627497 0.01166011633 0.85400003 1.29764764e-38
0.3162627497 0.01003344633 0.85400003 1.297541001e-38
0.3162360817 0.007580086331 0.85600007 1.306652524e-38
0.3162094157 0.005119126331 0.85800004 1.324947596e-38
0.3162094157 0.003484856331 0.85800004 1.343171203e-38
0.3161827497 0.001012486331 0.86000001 1.334167159e-38
0.3161560817 -0.001467543669 0.86200005 1.315871106e-38
0.3161560817 -0.003109443669 0.86200005 1.2974317e-38
0.3161160817 -0.006025653669 0.86500007 1.269809304e-38
0.3160894157 -0.008526583669 0.86700004 1.251298852e-38
0.3160627487 -0.01103516367 0.86900002 1.241934395e-38
0.3160627487 -0.01269035367 0.86900002 1.196015246e-38
0.3160627487 -0.01434560367 0.86900002 1.150463377e-38
0.318037987 0.1259134263 0.84100002 1.104216043e-38
0.3180608435 0.1248753363 0.83900005 1.012343973e-38
0.3180608435 0.1232772363 0.83900005 9.200417045e-39
0.3180608435 0.1216791463 0.83900005 8.279546753e-39
0.318083701 0.1206562963 0.83700001 7.453390224e-39
0.318083701 0.1190620063 0.83700001 8.005126271e-39
0.3181065584 0.1180505763 0.83500004 8.55649798e-39
0.3181294159 0.1170467463 0.83300006 8.740529106e-39
0.3181294159 0.1154600963 0.83300006 9.016750257e-39
0.3181522724 0.1144677263 0.83100003 9.201137313e-39
0.3181522724 0.1128848463 0.83100003 9.47808854e-39
0.3181522724 0.1113020063 0.83100003 9.663561602e-39
0.3181522724 0.1097191763 0.83100003 9.93835483e-39
0.3181751289 0.1087457963 0.82900006 1.039681905e-38
0.3181751289 0.1071667563 0.82900006 1.085708254e-38
0.3181751289 0.1055877063 0.82900006 1.131734462e-38
0.3181751289 0.1040086563 0.82900006 1.177615356e-38
0.3181751289 0.1024296163 0.82900006 1.177578362e-38
0.3181751289 0.1008505663 0.82900006 1.177543329e-38
0.3181751289 0.09927151633 0.82900006 1.122406859e-38
0.3181522724 0.09705628633 0.83100003 1.07638009e-38
0.3181522724 0.09547342633 0.83100003 1.076270929e-38
0.3181522724 0.09389056633 0.83100003 1.085383012e-38
0.3181294159 0.09166006633 0.83300006 1.094495096e-38
0.3181522724 0.09072486633 0.83100003 1.103642912e-38
0.3180151286 0.08521057633 0.84300005 1.112826602e-38
0.317992273 0.08294583633 0.84500003 1.122009451e-38
0.317992273 0.08133630633 0.84500003 1.122188116e-38
0.3179579864 0.07872675633 0.84800005 1.131335513e-38
0.3179579864 0.07711149633 0.84800005 1.158850148e-38
0.3179579864 0.07549626633 0.84800005 1.195585187e-38
0.3179579864 0.07388101633 0.84800005 1.15885197e-38
0.317992273 0.07328866633 0.84500003 1.131301461e-38
0.317992273 0.07167912633 0.84500003 1.131373348e-38
0.3179579864 0.06903533633 0.84800005 1.131336493e-38
0.317992273 0.06846009633 0.84500003 1.131407399e-38
0.317992273 0.06685055633 0.84500003 1.131335372e-38
0.317992273 0.06524102633 0.84500003 1.085381331e-38
0.317992273 0.06363151633 0.84500003 1.039176597e-38
0.3180151286 0.06273056633 0.84300005 9.835730737e-39
0.318037987 0.06183723633 0.84100002 9.282924098e-39
0.3180608435 0.06095151633 0.83900005 9.00598268e-39
0.3180608435 0.05935342633 0.83900005 8.823752222e-39
0.318083701 0.05847914633 0.83700001 8.917385584e-39
0.3181065584 0.05761249633 0.83500004 9.101056577e-39
0.3181294159 0.05675343633 0.83300006 9.101056577e-39
0.3181294159 0.05516673633 0.83300006 9.102132774e-39
0.3181522724 0.05431915633 0.83100003 8.460360498e-39
0.3181522724 0.05273626633 0.83100003 7.910422317e-39
0.3181522724 0.05115343633 0.83100003 8.55470572e-39
0.3181522724 0.04957057633 0.83100003 9.197564002e-39
0.3181522724 0.04798771633 0.83100003 9.657827489e-39
0.3181294159 0.04564674633 0.83300006 1.012022235e-38
0.3181294159 0.04406009633 0.83300006 1.067122412e-38
0.318037987 0.03941057633 0.84100002 1.131766972e-38
0.317992273 0.03626961633 0.84500003 1.168861024e-38
0.3179579864 0.03350008633 0.84800005 1.205595363e-38
0.3179351289 0.03110770633 0.85000002 1.242365715e-38
0.3179351289 0.02948866633 0.85000002 1.288319476e-38
0.3179351289 0.02786962633 0.85000002 1.27917194e-38
0.3179351289 0.02625055633 0.85000002 1.270023983e-38
0.3179351289 0.02463151633 0.85000002 1.288462549e-38
0.3179351289 0.02301247633 0.85000002 1.31594061e-38
0.3179122724 0.02059341633 0.85200006 1.30654084e-38
0.3179122724 0.01897053633 0.85200006 1.306649441e-38
0.3179122724 0.01734770633 0.85200006 1.288355069e-38
0.3178894159 0.01491342633 0.85400003 1.26998825e-38
0.3178894159 0.01328675633 0.85400003 1.288391503e-38
0.3178894159 0.01166011633 0.85400003 1.30683175e-38
0.3178894159 0.01003344633 0.85400003 1.297470236e-38
0.3178665575 0.007580086331 0.85600007 1.297433662e-38
0.3178665575 0.005949596331 0.85600007 1.306616651e-38
0.3178665575 0.004319116331 0.85600007 1.315764327e-38
0.317843701 0.001850556331 0.85800004 1.315728454e-38
0.317843701 0.0002162863312 0.85800004 1.315763907e-38
0.3177979861 -0.003109443669 0.86200005 1.29743212e-38
0.3177637004 -0.006025653669 0.86500007 1.288176684e-38
0.3177637004 -0.007673253669 0.86500007 1.269665952e-38
0.3177408439 -0.01017801367 0.86700004 1.251190952e-38
0.3177408439 -0.01182945367 0.86700004 1.214384587e-38
0.3177408439 -0.01348085367 0.86700004 1.186980514e-38
0.3177408439 -0.01513229367 0.86700004 1.113335694e-38
0.319658939 0.1248753363 0.83900005 1.003087836e-38
0.319658939 0.1232772363 0.83900005 9.568112157e-39
0.319658939 0.1216791463 0.83900005 8.831993258e-39
0.3196779874 0.1206562963 0.83700001 8.186997996e-39
0.3196779874 0.1190620063 0.83700001 8.369957129e-39
0.3196970348 0.1180505763 0.83500004 8.645104885e-39
0.3196970348 0.1164600863 0.83500004 8.738016578e-39
0.3197160813 0.1154600963 0.83300006 8.923116895e-39
0.3197160813 0.1138734063 0.83300006 8.923470022e-39
0.3197351296 0.1128848463 0.83100003 9.015678264e-39
0.3197351296 0.1113020063 0.83100003 9.107886505e-39
0.3197351296 0.1097191763 0.83100003 9.292274962e-39
0.3197351296 0.1081362763 0.83100003 9.659616947e-39
0.319754177 0.1071667563 0.82900006 1.002695893e-38
0.319754177 0.1055877063 0.82900006 1.01184357e-38
0.319754177 0.1040086563 0.82900006 1.021026979e-38
0.319754177 0.1024296163 0.82900006 1.030174655e-38
0.319754177 0.1008505663 0.82900006 1.039322472e-38
0.319754177 0.09927151633 0.82900006 1.030067456e-38
0.3197351296 0.09705628633 0.83100003 1.029995289e-38
0.3197160813 0.09483341633 0.83300006 1.048362108e-38
0.3197160813 0.09324674633 0.83300006 1.066728927e-38
0.3196208442 0.08842198633 0.84300005 1.085382872e-38
0.3195732248 0.08518771633 0.84800005 1.103821578e-38
0.3195732248 0.08357249633 0.84800005 1.13130048e-38
0.3195732248 0.08195723633 0.84800005 1.167962652e-38
0.3196017959 0.08133630633 0.84500003 1.149846525e-38
0.3195732248 0.07872675633 0.84800005 1.131622919e-38
0.3195732248 0.07711149633 0.84800005 1.140627102e-38
0.3195732248 0.07549626633 0.84800005 1.14977576e-38
0.3195732248 0.07388101633 0.84800005 1.140557458e-38
0.3195732248 0.07226581633 0.84800005 1.131338315e-38
0.3195732248 0.07065056633 0.84800005 1.140558018e-38
0.3195732248 0.06903533633 0.84800005 1.149632827e-38
0.3195732248 0.06742007633 0.84800005 1.149667719e-38
0.3195732248 0.06580485633 0.84800005 1.149703032e-38
0.3195732248 0.06418959633 0.84800005 1.112896527e-38
0.3196017959 0.06363151633 0.84500003 1.075982962e-38
0.3196017959 0.06202201633 0.84500003 1.020809918e-38
0.3196208442 0.06112484633 0.84300005 9.748201431e-39
0.3196398925 0.06023533633 0.84100002 9.564529037e-39
0.3196398925 0.05863343633 0.84100002 9.472697745e-39
0.319658939 0.05775533633 0.83900005 9.564180114e-39
0.3196779874 0.05688486633 0.83700001 9.655656878e-39
0.3196779874 0.05529056633 0.83700001 9.656017011e-39
0.3196970348 0.05443151633 0.83500004 9.748571373e-39
0.3196970348 0.05284105633 0.83500004 9.653868821e-39
0.3197160813 0.05199341633 0.83300006 9.563829789e-39
0.3197160813 0.05040676633 0.83300006 9.564908789e-39
0.3197160813 0.04882009633 0.83300006 9.656755496e-39
0.3196970348 0.04647914633 0.83500004 1.011845671e-38
0.3196779874 0.04413057633 0.83700001 1.067232414e-38
0.3196208442 0.04025058633 0.84300005 1.131587606e-38
0.3196017959 0.03787915633 0.84500003 1.19626832e-38
0.3195732248 0.03511534633 0.84800005 1.205560751e-38
0.3195541773 0.03272677633 0.85000002 1.214779613e-38
0.3195351299 0.03033055633 0.85200006 1.260625194e-38
0.3195541773 0.02948866633 0.85000002 1.30650777e-38
0.3195541773 0.02786962633 0.85000002 1.297396807e-38
0.3195351299 0.02546198633 0.85200006 1.279100614e-38
0.3195351299 0.02383912633 0.85200006 1.288391083e-38
0.3195351299 0.02221627633 0.85200006 1.306792794e-38
0.3195351299 0.02059341633 0.85200006 1.315867603e-38
0.3195351299 0.01897053633 0.85200006 1.334164357e-38
0.3195160825 0.01654009633 0.85400003 1.306722869e-38
0.3195160825 0.01491342633 0.85400003 1.28835577e-38
0.3195160825 0.01328675633 0.85400003 1.325089968e-38
0.3195160825 0.01166011633 0.85400003 1.361933608e-38
0.3195160825 0.01003344633 0.85400003 1.315838316e-38
0.3194970342 0.007580086331 0.85600007 1.26974022e-38
0.3194970342 0.005949596331 0.85600007 1.288213959e-38
0.3194970342 0.004319116331 0.85600007 1.306581058e-38
0.3194779877 0.001850556331 0.85800004 1.306509311e-38
0.319439891 -0.001467543669 0.86200005 1.31569244e-38
0.319439891 -0.003109443669 0.86200005 1.306544484e-38
0.3194113199 -0.006025653669 0.86500007 1.297360514e-38
0.3194113199 -0.007673253669 0.86500007 1.278993134e-38
0.3194113199 -0.009320873669 0.86500007 1.269810285e-38
0.3193922725 -0.01182945367 0.86700004 1.242260477e-38
0.3193922725 -0.01348085367 0.86700004 1.214708567e-38
0.3193922725 -0.01513229367 0.86700004 1.159319163e-38
0.3212722728 0.1238448663 0.83700001 9.937249205e-39
0.3212570345 0.1216791463 0.83900005 9.476994126e-39
0.3212722728 0.1206562963 0.83700001 9.015668455e-39
0.3212722728 0.1190620063 0.83700001 8.830209405e-39
0.3212875107 0.1180505763 0.83500004 8.737296311e-39
0.3212875107 0.1164600863 0.83500004 8.736218712e-39
0.3213027485 0.1154600963 0.83300006 8.830921265e-39
0.3213027485 0.1138734063 0.83300006 8.646531407e-39
0.3213027485 0.1122867563 0.83300006 8.555779114e-39
0.3213179868 0.1113020063 0.83100003 8.648699215e-39
0.3213179868 0.1097191763 0.83100003 8.740536113e-39
0.3213179868 0.1081362763 0.83100003 9.016042601e-39
0.3213179868 0.1065534463 0.83100003 9.291191759e-39
0.3213179868 0.1049705563 0.83100003 9.015686671e-39
0.3213332246 0.1040086563 0.82900006 8.740181584e-39
0.3213179868 0.1018048363 0.83100003 8.832019883e-39
0.3213332246 0.1008505663 0.82900006 9.015334946e-39
0.3213332246 0.09927151633 0.82900006 9.381962268e-39
0.3213179868 0.09705628633 0.83100003 9.840778214e-39
0.3211275104 0.08747340633 0.85600007 1.02070426e-38
0.3211427487 0.08648676633 0.85400003 1.057653418e-38
0.3211579865 0.08550770633 0.85200006 1.076271349e-38
0.3211579865 0.08388484633 0.85200006 1.103821718e-38
0.3211732253 0.08291725633 0.85000002 1.158922735e-38
0.3211732253 0.08129818633 0.85000002 1.223315202e-38
0.3211884631 0.08034200633 0.84800005 1.177540807e-38
0.3211884631 0.07872675633 0.84800005 1.131551593e-38
0.3211884631 0.07711149633 0.84800005 1.12233231e-38
0.3211884631 0.07549626633 0.84800005 1.113185474e-38
0.3211884631 0.07388101633 0.84800005 1.122405598e-38
0.3211884631 0.07226581633 0.84800005 1.131446636e-38
0.3211884631 0.07065056633 0.84800005 1.149778842e-38
0.3211884631 0.06903533633 0.84800005 1.177256624e-38
0.3211884631 0.06742007633 0.84800005 1.177147883e-38
0.3211884631 0.06580485633 0.84800005 1.177146902e-38
0.3211884631 0.06418959633 0.84800005 1.149595412e-38
0.3212113201 0.06363151633 0.84500003 1.121901131e-38
0.3212113201 0.06202201633 0.84500003 1.066692073e-38
0.3212113201 0.06041247633 0.84500003 1.020846071e-38
0.3212265584 0.05951912633 0.84300005 1.011770141e-38
0.3212265584 0.05791340633 0.84300005 1.011626789e-38
0.3212417967 0.05703152633 0.84100002 1.011483576e-38
0.3212570345 0.05615724633 0.83900005 1.020739152e-38
0.3212570345 0.05455912633 0.83900005 1.030030602e-38
0.3212722728 0.05369628633 0.83700001 1.039035206e-38
0.3212722728 0.05210201633 0.83700001 1.084773868e-38
0.3212722728 0.05050773633 0.83700001 1.130835109e-38
0.3212722728 0.04891343633 0.83700001 1.066729488e-38
0.3212722728 0.04731912633 0.83700001 1.01195231e-38
0.3212570345 0.04497055633 0.83900005 1.067521081e-38
0.3212265584 0.04185630633 0.84300005 1.131805088e-38
0.3212113201 0.03948868633 0.84500003 1.196089234e-38
0.3211884631 0.03673057633 0.84800005 1.269737278e-38
0.3211884631 0.03511534633 0.84800005 1.251442345e-38
0.3211732253 0.03272677633 0.85000002 1.233039233e-38
0.3211732253 0.03110770633 0.85000002 1.278956981e-38
0.3211579865 0.02870769633 0.85200006 1.334022686e-38
0.3211732253 0.02786962633 0.85000002 1.315655867e-38
0.3211732253 0.02625055633 0.85000002 1.297503867e-38
0.3211579865 0.02383912633 0.85200006 1.29753974e-38
0.3211579865 0.02221627633 0.85200006 1.297610646e-38
0.3211427487 0.01979340633 0.85400003 1.334343863e-38
0.3211427487 0.01816676633 0.85400003 1.371043169e-38
0.3211427487 0.01654009633 0.85400003 1.334274079e-38
0.3211275104 0.01410196633 0.85600007 1.306722589e-38
0.3211427487 0.01328675633 0.85400003 1.361823186e-38
0.3211427487 0.01166011633 0.85400003 1.426145448e-38
0.3211275104 0.009210566331 0.85600007 1.334239747e-38
0.3211275104 0.007580086331 0.85600007 1.24240397e-38
0.3211122726 0.005119126331 0.85800004 1.269990212e-38
0.3211122726 0.003484856331 0.85800004 1.306617211e-38
0.3210970347 0.001012486331 0.86000001 1.306509872e-38
0.3210817964 -0.001467543669 0.86200005 1.315728314e-38
0.321058939 -0.004378003669 0.86500007 1.306579516e-38
0.321058939 -0.006025653669 0.86500007 1.306542942e-38
0.321058939 -0.007673253669 0.86500007 1.297286946e-38
0.321058939 -0.009320873669 0.86500007 1.288176544e-38
0.3210437011 -0.01182945367 0.86700004 1.260627296e-38
0.3210437011 -0.01348085367 0.86700004 1.242259496e-38
0.3210437011 -0.01513229367 0.86700004 1.205309358e-38
0.3210437011 -0.01678373367 0.86700004 1.177832698e-38
0.3210437011 -0.01843513367 0.86700004 1.095290753e-38
0.3228665583 0.1238448663 0.83700001 1.021957301e-38
0.3228551296 0.1216791463 0.83900005 1.021670175e-38
0.3228665583 0.1206562963 0.83700001 1.021383469e-38
0.3228665583 0.1190620063 0.83700001 9.844703251e-39
0.3228665583 0.1174677163 0.83700001 9.384088038e-39
0.3228665583 0.1158734563 0.83700001 9.199339447e-39
0.3228779871 0.1148696263 0.83500004 8.922756761e-39
0.3228894158 0.1138734063 0.83300006 8.645816744e-39
0.3228894158 0.1122867563 0.83300006 8.368876728e-39
0.3228894158 0.1107000863 0.83300006 8.004407405e-39
0.322900844 0.1097191763 0.83100003 7.72926105e-39
0.322900844 0.1081362763 0.83100003 8.280275428e-39
0.322900844 0.1065534463 0.83100003 8.83164994e-39
0.322900844 0.1049705563 0.83100003 8.739817247e-39
0.322900844 0.1033877263 0.83100003 8.648344687e-39
0.322900844 0.1018048363 0.83100003 8.739825654e-39
0.3229122723 0.1008505663 0.82900006 8.831306622e-39
0.3229122723 0.09927151633 0.82900006 9.290129574e-39
0.3227465583 0.08846770633 0.85800004 9.657470158e-39
0.3227579866 0.08747340633 0.85600007 9.93369271e-39
0.3227694158 0.08648676633 0.85400003 1.030210669e-38
0.3227694158 0.08486009633 0.85400003 1.05790453e-38
0.3227694158 0.08323342633 0.85400003 1.085490632e-38
0.3227808441 0.08226199633 0.85200006 1.122296157e-38
0.3227808441 0.08063913633 0.85200006 1.159102102e-38
0.3227922723 0.07967914633 0.85000002 1.140771016e-38
0.3227922723 0.07806010633 0.85000002 1.122260844e-38
0.3227922723 0.07644103633 0.85000002 1.094782362e-38
0.3227922723 0.07482202633 0.85000002 1.07648743e-38
0.3227922723 0.07320295633 0.85000002 1.094819216e-38
0.322803701 0.07226581633 0.84800005 1.122335533e-38
0.322803701 0.07065056633 0.84800005 1.158999667e-38
0.322803701 0.06903533633 0.84800005 1.186513181e-38
0.322803701 0.06742007633 0.84800005 1.204843286e-38
0.322803701 0.06580485633 0.84800005 1.223209124e-38
0.322803701 0.06418959633 0.84800005 1.168142438e-38
0.322803701 0.06257436633 0.84800005 1.122296157e-38
0.322803701 0.06095914633 0.84800005 1.094637748e-38
0.3228208444 0.06041247633 0.84500003 1.067015493e-38
0.3228208444 0.05880297633 0.84500003 1.085418605e-38
0.3228208444 0.05719344633 0.84500003 1.113041001e-38
0.3228322722 0.05630768633 0.84300005 1.094602155e-38
0.3228322722 0.05470196633 0.84300005 1.085383152e-38
0.3228322722 0.05309624633 0.84300005 1.09442377e-38
0.3228437013 0.05222581633 0.84100002 1.102997895e-38
0.3228437013 0.05062390633 0.84100002 1.140163132e-38
0.3228437013 0.04902200633 0.84100002 1.177327389e-38
0.3228437013 0.04742009633 0.84100002 1.159103363e-38
0.3228322722 0.04506771633 0.84300005 1.140916751e-38
0.3228208444 0.04270769633 0.84500003 1.140989758e-38
0.3228208444 0.04109819633 0.84500003 1.150244914e-38
0.322803701 0.03834579633 0.84800005 1.186943099e-38
0.3227922723 0.03596485633 0.85000002 1.214672554e-38
0.3227808441 0.03357626633 0.85200006 1.214779753e-38
0.3227808441 0.03195340633 0.85200006 1.214887653e-38
0.3227694158 0.02955342633 0.85400003 1.251658005e-38
0.3227808441 0.02870769633 0.85200006 1.27928012e-38
0.3227808441 0.02708484633 0.85200006 1.270060557e-38
0.3227808441 0.02546198633 0.85200006 1.270025385e-38
0.3227694158 0.02304677633 0.85400003 1.260878409e-38
0.3227694158 0.02142010633 0.85400003 1.260913582e-38
0.3227694158 0.01979340633 0.85400003 1.288427797e-38
0.3227694158 0.01816676633 0.85400003 1.325162416e-38
0.3227694158 0.01654009633 0.85400003 1.306759863e-38
0.3227579866 0.01410196633 0.85600007 1.288319476e-38
0.3227579866 0.01247148633 0.85600007 1.315904597e-38
0.3227579866 0.01084105633 0.85600007 1.352711803e-38
0.3227579866 0.009210566331 0.85600007 1.306687697e-38
0.3227579866 0.007580086331 0.85600007 1.260626876e-38
0.3227465583 0.005119126331 0.85800004 1.279137888e-38
0.3227465583 0.003484856331 0.85800004 1.297505688e-38
0.3227351301 0.001012486331 0.86000001 1.306725812e-38
0.3227237009 -0.001467543669 0.86200005 1.315979286e-38
0.322706558 -0.004378003669 0.86500007 1.315905858e-38
0.322706558 -0.006025653669 0.86500007 1.315832991e-38
0.322706558 -0.007673253669 0.86500007 1.297393024e-38
0.3226951298 -0.01017801367 0.86700004 1.288175563e-38
0.3226951298 -0.01182945367 0.86700004 1.278994115e-38
0.3226837011 -0.01434560367 0.86900002 1.269810426e-38
0.3226837011 -0.01600085367 0.86900002 1.242331383e-38
0.3226837011 -0.01765610367 0.86900002 1.214849958e-38
0.3226951298 -0.01843513367 0.86700004 1.122760827e-38
0.3226951298 -0.02008657367 0.86700004 1.040046663e-38
0.3244532251 0.1216791463 0.83900005 1.104465615e-38
0.3244608443 0.1206562963 0.83700001 1.150061905e-38
0.3244608443 0.1190620063 0.83700001 1.076487289e-38
0.3244608443 0.1174677163 0.83700001 1.012129575e-38
0.3244608443 0.1158734563 0.83700001 9.569554093e-39
0.3244684632 0.1148696263 0.83500004 9.108940282e-39
0.3244760821 0.1138734063 0.83300006 8.645456611e-39
0.3244760821 0.1122867563 0.83300006 8.27847476e-39
0.3244760821 0.1107000863 0.83300006 7.452314027e-39
0.3244760821 0.1091134363 0.83300006 6.717630057e-39
0.3244760821 0.1075267363 0.83300006 7.544149523e-39
0.3244837013 0.1065534463 0.83100003 8.370313059e-39
0.3244837013 0.1049705563 0.83100003 8.462151357e-39
0.3244837013 0.1033877263 0.83100003 8.64654542e-39
0.3244837013 0.1018048363 0.83100003 8.647628623e-39
0.3243732252 0.09110770633 0.86000001 8.73910819e-39
0.3243732252 0.08946959633 0.86000001 9.106094244e-39
0.324388463 0.08910389633 0.85600007 9.565637464e-39
0.324388463 0.08747340633 0.85600007 9.751469259e-39
0.3243960822 0.08648676633 0.85400003 1.00276834e-38
0.3243960822 0.08486009633 0.85400003 1.039573444e-38
0.3243960822 0.08323342633 0.85400003 1.076414562e-38
0.3244037011 0.08226199633 0.85200006 1.085884537e-38
0.3244037011 0.08063913633 0.85200006 1.10407241e-38
0.3244037011 0.07901625633 0.85200006 1.104000664e-38
0.3244037011 0.07739342633 0.85200006 1.113041141e-38
0.3244037011 0.07577057633 0.85200006 1.076594489e-38
0.3244113205 0.07482202633 0.85000002 1.039788404e-38
0.3244113205 0.07320295633 0.85000002 1.076307223e-38
0.3244113205 0.07158390633 0.85000002 1.122262525e-38
0.3244113205 0.06996486633 0.85000002 1.159070152e-38
0.3244189394 0.06903533633 0.84800005 1.204915032e-38
0.3244189394 0.06742007633 0.84800005 1.23246456e-38
0.3244189394 0.06580485633 0.84800005 1.269198058e-38
0.3244189394 0.06418959633 0.84800005 1.195729101e-38
0.3244189394 0.06257436633 0.84800005 1.131444534e-38
0.3244189394 0.06095914633 0.84800005 1.122369024e-38
0.3244189394 0.05934391633 0.84800005 1.113185474e-38
0.3244189394 0.05772866633 0.84800005 1.168286912e-38
0.3244303679 0.05719344633 0.84500003 1.223353178e-38
0.3244303679 0.05558390633 0.84500003 1.18661996e-38
0.3244303679 0.05397437633 0.84500003 1.149777441e-38
0.3244303679 0.05236486633 0.84500003 1.158816937e-38
0.3244303679 0.05075533633 0.84500003 1.168216007e-38
0.3244303679 0.04914580633 0.84500003 1.195982315e-38
0.3244303679 0.04753626633 0.84500003 1.223497511e-38
0.3244303679 0.04592676633 0.84500003 1.241865171e-38
0.3244189394 0.04319150633 0.84800005 1.269487566e-38
0.3244189394 0.04157627633 0.84800005 1.223641565e-38
0.3244189394 0.03996102633 0.84800005 1.177795283e-38
0.3244113205 0.03758390633 0.85000002 1.168647466e-38
0.3244037011 0.03519911633 0.85200006 1.16868334e-38
0.3244037011 0.03357626633 0.85200006 1.187301692e-38
0.3244037011 0.03195340633 0.85200006 1.205669211e-38
0.3243960822 0.02955342633 0.85400003 1.214960801e-38
0.3243960822 0.02792675633 0.85400003 1.23332734e-38
0.3244037011 0.02708484633 0.85200006 1.233362512e-38
0.3243960822 0.02467344633 0.85400003 1.242546482e-38
0.3243960822 0.02304677633 0.85400003 1.233363493e-38
0.3243960822 0.02142010633 0.85400003 1.22414393e-38
0.3243960822 0.01979340633 0.85400003 1.251551086e-38
0.3243960822 0.01816676633 0.85400003 1.279173481e-38
0.3243960822 0.01654009633 0.85400003 1.270061678e-38
0.324388463 0.01410196633 0.85600007 1.270096431e-38
0.324388463 0.01247148633 0.85600007 1.279314732e-38
0.324388463 0.01084105633 0.85600007 1.288463109e-38
0.324388463 0.009210566331 0.85600007 1.28835633e-38
0.324388463 0.007580086331 0.85600007 1.288320737e-38
0.3243808441 0.005119126331 0.85800004 1.288321158e-38
0.3243732252 0.002650606331 0.86000001 1.297504427e-38
0.3243732252 0.001012486331 0.86000001 1.306867063e-38
0.3243656061 -0.001467543669 0.86200005 1.325197588e-38
0.3243541773 -0.004378003669 0.86500007 1.325197028e-38
0.3243541773 -0.006025653669 0.86500007 1.325125281e-38
0.3243541773 -0.007673253669 0.86500007 1.306722309e-38
0.3243465584 -0.01017801367 0.86700004 1.29753988e-38
0.3243465584 -0.01182945367 0.86700004 1.297541001e-38
0.3243389395 -0.01434560367 0.86900002 1.306724411e-38
0.3243389395 -0.01600085367 0.86900002 1.279173622e-38
0.3243389395 -0.01765610367 0.86900002 1.251405071e-38
0.3243465584 -0.01843513367 0.86700004 1.159423419e-38
0.3243389395 -0.02096654367 0.86900002 1.067628561e-38
0.3243389395 -0.02262179367 0.86900002 9.947747733e-39
0.32605513 0.1206562963 0.83700001 1.095105221e-38
0.32605513 0.1190620063 0.83700001 1.058158305e-38
0.32605513 0.1174677163 0.83700001 1.030569681e-38
0.32605513 0.1158734563 0.83700001 9.93833381e-39
0.32605513 0.1142791463 0.83700001 9.570989023e-39
0.3260589394 0.1132791363 0.83500004 9.110732542e-39
0.3260589394 0.1116886763 0.83500004 8.742312959e-39
0.3260589394 0.1100981963 0.83500004 8.281341816e-39
0.3260627489 0.1091134363 0.83300006 7.912204768e-39
0.3260627489 0.1075267363 0.83300006 8.187709856e-39
0.3260627489 0.1059400863 0.83300006 8.552183382e-39
0.3260075109 0.09540484633 0.86200005 8.55146872e-39
0.3260113205 0.09438390633 0.86000001 8.642953892e-39
0.3260113205 0.09274579633 0.86000001 8.64583356e-39
0.3260113205 0.09110770633 0.86000001 8.646551025e-39
0.3260113205 0.08946959633 0.86000001 8.922417647e-39
0.3260189394 0.08910389633 0.85600007 9.29013518e-39
0.3260189394 0.08747340633 0.85600007 9.567812279e-39
0.3260189394 0.08584292633 0.85600007 9.845455748e-39
0.3260227489 0.08486009633 0.85400003 1.012166429e-38
0.3260227489 0.08323342633 0.85400003 1.049007406e-38
0.3260227489 0.08160675633 0.85400003 1.067373805e-38
0.3260227489 0.07998008633 0.85400003 1.085776777e-38
0.3260227489 0.07835341633 0.85400003 1.104036397e-38
0.3260227489 0.07672674633 0.85400003 1.12222455e-38
0.3260265584 0.07577057633 0.85200006 1.085706152e-38
0.3260265584 0.07414768633 0.85200006 1.049007126e-38
0.3260265584 0.07252485633 0.85200006 1.085525384e-38
0.3260265584 0.07090200633 0.85200006 1.122153645e-38
0.3260303681 0.06996486633 0.85000002 1.149777862e-38
0.3260303681 0.06834579633 0.85000002 1.177399136e-38
0.3260303681 0.06672678633 0.85000002 1.186509958e-38
0.3260303681 0.06510771633 0.85000002 1.195621621e-38
0.3260303681 0.06348864633 0.85000002 1.131336774e-38
0.3260341776 0.06257436633 0.84800005 1.057905091e-38
0.3260341776 0.06095914633 0.84800005 1.076273171e-38
0.3260341776 0.05934391633 0.84800005 1.094676143e-38
0.3260341776 0.05772866633 0.84800005 1.131482088e-38
0.3260341776 0.05611343633 0.84800005 1.177473405e-38
0.3260341776 0.05449817633 0.84800005 1.159108127e-38
0.3260341776 0.05288295633 0.84800005 1.149922756e-38
0.3260341776 0.05126769633 0.84800005 1.16835992e-38
0.3260341776 0.04965244633 0.84800005 1.186798906e-38
0.3260398918 0.04914580633 0.84500003 1.214313962e-38
0.3260341776 0.04642198633 0.84800005 1.242152998e-38
0.3260341776 0.04480676633 0.84800005 1.251050963e-38
0.3260341776 0.04319150633 0.84800005 1.250906349e-38
0.3260303681 0.04082201633 0.85000002 1.214350395e-38
0.3260303681 0.03920294633 0.85000002 1.177795143e-38
0.3260265584 0.03682200633 0.85200006 1.141060664e-38
0.3260265584 0.03519911633 0.85200006 1.113510576e-38
0.3260265584 0.03357626633 0.85200006 1.150460714e-38
0.3260227489 0.03118009633 0.85400003 1.196486643e-38
0.3260227489 0.02955342633 0.85400003 1.214818569e-38
0.3260227489 0.02792675633 0.85400003 1.223965125e-38
0.3260227489 0.02630008633 0.85400003 1.242331243e-38
0.3260227489 0.02467344633 0.85400003 1.251514933e-38
0.3260227489 0.02304677633 0.85400003 1.251586959e-38
0.3260227489 0.02142010633 0.85400003 1.260878549e-38
0.3260227489 0.01979340633 0.85400003 1.279066843e-38
0.3260227489 0.01816676633 0.85400003 1.306688818e-38
0.3260189394 0.01573245633 0.85600007 1.279245508e-38
0.3260189394 0.01410196633 0.85600007 1.260949315e-38
0.3260189394 0.01247148633 0.85600007 1.251764924e-38
0.3260189394 0.01084105633 0.85600007 1.242617528e-38
0.3260189394 0.009210566331 0.85600007 1.270096851e-38
0.3260151299 0.006753426331 0.85800004 1.297611767e-38
0.3260113205 0.004288686331 0.86000001 1.297504427e-38
0.3260113205 0.002650606331 0.86000001 1.306722589e-38
0.3260075109 0.0001743563312 0.86200005 1.315976764e-38
0.3260075109 -0.001467543669 0.86200005 1.316048931e-38
0.3260075109 -0.003109443669 0.86200005 1.316013478e-38
0.3260017965 -0.006025653669 0.86500007 1.315978726e-38
0.3260017965 -0.007673253669 0.86500007 1.297612748e-38
0.3259979871 -0.01017801367 0.86700004 1.279281802e-38
0.3259979871 -0.01182945367 0.86700004 1.297577435e-38
0.3259941776 -0.01434560367 0.86900002 1.325163817e-38
0.3259941776 -0.01600085367 0.86900002 1.288214239e-38
0.3259941776 -0.01765610367 0.86900002 1.251226125e-38
0.325990368 -0.02018754367 0.87100005 1.186974348e-38
0.325990368 -0.02184660367 0.87100005 1.131944657e-38
0.325990368 -0.02350561367 0.87100005 1.067910922e-38
0.3259941776 -0.02427704367 0.86900002 1.013070687e-38
0.3259941776 -0.02593229367 0.86900002 1.133614865e-38
0.3276494157 0.1174677163 0.83700001 1.04904356e-38
0.3276494157 0.1158734563 0.83700001 1.02159955e-38
0.3276494157 0.1142791463 0.83700001 1.003052804e-38
0.3276494157 0.1132791363 0.83500004 9.663543385e-39
0.3276494157 0.1116886763 0.83500004 9.294762267e-39
0.3276494157 0.1100981963 0.83500004 9.201489039e-39
0.3276494157 0.1091134363 0.83300006 9.108218613e-39
0.3276494157 0.09868864633 0.86200005 8.923471423e-39
0.3276494157 0.09704674633 0.86200005 8.829487737e-39
0.3276494157 0.09540484633 0.86200005 8.732992923e-39
0.3276494157 0.09438390633 0.86000001 8.642599363e-39
0.3276494157 0.09274579633 0.86000001 8.644401433e-39
0.3276494157 0.09110770633 0.86000001 8.646196496e-39
0.3276494157 0.08946959633 0.86000001 8.831305221e-39
0.3276494157 0.08910389633 0.85600007 9.013908424e-39
0.3276494157 0.08747340633 0.85600007 9.384130077e-39
0.3276494157 0.08584292633 0.85600007 9.752537048e-39
0.3276494157 0.08421246633 0.85600007 9.939068091e-39
0.3276494157 0.08258201633 0.85600007 1.021421164e-38
0.3276494157 0.08095152633 0.85600007 1.03975197e-38
0.3276494157 0.07998008633 0.85400003 1.067338772e-38
0.3276494157 0.07835341633 0.85400003 1.094925715e-38
0.3276494157 0.07672674633 0.85400003 1.131588167e-38
0.3276494157 0.07510010633 0.85400003 1.094818235e-38
0.3276494157 0.07347343633 0.85400003 1.058047743e-38
0.3276494157 0.07184676633 0.85400003 1.085597971e-38
0.3276494157 0.07090200633 0.85200006 1.122117771e-38
0.3276494157 0.06927911633 0.85200006 1.131338035e-38
0.3276494157 0.06834579633 0.85000002 1.149597234e-38
0.3276494157 0.06672678633 0.85000002 1.140305785e-38
0.3276494157 0.06510771633 0.85000002 1.131265588e-38
0.3276494157 0.06348864633 0.85000002 1.057868937e-38
0.3276494157 0.06186963633 0.85000002 9.935134646e-39
0.3276494157 0.06025056633 0.85000002 1.030177038e-38
0.3276494157 0.05934391633 0.84800005 1.076129538e-38
0.3276494157 0.05772866633 0.84800005 1.103750952e-38
0.3276494157 0.05611343633 0.84800005 1.140557878e-38
0.3276494157 0.05449817633 0.84800005 1.140666479e-38
0.3276494157 0.05288295633 0.84800005 1.149849468e-38
0.3276494157 0.05126769633 0.84800005 1.177399416e-38
0.3276494157 0.04965244633 0.84800005 1.205093698e-38
0.3276494157 0.04803724633 0.84800005 1.23268022e-38
0.3276494157 0.04642198633 0.84800005 1.269415399e-38
0.3276494157 0.04480676633 0.84800005 1.251085295e-38
0.3276494157 0.04244102633 0.85000002 1.241793004e-38
0.3276494157 0.04082201633 0.85000002 1.205057685e-38
0.3276494157 0.03844485633 0.85200006 1.17743557e-38
0.3276494157 0.03682200633 0.85200006 1.113115129e-38
0.3276494157 0.03443343633 0.85400003 1.058372844e-38
0.3276494157 0.03280673633 0.85400003 1.122801605e-38
0.3276494157 0.03118009633 0.85400003 1.196449929e-38
0.3276494157 0.02955342633 0.85400003 1.205670052e-38
0.3276494157 0.02792675633 0.85400003 1.223928831e-38
0.3276494157 0.02630008633 0.85400003 1.242259356e-38
0.3276494157 0.02467344633 0.85400003 1.269810285e-38
0.3276494157 0.02225436633 0.85600007 1.278994255e-38
0.3276494157 0.02062390633 0.85600007 1.297397929e-38
0.3276494157 0.01899342633 0.85600007 1.315801602e-38
0.3276494157 0.01736293633 0.85600007 1.34345917e-38
0.3276494157 0.01573245633 0.85600007 1.297648481e-38
0.3276494157 0.01410196633 0.85600007 1.251765485e-38
0.3276494157 0.01247148633 0.85600007 1.224393081e-38
0.3276494157 0.01084105633 0.85600007 1.205847456e-38
0.3276494157 0.009210566331 0.85600007 1.251765905e-38
0.3276494157 0.006753426331 0.85800004 1.306867063e-38
0.3276494157 0.004288686331 0.86000001 1.315871246e-38
0.3276494157 0.002650606331 0.86000001 1.325090389e-38
0.3276494157 0.0001743563312 0.86200005 1.315906559e-38
0.3276494157 -0.001467543669 0.86200005 1.316050332e-38
0.3276494157 -0.004378003669 0.86500007 1.316014739e-38
0.3276494157 -0.006025653669 0.86500007 1.315979426e-38
0.3276494157 -0.007673253669 0.86500007 1.288501085e-38
0.3276494157 -0.009320873669 0.86500007 1.260878829e-38
0.3276494157 -0.01182945367 0.86700004 1.297577435e-38
0.3276494157 -0.01434560367 0.86900002 1.343494622e-38
0.3276494157 -0.01600085367 0.86900002 1.297253455e-38
0.3276494157 -0.01765610367 0.86900002 1.251298152e-38
0.3276494157 -0.01931135367 0.86900002 1.223745961e-38
0.3276494157 -0.02184660367 0.87100005 1.19616014e-38
0.3276494157 -0.02350561367 0.87100005 1.149920233e-38
0.3276494157 -0.02427704367 0.86900002 1.113657292e-38
0.3276494157 -0.02593229367 0.86900002 1.077430223e-38
0.3292913205 0.09868864633 0.86200005 9.384443968e-39
0.3292913205 0.09704674633 0.86200005 9.198626186e-39
0.3292913205 0.09540484633 0.86200005 9.014244735e-39
0.3292913205 0.09376294633 0.86200005 8.830220616e-39
0.3292875109 0.09274579633 0.86000001 8.370691409e-39
0.3292875109 0.09110770633 0.86000001 8.002993495e-39
0.3292875109 0.08946959633 0.86000001 8.370339683e-39
0.3292837015 0.08846770633 0.85800004 8.737683069e-39
0.329279892 0.08747340633 0.85600007 8.923149125e-39
0.329279892 0.08584292633 0.85600007 9.200442269e-39
0.329279892 0.08421246633 0.85600007 9.476301884e-39
0.329279892 0.08258201633 0.85600007 9.660331609e-39
0.329279892 0.08095152633 0.85600007 9.935838098e-39
0.329279892 0.07932103633 0.85600007 1.021135019e-38
0.329279892 0.07769055633 0.85600007 1.048793848e-38
0.329279892 0.07606006633 0.85600007 1.085671259e-38
0.329279892 0.07442961633 0.85600007 1.058012711e-38
0.3292760825 0.07347343633 0.85400003 1.039573585e-38
0.3292760825 0.07184676633 0.85400003 1.067052347e-38
0.3292760825 0.07022006633 0.85400003 1.094531109e-38
0.3292760825 0.06859342633 0.85400003 1.122081758e-38
0.329272273 0.06765629633 0.85200006 1.15874463e-38
0.329272273 0.06603340633 0.85200006 1.140378092e-38
0.329272273 0.06441055633 0.85200006 1.122010852e-38
0.329272273 0.06278772633 0.85200006 1.076093104e-38
0.3292684633 0.06186963633 0.85000002 1.03021249e-38
0.3292684633 0.06025056633 0.85000002 1.048580991e-38
0.3292684633 0.05863155633 0.85000002 1.076129538e-38
0.3292684633 0.05701248633 0.85000002 1.094530549e-38
0.3292646538 0.05611343633 0.84800005 1.122153084e-38
0.3292646538 0.05449817633 0.84800005 1.13140852e-38
0.3292646538 0.05288295633 0.84800005 1.14070011e-38
0.3292646538 0.05126769633 0.84800005 1.15906777e-38
0.3292646538 0.04965244633 0.84800005 1.177470602e-38
0.3292646538 0.04803724633 0.84800005 1.232607773e-38
0.3292684633 0.04567916633 0.85000002 1.278597828e-38
0.3292684633 0.04406009633 0.85000002 1.251012007e-38
0.3292684633 0.04244102633 0.85000002 1.223460237e-38
0.3292684633 0.04082201633 0.85000002 1.195872734e-38
0.329272273 0.03844485633 0.85200006 1.177470602e-38
0.329272273 0.03682200633 0.85200006 1.140773258e-38
0.3292760825 0.03443343633 0.85400003 1.104254299e-38
0.3292760825 0.03280673633 0.85400003 1.141203737e-38
0.3292760825 0.03118009633 0.85400003 1.187265538e-38
0.3292760825 0.02955342633 0.85400003 1.196378042e-38
0.3292760825 0.02792675633 0.85400003 1.214708848e-38
0.3292760825 0.02630008633 0.85400003 1.233039793e-38
0.329279892 0.02388484633 0.85600007 1.251407313e-38
0.329279892 0.02225436633 0.85600007 1.269774973e-38
0.329279892 0.02062390633 0.85600007 1.278995376e-38
0.329279892 0.01899342633 0.85600007 1.29750695e-38
0.329279892 0.01736293633 0.85600007 1.306797138e-38
0.329279892 0.01573245633 0.85600007 1.288429058e-38
0.329279892 0.01410196633 0.85600007 1.260948754e-38
0.329279892 0.01247148633 0.85600007 1.251692197e-38
0.329279892 0.01084105633 0.85600007 1.242438022e-38
0.3292837015 0.008387726331 0.85800004 1.279352848e-38
0.3292837015 0.006753426331 0.85800004 1.325306049e-38
0.3292875109 0.004288686331 0.86000001 1.325126262e-38
0.3292875109 0.002650606331 0.86000001 1.334274499e-38
0.3292913205 0.0001743563312 0.86200005 1.343530496e-38
0.3292913205 -0.001467543669 0.86200005 1.352821805e-38
0.3292970349 -0.004378003669 0.86500007 1.33438324e-38
0.3292970349 -0.006025653669 0.86500007 1.325163677e-38
0.3292970349 -0.007673253669 0.86500007 1.316016e-38
0.3293008443 -0.01017801367 0.86700004 1.315980267e-38
0.3293008443 -0.01182945367 0.86700004 1.361862422e-38
0.3293046538 -0.01434560367 0.86900002 1.416962739e-38
0.3293046538 -0.01600085367 0.86900002 1.334273938e-38
0.3293046538 -0.01765610367 0.86900002 1.251585558e-38
0.3293084634 -0.02018754367 0.87100005 1.233002799e-38
0.3293084634 -0.02184660367 0.87100005 1.214493748e-38
0.3293084634 -0.02350561367 0.87100005 1.149995203e-38
0.3293084634 -0.02516468367 0.87100005 1.094642512e-38
0.3293046538 -0.02593229367 0.86900002 1.095216344e-38
0.3293046538 -0.02758754367 0.86900002 1.096015224e-38
0.3309332253 0.09868864633 0.86200005 9.845424919e-39
0.3309332253 0.09704674633 0.86200005 9.661037864e-39
0.3309332253 0.09540484633 0.86200005 9.385172643e-39
0.3309332253 0.09376294633 0.86200005 9.107517964e-39
0.3309256062 0.09274579633 0.86000001 8.187374945e-39
0.3309332253 0.09047911633 0.86200005 7.360135212e-39
0.3309332253 0.08883721633 0.86200005 7.908275528e-39
0.3309256062 0.08783154633 0.86000001 8.460010173e-39
0.3309179873 0.08683340633 0.85800004 8.55292607e-39
0.3309179873 0.08519913633 0.85800004 8.738748056e-39
0.3309103684 0.08421246633 0.85600007 8.924570041e-39
0.3309103684 0.08258201633 0.85600007 9.200080734e-39
0.3309103684 0.08095152633 0.85600007 9.475950159e-39
0.3309103684 0.07932103633 0.85600007 9.843653678e-39
0.3309103684 0.07769055633 0.85600007 1.01195231e-38
0.3309103684 0.07606006633 0.85600007 1.039466525e-38
0.3309103684 0.07442961633 0.85600007 1.030282415e-38
0.3309103684 0.07279912633 0.85600007 1.021062992e-38
0.3309103684 0.07116864633 0.85600007 1.048577908e-38
0.3309027492 0.07022006633 0.85400003 1.076128417e-38
0.3309027492 0.06859342633 0.85400003 1.122082038e-38
0.3309027492 0.06696675633 0.85400003 1.167892167e-38
0.3309027492 0.06534008633 0.85400003 1.140341518e-38
0.3308951303 0.06441055633 0.85200006 1.112826462e-38
0.3308951303 0.06278772633 0.85200006 1.085167913e-38
0.3308875109 0.06186963633 0.85000002 1.066765501e-38
0.3308875109 0.06025056633 0.85000002 1.075949751e-38
0.3308875109 0.05863155633 0.85000002 1.085168333e-38
0.3308875109 0.05701248633 0.85000002 1.094422789e-38
0.3308875109 0.05539341633 0.85000002 1.103642212e-38
0.3308875109 0.05377439633 0.85000002 1.122045324e-38
0.330879892 0.05288295633 0.84800005 1.140556056e-38
0.3308875109 0.05053625633 0.85000002 1.149883379e-38
0.3308875109 0.04891724633 0.85000002 1.159067209e-38
0.3308875109 0.04729817633 0.85000002 1.22338807e-38
0.3308875109 0.04567916633 0.85000002 1.29689234e-38
0.3308875109 0.04406009633 0.85000002 1.251010465e-38
0.3308875109 0.04244102633 0.85000002 1.205092437e-38
0.3308951303 0.04006768633 0.85200006 1.19594448e-38
0.3309027492 0.03768677633 0.85400003 1.186725618e-38
0.3309027492 0.03606010633 0.85400003 1.168430826e-38
0.3309027492 0.03443343633 0.85400003 1.159426782e-38
0.3309027492 0.03280673633 0.85400003 1.168825712e-38
0.3309103684 0.03040672633 0.85600007 1.177974089e-38
0.3309103684 0.02877627633 0.85600007 1.196341748e-38
0.3309103684 0.02714578633 0.85600007 1.214601088e-38
0.3309103684 0.02551533633 0.85600007 1.223676737e-38
0.3309103684 0.02388484633 0.85600007 1.242116003e-38
0.3309103684 0.02225436633 0.85600007 1.251515213e-38
0.3309103684 0.02062390633 0.85600007 1.269954899e-38
0.3309103684 0.01899342633 0.85600007 1.270027347e-38
0.3309103684 0.01736293633 0.85600007 1.279210336e-38
0.3309103684 0.01573245633 0.85600007 1.279245648e-38
0.3309103684 0.01410196633 0.85600007 1.279173341e-38
0.3309103684 0.01247148633 0.85600007 1.279101034e-38
0.3309103684 0.01084105633 0.85600007 1.288393044e-38
0.3309179873 0.008387726331 0.85800004 1.316159914e-38
0.3309179873 0.006753426331 0.85800004 1.343638115e-38
0.3309256062 0.004288686331 0.86000001 1.343565668e-38
0.3309256062 0.002650606331 0.86000001 1.343565808e-38
0.3309332253 0.0001743563312 0.86200005 1.361969061e-38
0.3309332253 -0.001467543669 0.86200005 1.389520551e-38
0.3309446541 -0.004378003669 0.86500007 1.361970883e-38
0.3309446541 -0.006025653669 0.86500007 1.334418833e-38
0.3309446541 -0.007673253669 0.86500007 1.35278439e-38
0.330952273 -0.01017801367 0.86700004 1.380264554e-38
0.330952273 -0.01182945367 0.86700004 1.435402986e-38
0.3309598919 -0.01434560367 0.86900002 1.490395543e-38
0.3309598919 -0.01600085367 0.86900002 1.370972404e-38
0.330967511 -0.01852850367 0.87100005 1.260697782e-38
0.330967511 -0.02018754367 0.87100005 1.242294529e-38
