# .PCD v0.7 - Point Cloud Data file format
VERSION 0.7
FIELDS x y z rgb
SIZE 4 4 4 4
TYPE F F F F
COUNT 1 1 1 1
WIDTH 908
HEIGHT 1
VIEWPOINT 0 0 0 1 0 0 0
POINTS 908
DATA ascii
0.3199685667 0.085474283 0.634545796 8.551109988e-39
0.3219685967 0.08568 0.631949596 8.180900946e-39
0.3219685967 0.08568 0.630362956 7.809980045e-39
0.3239685767 0.085885718 0.627755336 6.980238995e-39
0.3279685867 0.086297147 0.624115346 6.153755963e-39
0.3299685567 0.086502858 0.621488656 7.80719006e-39
0.3299685567 0.086502858 0.619886756 9.573606649e-39
0.3279685867 0.086297147 0.619321046 1.244205059e-38
0.2309685767 0.077733338 0.914082956 1.629121989e-38
0.2309685767 0.077733338 0.912669626 1.57351216e-38
0.2309685767 0.077733338 0.911256296 1.52734386e-38
0.2319685667 0.0778381 0.909648686 1.508905575e-38
0.2359685767 0.078257151 0.907448676 1.499686432e-38
0.2359685767 0.078257151 0.906025826 1.499615106e-38
0.2359685767 0.078257151 0.904602956 1.490396104e-38
0.2369685667 0.078361914 0.902978206 1.490468411e-38
0.2369685667 0.078361914 0.901553436 1.49057575e-38
0.2369685667 0.078361914 0.900128676 1.509050189e-38
0.2389685967 0.078571431 0.898288666 1.518342619e-38
0.2389685967 0.078571431 0.896860106 1.490578132e-38
0.2389685967 0.078571431 0.895431526 1.453664287e-38
0.2389685967 0.078571431 0.894002956 1.499833008e-38
0.2389685967 0.078571431 0.892574376 1.555184718e-38
0.2409685667 0.078780949 0.890711526 1.573730623e-38
0.2409685667 0.078780949 0.889279156 1.601460918e-38
0.2409685667 0.078780949 0.887846776 1.610859987e-38
0.2419685567 0.078885712 0.886191526 1.620294369e-38
0.2419685567 0.078885712 0.884757246 1.574017608e-38
0.2439685867 0.079095237 0.882869616 1.518701071e-38
0.2439685867 0.079095237 0.881431526 1.518701211e-38
0.2439685867 0.079095237 0.879993436 1.518843864e-38
0.2439685867 0.079095237 0.878555336 1.491077135e-38
0.2439685867 0.079095237 0.877117246 1.472495497e-38
0.2449685767 0.0792 0.875442966 1.454236858e-38
0.2449685767 0.0792 0.874002956 1.445124494e-38
0.2469685567 0.079409525 0.872082956 1.417537412e-38
0.2469685567 0.079409525 0.870639156 1.389986903e-38
0.2489685867 0.07961905 0.868707716 1.45448713e-38
0.2499685767 0.079723813 0.867014386 1.528170906e-38
0.2499685767 0.079723813 0.865564866 1.537426483e-38
0.2499685767 0.079723813 0.864115336 1.555865328e-38
0.2499685767 0.079723813 0.862665816 1.574232428e-38
0.2499685767 0.079723813 0.861216286 1.601819931e-38
0.2499685767 0.079723813 0.859766766 1.592565755e-38
0.2499685767 0.079723813 0.858317236 1.583347314e-38
0.2519685467 0.07993333 0.856349626 1.592495971e-38
0.2519685467 0.07993333 0.854896306 1.610826776e-38
0.2539685867 0.080142856 0.852917236 1.628834723e-38
0.2569685467 0.080457143 0.850665836 1.656062653e-38
0.2569685467 0.080457143 0.849202956 1.582630409e-38
0.2569685467 0.080457143 0.847740106 1.500013495e-38
0.2569685467 0.080457143 0.846277246 1.509268091e-38
0.2569685467 0.080457143 0.844814396 1.509340958e-38
0.2569685467 0.080457143 0.843351536 1.500122796e-38
0.2569685467 0.080457143 0.841888676 1.481753455e-38
0.2569685467 0.080457143 0.840425826 1.490934903e-38
0.2569685467 0.080457143 0.838962966 1.491004267e-38
0.2569685467 0.080457143 0.837500106 1.509297238e-38
0.2569685467 0.080457143 0.836037256 1.518340237e-38
0.2569685467 0.080457143 0.834574386 1.500012094e-38
0.2569685467 0.080457143 0.833111536 1.481644294e-38
0.2589685767 0.080666669 0.831069616 1.472388297e-38
0.2609685467 0.080876186 0.829020106 1.463169295e-38
0.2589685767 0.080666669 0.828136286 1.453950292e-38
0.2589685767 0.080666669 0.826669626 1.453948471e-38
0.2589685767 0.080666669 0.825202966 1.444727366e-38
0.2589685767 0.080666669 0.823736286 1.435507943e-38
0.2589685767 0.080666669 0.822269626 1.444727506e-38
0.2589685767 0.080666669 0.820802956 1.453946088e-38
0.2569685467 0.080457143 0.819945826 1.481495896e-38
0.2589685767 0.080666669 0.817869616 1.500005788e-38
0.2569685467 0.080457143 0.817020116 1.481530509e-38
0.2569685467 0.080457143 0.815557256 1.463201104e-38
0.2569685467 0.080457143 0.814094386 1.453983643e-38
0.2589685767 0.080666669 0.812002966 1.444799813e-38
0.2589685767 0.080666669 0.810536286 1.417213151e-38
0.2589685767 0.080666669 0.809069616 1.398810459e-38
0.2589685767 0.080666669 0.807602966 1.398918359e-38
0.2589685767 0.080666669 0.806136286 1.408137642e-38
0.2589685767 0.080666669 0.804669616 1.380550979e-38
0.2589685767 0.080666669 0.803202956 1.36218346e-38
0.2589685767 0.080666669 0.801736286 1.398917378e-38
0.2589685767 0.080666669 0.800269626 1.4448717e-38
0.2589685767 0.080666669 0.798802936 1.444872401e-38
0.2589685767 0.080666669 0.797336306 1.45405581e-38
0.2589685767 0.080666669 0.795869616 1.426505161e-38
0.2589685767 0.080666669 0.794402956 1.408174075e-38
0.2589685767 0.080666669 0.792936286 1.435509765e-38
0.2589685767 0.080666669 0.791469626 1.472279416e-38
0.2589685767 0.080666669 0.790002966 1.444692474e-38
0.2589685767 0.080666669 0.788536276 1.417356784e-38
0.2609685467 0.080876186 0.786376296 1.380586432e-38
0.2589685767 0.080666669 0.785602956 1.353034802e-38
0.2589685767 0.080666669 0.784136286 1.380584611e-38
0.2589685767 0.080666669 0.782669596 1.408137922e-38
0.2589685767 0.080666669 0.781202966 1.398921302e-38
0.2589685767 0.080666669 0.779736306 1.38051959e-38
0.2589685767 0.080666669 0.778269616 1.435622149e-38
0.2589685767 0.080666669 0.776802956 1.490757218e-38
0.2609685467 0.080876186 0.774612486 1.481535833e-38
0.2589685767 0.080666669 0.773869626 1.472348921e-38
0.2609685467 0.080876186 0.771671526 1.472381571e-38
0.2609685467 0.080876186 0.770201056 1.472168293e-38
0.2609685467 0.080876186 0.768730576 1.463130339e-38
0.2609685467 0.080876186 0.767260096 1.454055109e-38
0.2609685467 0.080876186 0.765789656 1.426505301e-38
0.2609685467 0.080876186 0.764319146 1.398845912e-38
0.2619685967 0.080980957 0.762471526 1.435578989e-38
0.2619685967 0.080980957 0.760999136 1.472243963e-38
0.2619685967 0.080980957 0.759526756 1.463206429e-38
0.2619685967 0.080980957 0.758054376 1.463274112e-38
0.2619685967 0.080980957 0.756581986 1.454122512e-38
0.2619685967 0.080980957 0.755109636 1.435900587e-38
0.2609685467 0.080876186 0.754025816 1.454125875e-38
0.2609685467 0.080876186 0.752555336 1.472387597e-38
0.2619685967 0.080980957 0.750692486 1.481537515e-38
0.2619685967 0.080980957 0.749220066 1.490683089e-38
0.2639685767 0.081190482 0.746955326 1.490680988e-38
0.2639685767 0.081190482 0.745479166 1.490680847e-38
0.2659685467 0.0814 0.743202976 1.435543676e-38
0.2659685467 0.0814 0.741722966 1.380370352e-38
0.2659685467 0.0814 0.740242986 1.417068397e-38
0.2659685467 0.0814 0.738762966 1.444583593e-38
0.2679685767 0.081609525 0.736467716 1.4446559e-38
0.2679685767 0.081609525 0.734983886 1.444620307e-38
0.2679685767 0.081609525 0.733500086 1.444477094e-38
0.2689685667 0.081714287 0.731602966 1.444263116e-38
0.2689685667 0.081714287 0.730117226 1.435116701e-38
0.2709685967 0.081923813 0.727797236 1.435079426e-38
0.2709685967 0.081923813 0.726307716 1.425966362e-38
0.2729685767 0.082133338 0.723976276 1.42603951e-38
0.2729685767 0.082133338 0.722482976 1.416929108e-38
0.2729685767 0.082133338 0.720989606 1.407814923e-38
0.2729685767 0.082133338 0.719496276 1.370970862e-38
0.2729685767 0.082133338 0.718002936 1.334129465e-38
0.2749685467 0.082342856 0.715648676 1.389267056e-38
0.2769685867 0.082552388 0.713286756 1.435219556e-38
0.2779685667 0.082657143 0.711351506 1.398376617e-38
0.2779685667 0.082657143 0.709848666 1.361570252e-38
0.2799685467 0.082866669 0.707469606 1.343095252e-38
0.2799685467 0.082866669 0.705962956 1.333697164e-38
0.2799685467 0.082866669 0.704456296 1.315402512e-38
0.2799685467 0.082866669 0.702949606 1.297106739e-38
0.2819685767 0.083076194 0.700551506 1.26955581e-38
0.2819685767 0.083076194 0.699041036 1.250615719e-38
0.2819685767 0.083076194 0.697530566 1.241504897e-38
0.2819685767 0.083076194 0.696020096 1.232391833e-38
0.2839685567 0.083285719 0.693602946 1.223278909e-38
0.2859685867 0.083495244 0.691178166 1.223386248e-38
0.2869685767 0.083600007 0.689202956 1.204803629e-38
0.2869685767 0.083600007 0.687682956 1.18632877e-38
0.2869685767 0.083600007 0.686162946 1.167889924e-38
0.2889685467 0.083809525 0.683717246 1.14016005e-38
0.2909685867 0.08401905 0.681263886 1.103533611e-38
0.2949685867 0.0844381 0.677869616 1.057615442e-38
0.2949685867 0.0844381 0.676334376 1.039355683e-38
0.2969685667 0.084647626 0.673858196 1.02106019e-38
0.2989685967 0.084857151 0.671374346 1.01187664e-38
0.2989685967 0.084857151 0.669831506 1.002514845e-38
0.3009685767 0.085066676 0.667336276 9.934041633e-39
0.3029685467 0.085276194 0.664833456 9.842194926e-39
0.3039685967 0.085380957 0.662802926 9.658153991e-39
0.3059685667 0.085590474 0.660286776 9.565966769e-39
0.3059685667 0.085590474 0.658730596 9.289033759e-39
0.3079686067 0.0858 0.656202936 9.103583118e-39
0.3079686067 0.0858 0.654642936 9.012837832e-39
0.3099685767 0.086009525 0.652103896 8.922068724e-39
0.3099685767 0.086009525 0.650540106 8.830223418e-39
0.3119685467 0.086219043 0.647989656 8.738741049e-39
0.3139685867 0.086428575 0.645431516 8.279918097e-39
0.3159685567 0.086638093 0.642865836 7.912933444e-39
0.3159685567 0.086638093 0.641290566 7.545591459e-39
0.3159685567 0.086638093 0.639715336 7.270077964e-39
0.3179685967 0.086847618 0.637134366 6.900219247e-39
0.3199685667 0.087057143 0.634545796 6.622201632e-39
0.3219685967 0.087266669 0.631949596 7.90969224e-39
0.3219685967 0.087266669 0.630362956 9.275745246e-39
0.3219685967 0.087266669 0.628776276 9.929714423e-39
0.3219685967 0.087266669 0.627189606 1.067560878e-38
0.3299685567 0.088104762 0.621488656 1.216264429e-38
0.3299685567 0.088104762 0.619886756 1.364963356e-38
0.2289685467 0.078933336 0.917279166 1.656460341e-38
0.2309685767 0.079146668 0.915496296 1.582237065e-38
0.2309685767 0.079146668 0.914082956 1.51823598e-38
0.2309685767 0.079146668 0.912669626 1.509336194e-38
0.2309685767 0.079146668 0.911256296 1.509193401e-38
0.2319685667 0.079253338 0.909648686 1.481535833e-38
0.2339685967 0.079466678 0.907841056 1.462952934e-38
0.2359685767 0.079680003 0.906025826 1.4168554e-38
0.2359685767 0.079680003 0.904602956 1.370937932e-38
0.2359685767 0.079680003 0.903180106 1.398524874e-38
0.2359685767 0.079680003 0.901757246 1.426182582e-38
0.2369685667 0.079786666 0.900128676 1.435509205e-38
0.2369685667 0.079786666 0.898703916 1.444621428e-38
0.2389685967 0.080000006 0.896860106 1.435366692e-38
0.2389685967 0.080000006 0.895431526 1.426004057e-38
0.2389685967 0.080000006 0.894002956 1.481069762e-38
0.2389685967 0.080000006 0.892574376 1.536421892e-38
0.2409685667 0.080213338 0.890711526 1.545856274e-38
0.2409685667 0.080213338 0.889279156 1.555184157e-38
0.2409685667 0.080213338 0.887846776 1.5645119e-38
0.2419685567 0.080320001 0.886191526 1.57369517e-38
0.2419685567 0.080320001 0.884757246 1.536960691e-38
0.2439685867 0.080533341 0.882869616 1.500262226e-38
0.2439685867 0.080533341 0.881431526 1.481931e-38
0.2439685867 0.080533341 0.879993436 1.46334796e-38
0.2439685867 0.080533341 0.878555336 1.453984344e-38
0.2449685767 0.080640003 0.876882946 1.444908974e-38
0.2449685767 0.080640003 0.875442966 1.426650055e-38
0.2449685767 0.080640003 0.874002956 1.417430352e-38
0.2469685567 0.080853336 0.872082956 1.343961675e-38
0.2469685567 0.080853336 0.870639156 1.270493278e-38
0.2489685867 0.081066668 0.868707716 1.334778266e-38
0.2499685767 0.081173338 0.867014386 1.408139183e-38
0.2499685767 0.081173338 0.865564866 1.444801635e-38
0.2499685767 0.081173338 0.864115336 1.49079113e-38
0.2499685767 0.081173338 0.862665816 1.500046426e-38
0.2499685767 0.081173338 0.861216286 1.518629325e-38
0.2499685767 0.081173338 0.859766766 1.482111067e-38
0.2499685767 0.081173338 0.858317236 1.454202666e-38
0.2499685767 0.081173338 0.856867726 1.499798536e-38
0.2499685767 0.081173338 0.855418196 1.55497116e-38
0.2519685467 0.08138667 0.853442976 1.52752785e-38
0.2539685867 0.08160001 0.851460096 1.509124598e-38
0.2559685567 0.081813335 0.849469626 1.499940908e-38
0.2559685567 0.081813335 0.848008676 1.500048107e-38
0.2569685467 0.081919998 0.846277246 1.50008356e-38
0.2569685467 0.081919998 0.844814396 1.509304104e-38
0.2569685467 0.081919998 0.843351536 1.500157549e-38
0.2559685567 0.081813335 0.842164866 1.490972598e-38
0.2559685567 0.081813335 0.840703916 1.490971337e-38
0.2559685567 0.081813335 0.839242956 1.500117331e-38
0.2559685567 0.081813335 0.837782006 1.500079777e-38
0.2559685567 0.081813335 0.836321056 1.500045445e-38
0.2559685567 0.081813335 0.834860116 1.490863437e-38
0.2569685467 0.081919998 0.833111536 1.481643033e-38
0.2589685767 0.082133338 0.831069616 1.472566122e-38
0.2589685767 0.082133338 0.829602956 1.472422769e-38
0.2589685767 0.082133338 0.828136286 1.463167753e-38
0.2589685767 0.082133338 0.826669626 1.453946509e-38
0.2589685767 0.082133338 0.825202966 1.444761278e-38
0.2589685767 0.082133338 0.823736286 1.444726385e-38
0.2589685767 0.082133338 0.822269626 1.463166212e-38
0.2589685767 0.082133338 0.820802956 1.481533031e-38
0.2569685467 0.081919998 0.819945826 1.50908354e-38
0.2569685467 0.081919998 0.818482956 1.545781304e-38
0.2569685467 0.081919998 0.817020116 1.509046545e-38
0.2569685467 0.081919998 0.815557256 1.481532751e-38
0.2569685467 0.081919998 0.814094386 1.472386055e-38
0.2569685467 0.081919998 0.812631546 1.463166072e-38
0.2569685467 0.081919998 0.811168686 1.444798412e-38
0.2589685767 0.082133338 0.809069616 1.435615703e-38
0.2589685767 0.082133338 0.807602966 1.408065895e-38
0.2589685767 0.082133338 0.806136286 1.389734529e-38
0.2589685767 0.082133338 0.804669616 1.35310795e-38
0.2589685767 0.082133338 0.803202956 1.316373191e-38
0.2589685767 0.082133338 0.801736286 1.371473928e-38
0.2589685767 0.082133338 0.800269626 1.435759617e-38
0.2589685767 0.082133338 0.798802936 1.454127697e-38
0.2589685767 0.082133338 0.797336306 1.481569745e-38
0.2589685767 0.082133338 0.795869616 1.463201805e-38
0.2589685767 0.082133338 0.794402956 1.444907573e-38
0.2589685767 0.082133338 0.792936286 1.444765201e-38
0.2589685767 0.082133338 0.791469626 1.444729048e-38
0.2589685767 0.082133338 0.790002966 1.435509485e-38
0.2589685767 0.082133338 0.788536276 1.426469008e-38
0.2589685767 0.082133338 0.787069616 1.408137361e-38
0.2589685767 0.082133338 0.785602956 1.389734109e-38
0.2589685767 0.082133338 0.784136286 1.408065054e-38
0.2589685767 0.082133338 0.782669596 1.426469568e-38
0.2589685767 0.082133338 0.781202966 1.42647125e-38
0.2589685767 0.082133338 0.779736306 1.426398943e-38
0.2589685767 0.082133338 0.778269616 1.435582072e-38
0.2589685767 0.082133338 0.776802956 1.453949171e-38
0.2589685767 0.082133338 0.775336286 1.463132581e-38
0.2589685767 0.082133338 0.773869626 1.481533732e-38
0.2589685767 0.082133338 0.772402936 1.490715319e-38
0.2609685467 0.08234667 0.770201056 1.508904314e-38
0.2609685467 0.08234667 0.768730576 1.490681968e-38
0.2609685467 0.08234667 0.767260096 1.47242319e-38
0.2609685467 0.08234667 0.765789656 1.417286859e-38
0.2609685467 0.08234667 0.764319146 1.371331837e-38
0.2609685467 0.08234667 0.762848666 1.417248324e-38
0.2609685467 0.08234667 0.761378196 1.472387036e-38
0.2609685467 0.08234667 0.759907716 1.472460464e-38
0.2609685467 0.08234667 0.758437276 1.472458362e-38
0.2609685467 0.08234667 0.756966766 1.435686189e-38
0.2609685467 0.08234667 0.755496286 1.40813638e-38
0.2609685467 0.08234667 0.754025816 1.43568787e-38
0.2609685467 0.08234667 0.752555336 1.472387456e-38
0.2619685967 0.082453333 0.750692486 1.472388858e-38
0.2619685967 0.082453333 0.749220066 1.472387176e-38
0.2639685767 0.082666665 0.746955326 1.472421508e-38
0.2639685767 0.082666665 0.745479166 1.481532751e-38
0.2659685467 0.082879998 0.743202976 1.463093344e-38
0.2659685467 0.082879998 0.741722966 1.444617925e-38
0.2659685467 0.082879998 0.740242986 1.453657281e-38
0.2659685467 0.082879998 0.738762966 1.472170115e-38
0.2659685467 0.082879998 0.737282956 1.453876864e-38
0.2679685767 0.08309333 0.734983886 1.444548841e-38
0.2679685767 0.08309333 0.733500086 1.453588057e-38
0.2689685667 0.0832 0.731602966 1.471776771e-38
0.2689685667 0.0832 0.730117226 1.444334722e-38
0.2689685667 0.0832 0.728631526 1.425894195e-38
0.2709685967 0.08341334 0.726307716 1.416852597e-38
0.2709685967 0.08341334 0.724818166 1.416746238e-38
0.2729685767 0.083626673 0.722482976 1.40745647e-38
0.2729685767 0.083626673 0.720989606 1.398307533e-38
0.2729685767 0.083626673 0.719496276 1.380011059e-38
0.2729685767 0.083626673 0.718002936 1.370864644e-38
0.2749685467 0.083839998 0.715648676 1.380085468e-38
0.2749685467 0.083839998 0.714151556 1.398414732e-38
0.2769685867 0.084053338 0.711785786 1.370862122e-38
0.2779685667 0.08416 0.709848666 1.352351109e-38
0.2779685667 0.08416 0.708345826 1.333911843e-38
0.2779685667 0.08416 0.706842956 1.315402932e-38
0.2799685467 0.084373333 0.704456296 1.306149458e-38
0.2799685467 0.084373333 0.702949606 1.306147496e-38
0.2799685467 0.084373333 0.701442956 1.269303856e-38
0.2799685467 0.084373333 0.699936326 1.241683282e-38
0.2819685767 0.084586665 0.697530566 1.223246258e-38
0.2819685767 0.084586665 0.696020096 1.214132634e-38
0.2839685567 0.084799998 0.693602946 1.214202558e-38
0.2859685867 0.085013337 0.691178166 1.214094799e-38
0.2869685767 0.085120007 0.689202956 1.18643639e-38
0.2869685767 0.085120007 0.687682956 1.158706515e-38
0.2869685767 0.085120007 0.686162946 1.14026795e-38
0.2889685467 0.085333332 0.683717246 1.13108454e-38
0.2909685867 0.085546672 0.681263886 1.085166932e-38
0.2909685867 0.085546672 0.679736286 1.039213311e-38
0.2949685867 0.085973337 0.676334376 1.002658478e-38
0.2969685667 0.08618667 0.673858196 9.659237195e-39
0.2989685967 0.08640001 0.671374346 9.568113559e-39
0.2989685967 0.08640001 0.669831506 9.475210273e-39
0.3029685467 0.086826667 0.666383916 9.291188956e-39
0.3029685467 0.086826667 0.664833456 9.106796295e-39
0.3039685967 0.086933337 0.662802926 9.106074626e-39
0.3079686067 0.087360002 0.659322946 9.1057229e-39
0.3079686067 0.087360002 0.657762936 8.922058915e-39
0.3099685767 0.087573335 0.655231526 8.738394929e-39
0.3099685767 0.087573335 0.653667716 8.646925171e-39
0.3099685767 0.087573335 0.652103896 8.646553827e-39
0.3119685467 0.087786667 0.649557256 8.554707121e-39
0.3139685867 0.088000007 0.647002926 8.555061649e-39
0.3159685567 0.088213332 0.644441066 7.82073361e-39
0.3179685967 0.088426672 0.641871506 7.083895845e-39
0.3179685967 0.088426672 0.640292466 6.531089206e-39
0.3179685967 0.088426672 0.638713446 6.066557364e-39
0.3179685967 0.088426672 0.637134366 5.418713262e-39
0.3179685967 0.088426672 0.635555326 4.78376671e-39
0.3219685967 0.088853337 0.631949596 7.730763242e-39
0.3219685967 0.088853337 0.630362956 1.07753476e-38
0.3219685967 0.088853337 0.628776276 1.299377263e-38
0.3219685967 0.088853337 0.627189606 1.530297797e-38
0.2309685767 0.080560006 0.918322966 1.481899751e-38
0.2289685467 0.080342859 0.917279166 1.573051133e-38
0.2309685767 0.080560006 0.915496296 1.536457905e-38
0.2289685467 0.080342859 0.914460106 1.499867059e-38
0.2289685467 0.080342859 0.913050586 1.490934623e-38
0.2309685767 0.080560006 0.911256296 1.491042943e-38
0.2309685767 0.080560006 0.909842966 1.472676684e-38
0.2319685667 0.080668576 0.908233426 1.463527747e-38
0.2339685967 0.080885723 0.906422016 1.426505301e-38
0.2359685767 0.081102863 0.904602956 1.380300707e-38
0.2359685767 0.081102863 0.903180106 1.389376778e-38
0.2359685767 0.081102863 0.901757246 1.40767143e-38
0.2369685667 0.081211433 0.900128676 1.398415573e-38
0.2369685667 0.081211433 0.898703916 1.38919573e-38
0.2369685667 0.081211433 0.897279136 1.38001176e-38
0.2389685967 0.08142858 0.895431526 1.370829051e-38
0.2389685967 0.08142858 0.894002956 1.380013441e-38
0.2369685667 0.081211433 0.893004876 1.389232864e-38
0.2409685667 0.08164572 0.890711526 1.45405595e-38
0.2419685567 0.08175429 0.889060106 1.518342059e-38
0.2409685667 0.08164572 0.887846776 1.518307447e-38
0.2419685567 0.08175429 0.886191526 1.527490716e-38
0.2419685567 0.08175429 0.884757246 1.499903914e-38
0.2419685567 0.08175429 0.883322966 1.481500661e-38
0.2439685867 0.081971437 0.881431526 1.453985605e-38
0.2439685867 0.081971437 0.879993436 1.426506142e-38
0.2439685867 0.081971437 0.878555336 1.417322032e-38
0.2449685767 0.082080007 0.876882946 1.417322312e-38
0.2449685767 0.082080007 0.875442966 1.398883887e-38
0.2449685767 0.082080007 0.874002956 1.389664464e-38
0.2449685767 0.082080007 0.872562956 1.343387984e-38
0.2469685567 0.082297146 0.870639156 1.306295053e-38
0.2489685867 0.082514293 0.868707716 1.343746856e-38
0.2499685767 0.082622863 0.867014386 1.380480914e-38
0.2499685767 0.082622863 0.865564866 1.408139183e-38
0.2499685767 0.082622863 0.864115336 1.445196101e-38
0.2499685767 0.082622863 0.862665816 1.45437965e-38
0.2499685767 0.082622863 0.861216286 1.47274689e-38
0.2499685767 0.082622863 0.859766766 1.454415944e-38
0.2499685767 0.082622863 0.858317236 1.444802896e-38
0.2499685767 0.082622863 0.856867726 1.472390539e-38
0.2499685767 0.082622863 0.855418196 1.509160191e-38
0.2519685467 0.082840003 0.853442976 1.500012234e-38
0.2519685467 0.082840003 0.851989636 1.490863997e-38
0.2539685867 0.08305715 0.850002956 1.49089931e-38
0.2539685867 0.08305715 0.848545816 1.490935043e-38
0.2559685567 0.08327429 0.846547736 1.48171548e-38
0.2559685567 0.08327429 0.845086776 1.481608981e-38
0.2559685567 0.08327429 0.843625806 1.472605919e-38
0.2559685567 0.08327429 0.842164866 1.472748851e-38
0.2559685567 0.08327429 0.840703916 1.490971897e-38
0.2559685567 0.08327429 0.839242956 1.518342199e-38
0.2559685567 0.08327429 0.837782006 1.500045865e-38
0.2559685567 0.08327429 0.836321056 1.490862456e-38
0.2559685567 0.08327429 0.834860116 1.490826723e-38
0.2559685567 0.08327429 0.833399156 1.490825461e-38
0.2589685767 0.083600007 0.831069616 1.500043623e-38
0.2589685767 0.083600007 0.829602956 1.509262906e-38
0.2589685767 0.083600007 0.828136286 1.481497018e-38
0.2589685767 0.083600007 0.826669626 1.4538728e-38
0.2589685767 0.083600007 0.825202966 1.453835246e-38
0.2589685767 0.083600007 0.823736286 1.453837067e-38
0.2589685767 0.083600007 0.822269626 1.463022579e-38
0.2589685767 0.083600007 0.820802956 1.481425972e-38
0.2569685467 0.08338286 0.819945826 1.499793631e-38
0.2569685467 0.08338286 0.818482956 1.52734372e-38
0.2569685467 0.08338286 0.817020116 1.499792651e-38
0.2569685467 0.08338286 0.815557256 1.481425551e-38
0.2569685467 0.08338286 0.814094386 1.472385495e-38
0.2569685467 0.08338286 0.812631546 1.472384514e-38
0.2569685467 0.08338286 0.811168686 1.454016574e-38
0.2569685467 0.08338286 0.809705836 1.444906172e-38
0.2569685467 0.08338286 0.808242956 1.426432994e-38
0.2589685767 0.083600007 0.806136286 1.398918079e-38
0.2589685767 0.083600007 0.804669616 1.380586853e-38
0.2589685767 0.083600007 0.803202956 1.362290659e-38
0.2589685767 0.083600007 0.801736286 1.398988284e-38
0.2589685767 0.083600007 0.800269626 1.435723603e-38
0.2589685767 0.083600007 0.798802936 1.444836667e-38
0.2589685767 0.083600007 0.797336306 1.463130199e-38
0.2589685767 0.083600007 0.795869616 1.444833024e-38
0.2589685767 0.083600007 0.794402956 1.435759056e-38
0.2589685767 0.083600007 0.792936286 1.444765341e-38
0.2589685767 0.083600007 0.791469626 1.463132441e-38
0.2589685767 0.083600007 0.790002966 1.444765482e-38
0.2589685767 0.083600007 0.788536276 1.435617245e-38
0.2589685767 0.083600007 0.787069616 1.426433134e-38
0.2589685767 0.083600007 0.785602956 1.417285738e-38
0.2589685767 0.083600007 0.784136286 1.426433835e-38
0.2589685767 0.083600007 0.782669596 1.435653678e-38
0.2589685767 0.083600007 0.781202966 1.444837648e-38
0.2589685767 0.083600007 0.779736306 1.463130759e-38
0.2589685767 0.083600007 0.778269616 1.463128657e-38
0.2569685467 0.08338286 0.777522946 1.462951113e-38
0.2569685467 0.08338286 0.776060126 1.472280117e-38
0.2569685467 0.08338286 0.774597256 1.490754275e-38
0.2589685767 0.083600007 0.772402936 1.518161011e-38
0.2589685767 0.083600007 0.770936306 1.545640334e-38
0.2589685767 0.083600007 0.769469616 1.518233738e-38
0.2589685767 0.083600007 0.768002956 1.49079141e-38
0.2609685467 0.083817147 0.765789656 1.463241462e-38
0.2609685467 0.083817147 0.764319146 1.435725145e-38
0.2609685467 0.083817147 0.762848666 1.463202506e-38
0.2609685467 0.083817147 0.761378196 1.481642052e-38
0.2609685467 0.083817147 0.759907716 1.481642753e-38
0.2609685467 0.083817147 0.758437276 1.481642472e-38
0.2609685467 0.083817147 0.756966766 1.463275233e-38
0.2609685467 0.083817147 0.755496286 1.444908134e-38
0.2589685767 0.083600007 0.754802966 1.454019937e-38
0.2589685767 0.083600007 0.753336276 1.472351583e-38
0.2619685967 0.083925724 0.750692486 1.472387877e-38
0.2619685967 0.083925724 0.749220066 1.472494376e-38
0.2639685767 0.084142864 0.746955326 1.481676804e-38
0.2639685767 0.084142864 0.745479166 1.490859373e-38
0.2659685467 0.084360003 0.743202976 1.472276053e-38
0.2659685467 0.084360003 0.741722966 1.453800213e-38
0.2659685467 0.084360003 0.740242986 1.444615543e-38
0.2659685467 0.084360003 0.738762966 1.444655199e-38
0.2659685467 0.084360003 0.737282956 1.417108474e-38
0.2679685767 0.084577151 0.734983886 1.38941209e-38
0.2679685767 0.084577151 0.733500086 1.444403666e-38
0.2679685767 0.084577151 0.732016256 1.508509848e-38
0.2679685767 0.084577151 0.730532496 1.462628814e-38
0.2689685667 0.084685721 0.728631526 1.416744977e-38
0.2689685667 0.084685721 0.727145816 1.398375916e-38
0.2709685967 0.084902868 0.724818166 1.389121881e-38
0.2709685967 0.084902868 0.723328646 1.379939593e-38
0.2709685967 0.084902868 0.721839126 1.370755903e-38
0.2729685767 0.085120007 0.719496276 1.370684157e-38
0.2729685767 0.085120007 0.718002936 1.361395229e-38
0.2749685467 0.085337147 0.715648676 1.389199233e-38
0.2749685467 0.085337147 0.714151556 1.407491783e-38
0.2769685867 0.085554294 0.711785786 1.370718909e-38
0.2779685667 0.085662864 0.709848666 1.333948277e-38
0.2779685667 0.085662864 0.708345826 1.315544884e-38
0.2779685667 0.085662864 0.706842956 1.297144714e-38
0.2799685467 0.085880004 0.704456296 1.278636924e-38
0.2799685467 0.085880004 0.702949606 1.260266322e-38
0.2799685467 0.085880004 0.701442956 1.241859986e-38
0.2799685467 0.085880004 0.699936326 1.223459676e-38
0.2819685767 0.086097151 0.697530566 1.205131253e-38
0.2819685767 0.086097151 0.696020096 1.195981054e-38
0.2839685567 0.086314291 0.693602946 1.186543869e-38
0.2859685867 0.086531438 0.691178166 1.17714508e-38
0.2859685867 0.086531438 0.689660096 1.149522685e-38
0.2869685767 0.086640008 0.687682956 1.121936724e-38
0.2869685767 0.086640008 0.686162946 1.103534312e-38
0.2889685467 0.086857148 0.683717246 1.085023719e-38
0.2909685867 0.087074295 0.681263886 1.039177858e-38
0.2909685867 0.087074295 0.679736286 9.932964035e-39
0.2929685567 0.087291434 0.677271506 9.566702451e-39
0.2969685667 0.087725714 0.673858196 9.291543485e-39
0.3009685767 0.088160001 0.670429616 9.107862683e-39
0.3009685767 0.088160001 0.668882966 9.016391525e-39
0.3029685467 0.08837714 0.666383916 8.738379514e-39
0.3039685967 0.088485718 0.664355306 8.551481332e-39
0.3039685967 0.088485718 0.662802926 8.644395828e-39
0.3099685767 0.089137144 0.658359136 8.737313126e-39
0.3079686067 0.088920005 0.657762936 8.368901951e-39
0.3099685767 0.089137144 0.655231526 8.000842502e-39
0.3119685467 0.089354284 0.652692496 7.909365738e-39
0.3139685867 0.089571431 0.650145826 7.818233693e-39
0.3139685867 0.089571431 0.648574376 7.816068687e-39
0.3159685567 0.089788571 0.646016296 7.722077994e-39
0.3179685967 0.090005718 0.643450586 7.629522231e-39
0.3179685967 0.090005718 0.641871506 7.629163498e-39
0.3179685967 0.090005718 0.640292466 8.545007333e-39
0.3179685967 0.090005718 0.638713446 9.460910022e-39
0.3179685967 0.090005718 0.637134366 1.003278973e-38
0.3179685967 0.090005718 0.635555326 1.060462741e-38
0.2309685767 0.081973337 0.918322966 1.416856661e-38
0.2289685467 0.081752382 0.917279166 1.490181284e-38
0.2279685567 0.081641905 0.916056286 1.480854102e-38
0.2289685467 0.081752382 0.914460106 1.481212974e-38
0.2289685467 0.081752382 0.913050586 1.472567663e-38
0.2289685467 0.081752382 0.911641076 1.472603677e-38
0.2289685467 0.081752382 0.910231526 1.47263969e-38
0.2309685767 0.081973337 0.908429636 1.472602696e-38
0.2309685767 0.081973337 0.907016286 1.435831503e-38
0.2339685967 0.082304768 0.905002966 1.398738572e-38
0.2359685767 0.082525723 0.903180106 1.389447543e-38
0.2359685767 0.082525723 0.901757246 1.389160277e-38
0.2359685767 0.082525723 0.900334396 1.361573615e-38
0.2369685667 0.082636192 0.898703916 1.334094432e-38
0.2369685667 0.082636192 0.897279136 1.325018362e-38
0.2369685667 0.082636192 0.895854396 1.325018782e-38
0.2369685667 0.082636192 0.894429636 1.288285144e-38
0.2369685667 0.082636192 0.893004876 1.251407733e-38
0.2389685967 0.082857147 0.891145806 1.362256327e-38
0.2409685667 0.083078094 0.889279156 1.481571707e-38
0.2409685667 0.083078094 0.887846776 1.481572828e-38
0.2419685567 0.083188571 0.886191526 1.490720644e-38
0.2419685567 0.083188571 0.884757246 1.472353545e-38
0.2419685567 0.083188571 0.883322966 1.463169435e-38
0.2439685867 0.083409533 0.881431526 1.426506563e-38
0.2439685867 0.083409533 0.879993436 1.398954933e-38
0.2439685867 0.083409533 0.878555336 1.389842289e-38
0.2439685867 0.083409533 0.877117246 1.389698796e-38
0.2439685867 0.083409533 0.875679146 1.37126009e-38
0.2449685767 0.083520003 0.874002956 1.361861441e-38
0.2449685767 0.083520003 0.872562956 1.352319299e-38
0.2469685567 0.08374095 0.870639156 1.343064003e-38
0.2489685867 0.083961904 0.868707716 1.343566369e-38
0.2489685867 0.083961904 0.867260096 1.352929565e-38
0.2489685867 0.083961904 0.865812486 1.380695734e-38
0.2499685767 0.084072381 0.864115336 1.408246523e-38
0.2499685767 0.084072381 0.862665816 1.417430352e-38
0.2499685767 0.084072381 0.861216286 1.426649775e-38
0.2499685767 0.084072381 0.859766766 1.426721522e-38
0.2499685767 0.084072381 0.858317236 1.435618646e-38
0.2499685767 0.084072381 0.856867726 1.444910516e-38
0.2499685767 0.084072381 0.855418196 1.463241602e-38
0.2499685767 0.084072381 0.853968676 1.472532771e-38
0.2519685467 0.084293336 0.851989636 1.481751633e-38
0.2519685467 0.084293336 0.850536296 1.481786946e-38
0.2539685867 0.08451429 0.848545816 1.481750372e-38
0.2539685867 0.08451429 0.847088676 1.463382713e-38
0.2539685867 0.08451429 0.845631536 1.454199864e-38
0.2539685867 0.08451429 0.844174396 1.454236437e-38
0.2539685867 0.08451429 0.842717236 1.463419847e-38
0.2539685867 0.08451429 0.841260086 1.500153905e-38
0.2539685867 0.08451429 0.839802946 1.53674419e-38
0.2559685567 0.084735237 0.837782006 1.509228854e-38
0.2559685567 0.084735237 0.836321056 1.48171548e-38
0.2559685567 0.084735237 0.834860116 1.490972037e-38
0.2559685567 0.084735237 0.833399156 1.509121935e-38
0.2569685467 0.084845714 0.831648686 1.527522806e-38
0.2589685767 0.085066676 0.829602956 1.555001428e-38
0.2569685467 0.084845714 0.828722966 1.509047526e-38
0.2589685767 0.085066676 0.826669626 1.462985585e-38
0.2569685467 0.084845714 0.825797256 1.462841391e-38
0.2589685767 0.085066676 0.823736286 1.472169835e-38
0.2589685767 0.085066676 0.822269626 1.472207109e-38
0.2569685467 0.084845714 0.821408686 1.481391079e-38
0.2569685467 0.084845714 0.819945826 1.499758459e-38
0.2569685467 0.084845714 0.818482956 1.518161852e-38
0.2569685467 0.084845714 0.817020116 1.499831046e-38
0.2569685467 0.084845714 0.815557256 1.481498839e-38
0.2569685467 0.084845714 0.814094386 1.481569745e-38
0.2569685467 0.084845714 0.812631546 1.481570025e-38
0.2569685467 0.084845714 0.811168686 1.472422629e-38
0.2569685467 0.084845714 0.809705836 1.46323922e-38
0.2569685467 0.084845714 0.808242956 1.435616964e-38
0.2569685467 0.084845714 0.806780096 1.417250145e-38
0.2569685467 0.084845714 0.805317266 1.417250566e-38
0.2569685467 0.084845714 0.803854406 1.417249585e-38
0.2569685467 0.084845714 0.802391526 1.426468027e-38
0.2589685767 0.085066676 0.800269626 1.435689552e-38
0.2589685767 0.085066676 0.798802936 1.435548301e-38
0.2589685767 0.085066676 0.797336306 1.444657862e-38
0.2589685767 0.085066676 0.795869616 1.435436337e-38
0.2589685767 0.085066676 0.794402956 1.426326496e-38
0.2589685767 0.085066676 0.792936286 1.453986866e-38
0.2589685767 0.085066676 0.791469626 1.481500521e-38
0.2589685767 0.085066676 0.790002966 1.46313216e-38
0.2589685767 0.085066676 0.788536276 1.444764921e-38
0.2589685767 0.085066676 0.787069616 1.444800794e-38
0.2589685767 0.085066676 0.785602956 1.453984624e-38
0.2589685767 0.085066676 0.784136286 1.444801355e-38
0.2589685767 0.085066676 0.782669596 1.444838069e-38
0.2589685767 0.085066676 0.781202966 1.472425432e-38
0.2569685467 0.084845714 0.780448696 1.509086202e-38
0.2569685467 0.084845714 0.778985826 1.490681408e-38
0.2569685467 0.084845714 0.777522946 1.472279977e-38
0.2569685467 0.084845714 0.776060126 1.481429055e-38
0.2569685467 0.084845714 0.774597256 1.499723426e-38
0.2569685467 0.084845714 0.773134406 1.536420631e-38
0.2589685767 0.085066676 0.770936306 1.582446138e-38
0.2589685767 0.085066676 0.769469616 1.54581956e-38
0.2589685767 0.085066676 0.768002956 1.509049768e-38
0.2609685467 0.085287623 0.765789656 1.509050189e-38
0.2589685767 0.085066676 0.765069626 1.509049628e-38
0.2609685467 0.085287623 0.762848666 1.499901391e-38
0.2589685767 0.085066676 0.762136276 1.499901672e-38
0.2589685767 0.085066676 0.760669616 1.499901952e-38
0.2589685767 0.085066676 0.759202956 1.499902092e-38
0.2589685767 0.085066676 0.757736296 1.490718823e-38
0.2589685767 0.085066676 0.756269596 1.481642192e-38
0.2589685767 0.085066676 0.754802966 1.472278716e-38
0.2589685767 0.085066676 0.753336276 1.47231557e-38
0.2609685467 0.085287623 0.751084886 1.472388437e-38
0.2589685767 0.085066676 0.750402956 1.472387456e-38
0.2619685967 0.0853981 0.747747716 1.481570165e-38
0.2639685767 0.085619047 0.745479166 1.499865658e-38
0.2639685767 0.085619047 0.744002966 1.481462826e-38
0.2639685767 0.085619047 0.742526766 1.463058032e-38
0.2659685467 0.085840002 0.740242986 1.435469828e-38
0.2659685467 0.085840002 0.738762966 1.417104691e-38
0.2659685467 0.085840002 0.737282956 1.371188904e-38
0.2659685467 0.085840002 0.735802946 1.334309111e-38
0.2679685767 0.086060956 0.733500086 1.444402125e-38
0.2679685767 0.086060956 0.732016256 1.554535356e-38
0.2679685767 0.086060956 0.730532496 1.480997595e-38
0.2689685667 0.086171433 0.728631526 1.407563249e-38
0.2689685667 0.086171433 0.727145816 1.389230342e-38
0.2709685967 0.086392388 0.724818166 1.37082793e-38
0.2709685967 0.086392388 0.723328646 1.361644941e-38
0.2709685967 0.086392388 0.721839126 1.352317618e-38
0.2729685767 0.086613342 0.719496276 1.352281464e-38
0.2729685767 0.086613342 0.718002936 1.361430822e-38
0.2749685467 0.086834289 0.715648676 1.389126646e-38
0.2749685467 0.086834289 0.714151556 1.425715109e-38
0.2769685867 0.087055244 0.711785786 1.37050395e-38
0.2769685867 0.087055244 0.710284856 1.315402232e-38
0.2779685667 0.087165713 0.708345826 1.297034712e-38
0.2779685667 0.087165713 0.706842956 1.278668874e-38
0.2799685467 0.087386668 0.704456296 1.2511555e-38
0.2799685467 0.087386668 0.702949606 1.223567016e-38
0.2799685467 0.087386668 0.701442956 1.214381644e-38
0.2799685467 0.087386668 0.699936326 1.205056283e-38
0.2819685767 0.087607622 0.697530566 1.186619119e-38
0.2819685767 0.087607622 0.696020096 1.177434028e-38
0.2839685567 0.087828569 0.693602946 1.159675092e-38
0.2859685867 0.088049524 0.691178166 1.140411302e-38
0.2869685767 0.088160001 0.689202956 1.112609681e-38
0.2869685767 0.088160001 0.687682956 1.085131759e-38
0.2889685467 0.088380955 0.685241036 1.057653978e-38
0.2889685467 0.088380955 0.683717246 1.039142685e-38
0.2909685867 0.08860191 0.681263886 9.932242366e-39
0.2929685567 0.088822857 0.678802966 9.47343763e-39
0.2949685867 0.089043818 0.676334376 9.199021352e-39
0.2969685667 0.089264765 0.673858196 8.923858182e-39
0.2989685967 0.08948572 0.671374346 8.740530508e-39
0.3029685467 0.089927621 0.667934386 8.648697814e-39
0.3039685967 0.090038106 0.665907706 8.277772709e-39
0.3039685967 0.090038106 0.664355306 8.001543151e-39
0.3059685667 0.090259053 0.661842966 8.184492474e-39
0.3119685467 0.090921909 0.657395326 8.458209505e-39
0.3119685467 0.090921909 0.655827726 7.90540707e-39
0.3119685467 0.090921909 0.654260096 7.353316494e-39
0.3139685867 0.091142863 0.651717246 7.168925234e-39
0.3139685867 0.091142863 0.650145826 7.08248754e-39
0.3139685867 0.091142863 0.648574376 6.98026562e-39
0.3159685567 0.09136381 0.646016296 6.9799209e-39
0.3159685567 0.09136381 0.644441066 7.530949291e-39
0.3179685967 0.091584772 0.641871506 8.19138406e-39
0.3179685967 0.091584772 0.640292466 1.059669466e-38
0.3179685967 0.091584772 0.638713446 1.299594464e-38
0.2289685467 0.083161905 0.918688676 1.288030949e-38
0.2289685467 0.083161905 0.917279166 1.306149037e-38
0.2289685467 0.083161905 0.915869616 1.379942395e-38
0.2289685467 0.083161905 0.914460106 1.462558889e-38
0.2279685567 0.083049528 0.913241056 1.44440745e-38
0.2289685467 0.083161905 0.911641076 1.435474452e-38
0.2289685467 0.083161905 0.910231526 1.426684948e-38
0.2309685767 0.083386675 0.908429636 1.417428671e-38
0.2319685667 0.083499052 0.906818206 1.398917098e-38
0.2319685667 0.083499052 0.905402966 1.371258829e-38
0.2339685967 0.083723821 0.903583906 1.361644941e-38
0.2359685767 0.083948575 0.901757246 1.343098615e-38
0.2359685767 0.083948575 0.900334396 1.324695783e-38
0.2359685767 0.083948575 0.898911536 1.306221064e-38
0.2359685767 0.083948575 0.897488666 1.297181148e-38
0.2369685667 0.084060952 0.895854396 1.288141091e-38
0.2369685667 0.084060952 0.894429636 1.269738259e-38
0.2369685667 0.084060952 0.893004876 1.25137158e-38
0.2389685967 0.084285721 0.891145806 1.334526312e-38
0.2389685967 0.084285721 0.889717236 1.417250846e-38
0.2409685667 0.084510483 0.887846776 1.435654799e-38
0.2409685667 0.084510483 0.886414386 1.453950573e-38
0.2409685667 0.084510483 0.884981996 1.435583894e-38
0.2419685567 0.08462286 0.883322966 1.42647125e-38
0.2439685867 0.084847622 0.881431526 1.3989199e-38
0.2439685867 0.084847622 0.879993436 1.371332117e-38
0.2439685867 0.084847622 0.878555336 1.371259109e-38
0.2439685867 0.084847622 0.877117246 1.362003673e-38
0.2439685867 0.084847622 0.875679146 1.352819983e-38
0.2439685867 0.084847622 0.874241046 1.343277842e-38
0.2449685767 0.084960006 0.872562956 1.324839276e-38
0.2469685567 0.08518476 0.870639156 1.306364697e-38
0.2489685867 0.08540953 0.868707716 1.278850062e-38
0.2489685867 0.08540953 0.867260096 1.251335847e-38
0.2489685867 0.08540953 0.865812486 1.297792254e-38
0.2489685867 0.08540953 0.864364856 1.352893972e-38
0.2489685867 0.08540953 0.862917236 1.371297505e-38
0.2499685767 0.085521907 0.861216286 1.398883747e-38
0.2499685767 0.085521907 0.859766766 1.408067156e-38
0.2489685867 0.08540953 0.858574386 1.417250846e-38
0.2499685767 0.085521907 0.856867726 1.426434676e-38
0.2499685767 0.085521907 0.855418196 1.435618366e-38
0.2499685767 0.085521907 0.853968676 1.435618646e-38
0.2499685767 0.085521907 0.852519146 1.444155917e-38
0.2519685467 0.085746668 0.850536296 1.444801075e-38
0.2519685467 0.085746668 0.849082976 1.454378109e-38
0.2519685467 0.085746668 0.847629636 1.435938142e-38
0.2539685867 0.08597143 0.845631536 1.426683126e-38
0.2539685867 0.08597143 0.844174396 1.426683406e-38
0.2539685867 0.08597143 0.842717236 1.43590311e-38
0.2539685867 0.08597143 0.841260086 1.454198883e-38
0.2539685867 0.08597143 0.839802946 1.481677785e-38
0.2539685867 0.08597143 0.838345806 1.463167193e-38
0.2539685867 0.08597143 0.836888666 1.453878546e-38
0.2539685867 0.08597143 0.835431526 1.463100491e-38
0.2539685867 0.08597143 0.833974386 1.472317111e-38
0.2559685567 0.086196192 0.831938206 1.481318492e-38
0.2569685467 0.086308569 0.830185826 1.490322115e-38
0.2569685467 0.086308569 0.828722966 1.462842652e-38
0.2569685467 0.086308569 0.827260106 1.43536403e-38
0.2569685467 0.086308569 0.825797256 1.444548e-38
0.2569685467 0.086308569 0.824334396 1.444584854e-38
0.2569685467 0.086308569 0.822871536 1.453805258e-38
0.2569685467 0.086308569 0.821408686 1.453841271e-38
0.2569685467 0.086308569 0.819945826 1.463060974e-38
0.2569685467 0.086308569 0.818482956 1.472389278e-38
0.2569685467 0.086308569 0.817020116 1.463242863e-38
0.2569685467 0.086308569 0.815557256 1.463312788e-38
0.2569685467 0.086308569 0.814094386 1.481606459e-38
0.2569685467 0.086308569 0.812631546 1.499903213e-38
0.2569685467 0.086308569 0.811168686 1.472497599e-38
0.2569685467 0.086308569 0.809705836 1.454165111e-38
0.2569685467 0.086308569 0.808242956 1.444800934e-38
0.2569685467 0.086308569 0.806780096 1.426506282e-38
0.2569685467 0.086308569 0.805317266 1.426507123e-38
0.2569685467 0.086308569 0.803854406 1.435474312e-38
0.2569685467 0.086308569 0.802391526 1.426469008e-38
0.2569685467 0.086308569 0.800928676 1.426472091e-38
0.2569685467 0.086308569 0.799465826 1.4264393e-38
0.2589685767 0.086533338 0.797336306 1.426221538e-38
0.2589685767 0.086533338 0.795869616 1.426219016e-38
0.2589685767 0.086533338 0.794402956 1.416965822e-38
0.2589685767 0.086533338 0.792936286 1.453881489e-38
0.2589685767 0.086533338 0.791469626 1.499904334e-38
0.2589685767 0.086533338 0.790002966 1.47231543e-38
0.2589685767 0.086533338 0.788536276 1.444729188e-38
0.2589685767 0.086533338 0.787069616 1.463168454e-38
0.2589685767 0.086533338 0.785602956 1.490755256e-38
0.2589685767 0.086533338 0.784136286 1.444801915e-38
0.2569685467 0.086308569 0.783374396 1.398957175e-38
0.2569685467 0.086308569 0.781911516 1.435692634e-38
0.2569685467 0.086308569 0.780448696 1.472425432e-38
0.2569685467 0.086308569 0.778985826 1.463168874e-38
0.2559685567 0.086196192 0.777882956 1.463133982e-38
0.2569685467 0.086308569 0.776060126 1.481466329e-38
0.2569685467 0.086308569 0.774597256 1.499795874e-38
0.2569685467 0.086308569 0.773134406 1.490646656e-38
0.2569685467 0.086308569 0.771671526 1.481498559e-38
0.2569685467 0.086308569 0.770208686 1.490681828e-38
0.2569685467 0.086308569 0.768745836 1.508977041e-38
0.2589685767 0.086533338 0.766536286 1.518160591e-38
0.2589685767 0.086533338 0.765069626 1.527380434e-38
0.2589685767 0.086533338 0.763602966 1.508978022e-38
0.2589685767 0.086533338 0.762136276 1.499794332e-38
0.2589685767 0.086533338 0.760669616 1.508977742e-38
0.2589685767 0.086533338 0.759202956 1.518197725e-38
0.2589685767 0.086533338 0.757736296 1.499938806e-38
0.2589685767 0.086533338 0.756269596 1.472458642e-38
0.2589685767 0.086533338 0.754802966 1.463345578e-38
0.2589685767 0.086533338 0.753336276 1.44508778e-38
0.2609685467 0.086758092 0.751084886 1.454021899e-38
0.2609685467 0.086758092 0.749614386 1.472029565e-38
0.2619685967 0.086870477 0.747747716 1.49046785e-38
0.2639685767 0.087095238 0.745479166 1.518091366e-38
0.2639685767 0.087095238 0.744002966 1.490613725e-38
0.2659685467 0.08732 0.741722966 1.453913018e-38
0.2659685467 0.08732 0.740242986 1.435507663e-38
0.2659685467 0.08732 0.738762966 1.408028761e-38
0.2659685467 0.08732 0.737282956 1.389661802e-38
0.2679685767 0.087544769 0.734983886 1.362145064e-38
0.2679685767 0.087544769 0.733500086 1.426176977e-38
0.2679685767 0.087544769 0.732016256 1.481174579e-38
0.2679685767 0.087544769 0.730532496 1.444336824e-38
0.2689685667 0.087657146 0.728631526 1.398381662e-38
0.2689685667 0.087657146 0.727145816 1.380013161e-38
0.2709685967 0.087881915 0.724818166 1.361645782e-38
0.2709685967 0.087881915 0.723328646 1.352390345e-38
0.2709685967 0.087881915 0.721839126 1.343098756e-38
0.2729685767 0.088106669 0.719496276 1.342990715e-38
0.2729685767 0.088106669 0.718002936 1.34291995e-38
0.2749685467 0.088331431 0.715648676 1.351961128e-38
0.2749685467 0.088331431 0.714151556 1.370183052e-38
0.2749685467 0.088331431 0.712654376 1.333518919e-38
0.2749685467 0.088331431 0.711157256 1.28770851e-38
0.2769685867 0.0885562 0.708783916 1.269341131e-38
0.2779685667 0.088668577 0.706842956 1.250973751e-38
0.2799685467 0.088893332 0.704456296 1.223566455e-38
0.2799685467 0.088893332 0.702949606 1.205198936e-38
0.2799685467 0.088893332 0.701442956 1.195943359e-38
0.2799685467 0.088893332 0.699936326 1.186688764e-38
0.2819685767 0.089118101 0.697530566 1.168178872e-38
0.2819685767 0.089118101 0.696020096 1.158922875e-38
0.2839685567 0.089342862 0.693602946 1.12211623e-38
0.2859685867 0.089567624 0.691178166 1.094529848e-38
0.2859685867 0.089567624 0.689660096 1.057544817e-38
0.2869685767 0.089680001 0.687682956 1.02988809e-38
0.2869685767 0.089680001 0.686162946 1.002374856e-38
0.2889685467 0.089904763 0.683717246 9.840781016e-39
0.2909685867 0.090129524 0.681263886 9.473066286e-39
0.2929685567 0.090354286 0.678802966 9.197582219e-39
0.2949685867 0.090579055 0.676334376 9.014652513e-39
0.2969685667 0.090803809 0.673858196 8.922437265e-39
0.2969685667 0.090803809 0.672319166 8.463957631e-39
0.3029685467 0.091478094 0.667934386 8.005499016e-39
0.3029685467 0.091478094 0.666383916 7.542018148e-39
0.3079686067 0.092040002 0.662442946 7.170717495e-39
0.3099685767 0.092264764 0.659922956 7.354018545e-39
0.3119685467 0.092489518 0.657395326 7.53769234e-39
0.3119685467 0.092489518 0.655827726 8.268791787e-39
0.3139685867 0.092714287 0.653288656 9.000242961e-39
0.3199685667 0.09338858 0.648791516 9.556273988e-39
0.3199685667 0.09338858 0.647208686 1.020419096e-38
0.3199685667 0.09338858 0.645625796 1.095076074e-38
0.3159685567 0.092939049 0.646016296 1.17891492e-38
0.3159685567 0.092939049 0.644441066 1.253534484e-38
0.3179685967 0.093163818 0.641871506 1.31900497e-38
0.3179685967 0.093163818 0.640292466 1.429783359e-38
0.2289685467 0.084571429 0.918688676 1.158170799e-38
0.2289685467 0.084571429 0.917279166 1.122334692e-38
0.2289685467 0.084571429 0.915869616 1.279066142e-38
0.2289685467 0.084571429 0.914460106 1.444119063e-38
0.2289685467 0.084571429 0.913050586 1.425859863e-38
0.2289685467 0.084571429 0.911641076 1.407528357e-38
0.2289685467 0.084571429 0.910231526 1.389950329e-38
0.2309685767 0.084800005 0.908429636 1.371331276e-38
0.2309685767 0.084800005 0.907016286 1.361895913e-38
0.2319685667 0.084914289 0.905402966 1.352461111e-38
0.2319685667 0.084914289 0.903987716 1.324695223e-38
0.2339685967 0.085142866 0.902164876 1.306327563e-38
0.2359685767 0.085371435 0.900334396 1.287959903e-38
0.2359685767 0.085371435 0.898911536 1.278668874e-38
0.2359685767 0.085371435 0.897488666 1.269449731e-38
0.2369685667 0.085485712 0.895854396 1.260302615e-38
0.2369685667 0.085485712 0.894429636 1.251191373e-38
0.2369685667 0.085485712 0.893004876 1.251299413e-38
0.2389685967 0.085714296 0.891145806 1.297612187e-38
0.2389685967 0.085714296 0.889717236 1.352857398e-38
0.2409685667 0.085942864 0.887846776 1.3805521e-38
0.2409685667 0.085942864 0.886414386 1.417214973e-38
0.2409685667 0.085942864 0.884981996 1.408031984e-38
0.2419685567 0.086057141 0.883322966 1.398954933e-38
0.2419685567 0.086057141 0.881888686 1.371439036e-38
0.2419685567 0.086057141 0.880454406 1.352856277e-38
0.2439685867 0.086285718 0.878555336 1.343636574e-38
0.2439685867 0.086285718 0.877117246 1.3436e-38
0.2439685867 0.086285718 0.875679146 1.33441589e-38
0.2439685867 0.086285718 0.874241046 1.324981087e-38
0.2439685867 0.086285718 0.872802956 1.297358552e-38
0.2449685767 0.086400002 0.871122956 1.278883693e-38
0.2469685567 0.086628571 0.869195336 1.214562832e-38
0.2489685867 0.086857148 0.867260096 1.150422599e-38
0.2489685867 0.086857148 0.865812486 1.224107496e-38
0.2489685867 0.086857148 0.864364856 1.30683161e-38
0.2489685867 0.086857148 0.862917236 1.334490299e-38
0.2489685867 0.086857148 0.861469626 1.371224217e-38
0.2499685767 0.086971432 0.859766766 1.389591036e-38
0.2489685867 0.086857148 0.858574386 1.407921842e-38
0.2499685767 0.086971432 0.856867726 1.407921421e-38
0.2499685767 0.086971432 0.855418196 1.417069098e-38
0.2499685767 0.086971432 0.853968676 1.407885548e-38
0.2499685767 0.086971432 0.852519146 1.407849675e-38
0.2519685467 0.087199993 0.850536296 1.416997491e-38
0.2519685467 0.087199993 0.849082976 1.43547193e-38
0.2519685467 0.087199993 0.847629636 1.417248043e-38
0.2519685467 0.087199993 0.846176296 1.398665845e-38
0.2519685467 0.087199993 0.844722966 1.398486619e-38
