# .PCD v0.7 - Point Cloud Data file format
VERSION 0.7
FIELDS x y z rgb
SIZE 4 4 4 4
TYPE F F F F
COUNT 1 1 1 1
WIDTH 892
HEIGHT 1
VIEWPOINT 0 0 0 1 0 0 0
POINTS 892
DATA ascii
0.2742329661 0.1913356705 0.76800001 1.334237785e-38
0.2742329661 0.1898728305 0.76800001 1.315871386e-38
0.2742329661 0.1884099505 0.76800001 1.297505408e-38
0.2742329661 0.1869471005 0.76800001 1.297542543e-38
0.2740863061 0.1857490105 0.76700002 1.297612888e-38
0.2740863061 0.1842880505 0.76700002 1.260590302e-38
0.2740863061 0.1828271005 0.76700002 1.22371191e-38
0.2740863061 0.1813661605 0.76700002 1.315833832e-38
0.2740863061 0.1799052005 0.76700002 1.398449625e-38
0.2737929761 0.1789928205 0.76500005 1.389265935e-38
0.2737929761 0.1775356605 0.76500005 1.370935409e-38
0.2737929761 0.1760785105 0.76500005 1.306471897e-38
0.2737929761 0.1746213705 0.76500005 1.24197237e-38
0.2734996261 0.1737280505 0.76300001 1.278707269e-38
0.2734996261 0.1722747205 0.76300001 1.315477201e-38
0.2737929761 0.1702499505 0.76500005 1.33384416e-38
0.2737929761 0.1687928105 0.76500005 1.352245171e-38
0.2740863061 0.1667566305 0.76700002 1.370646181e-38
0.2737929761 0.1658785305 0.76500005 1.389050415e-38
0.2740863061 0.1638347205 0.76700002 1.416602325e-38
0.2740863061 0.1623737605 0.76700002 1.444189548e-38
0.2742329661 0.1606156805 0.76800001 1.416567853e-38
0.2742329661 0.1591528205 0.76800001 1.3982718e-38
0.2745263061 0.1570880505 0.77000004 1.389267056e-38
0.2745263061 0.1556213805 0.77000004 1.389661661e-38
0.2745263061 0.1541547105 0.77000004 1.352425378e-38
0.2748196361 0.1520747205 0.77200001 1.324730535e-38
0.2749663061 0.1502956605 0.77300006 1.306362735e-38
0.2749663061 0.1488232905 0.77300006 1.287995916e-38
0.2749663061 0.1473508905 0.77300006 1.297323239e-38
0.2752596361 0.1452499405 0.77500004 1.315834112e-38
0.2752596361 0.1437737605 0.77500004 1.325161435e-38
0.2752596361 0.1422975805 0.77500004 1.335098462e-38
0.2755529761 0.1401814005 0.77700001 1.325054095e-38
0.2755529761 0.1387013805 0.77700001 1.325161435e-38
0.2755529761 0.1372213905 0.77700001 1.325232901e-38
0.2758462961 0.1350899305 0.77900004 1.334488617e-38
0.2759929661 0.1332785205 0.78000003 1.325198008e-38
0.2759929661 0.1317928105 0.78000003 1.315871807e-38
0.2759929661 0.1303071005 0.78000003 1.352571113e-38
0.2762863061 0.1281547205 0.78200006 1.389268317e-38
0.2762863061 0.1266651705 0.78200006 1.343421335e-38
0.2765796361 0.1245013705 0.78400004 1.297574772e-38
0.2765796361 0.1230080705 0.78400004 1.306793775e-38
0.2768729561 0.1208328305 0.78600001 1.315975783e-38
0.2768729561 0.1193356805 0.78600001 1.334377354e-38
0.2771663061 0.1171489905 0.78800005 1.361965278e-38
0.2771663061 0.1156480305 0.78800005 1.380333918e-38
0.2768729561 0.1148442605 0.78600001 1.398701438e-38
0.2771663061 0.1126461605 0.78800005 1.389518309e-38
0.2771663061 0.1111451705 0.78800005 1.389517888e-38
0.2771663061 0.1096442305 0.78800005 1.371078762e-38
0.2773129661 0.1077871005 0.78900003 1.36185976e-38
0.2773129661 0.1062842605 0.78900003 1.361824307e-38
0.2776062961 0.1040613905 0.79100001 1.361788854e-38
0.2776062961 0.1025547105 0.79100001 1.352569992e-38
0.2776062961 0.1010480505 0.79100001 1.343242669e-38
0.2776062961 0.09954136051 0.79100001 1.352461952e-38
0.2776062961 0.09803474051 0.79100001 1.370973104e-38
0.2776062961 0.09652808051 0.79100001 1.370973805e-38
0.2776062961 0.09502139051 0.79100001 1.371008697e-38
0.2778996461 0.09276804051 0.79300004 1.361716687e-38
0.2778996461 0.09125757051 0.79300004 1.352423416e-38
0.2778996461 0.08974710051 0.79300004 1.352457187e-38
0.2781929661 0.08747855051 0.79500002 1.343525871e-38
0.2781929661 0.08596426051 0.79500002 1.334271696e-38
0.2784863061 0.08368423051 0.79700005 1.315795996e-38
0.2784863061 0.08216616051 0.79700005 1.361712764e-38
0.2784863061 0.08064803051 0.79700005 1.398486198e-38
0.2784863061 0.07912993051 0.79700005 1.370903039e-38
0.2784863061 0.07761186051 0.79700005 1.343348887e-38
0.2784863061 0.07609376051 0.79700005 1.343309511e-38
0.2784863061 0.07457566051 0.79700005 1.343025748e-38
0.2786329661 0.07266137051 0.79800004 1.370794859e-38
0.2786329661 0.07114136051 0.79800004 1.39837956e-38
0.2786329661 0.06962138051 0.79800004 1.380046512e-38
0.2786329661 0.06810137051 0.79800004 1.361751439e-38
0.2789263061 0.06577375051 0.80000001 1.361787733e-38
0.2789263061 0.06424996051 0.80000001 1.371077781e-38
0.2792196361 0.06191089051 0.80200005 1.352602082e-38
0.2792196361 0.06038329051 0.80200005 1.334164357e-38
0.2792196361 0.05885565051 0.80200005 1.306543223e-38
0.2792196361 0.05732804051 0.80200005 1.278957682e-38
0.2792196361 0.05580040051 0.80200005 1.306509311e-38
0.2792196361 0.05427280051 0.80200005 1.334094993e-38
0.2792196361 0.05274519051 0.80200005 1.324838856e-38
0.2792196361 0.05121758051 0.80200005 1.324767109e-38
0.2792196361 0.04968995051 0.80200005 1.297288207e-38
0.2792196361 0.04816234051 0.80200005 1.269915943e-38
0.2792196361 0.04663470051 0.80200005 1.26058806e-38
0.2792196361 0.04510709051 0.80200005 1.242043276e-38
0.2792196361 0.04357946051 0.80200005 1.278851043e-38
0.2792196361 0.04205185051 0.80200005 1.315620974e-38
0.2792196361 0.04052421051 0.80200005 1.288285565e-38
0.2795129661 0.03812426051 0.80400002 1.269846579e-38
0.2795129661 0.03659284051 0.80400002 1.269846439e-38
0.2795129661 0.03506139051 0.80400002 1.269846299e-38
0.2795129661 0.03352996051 0.80400002 1.269810426e-38
0.2798063061 0.03111088051 0.80600005 1.269880771e-38
0.2798063061 0.02957564051 0.80600005 1.269700143e-38
0.2800996361 0.02714520051 0.80800003 1.269701124e-38
0.2800996361 0.02560615051 0.80800003 1.260482822e-38
0.2800996361 0.02406710051 0.80800003 1.260482682e-38
0.2800996361 0.02252805051 0.80800003 1.260482542e-38
0.2803929761 0.02007851051 0.81000006 1.269665671e-38
0.2803929761 0.01853567051 0.81000006 1.260517575e-38
0.2803929761 0.01699277051 0.81000006 1.251118786e-38
0.2806863061 0.01452803051 0.81200004 1.260374222e-38
0.2806863061 0.01298138051 0.81200004 1.269738119e-38
0.2806863061 0.01143473051 0.81200004 1.232897281e-38
0.2806863061 0.009888050512 0.81200004 1.205312721e-38
0.2806863061 0.008341370512 0.81200004 1.205386569e-38
0.2806863061 0.006794720512 0.81200004 1.214674936e-38
0.2806863061 0.005248040512 0.81200004 1.196305034e-38
0.2809796361 0.002752810512 0.81400001 1.187121064e-38
0.2811263061 0.0007261305118 0.81500006 1.223819109e-38
0.2811263061 -0.0008262694882 0.81500006 1.251370319e-38
0.2814196361 -0.003338609488 0.81700003 1.22382023e-38
0.2817129661 -0.005858629488 0.81900007 1.196305875e-38
0.2817129661 -0.007418639488 0.81900007 1.214745141e-38
0.2817129661 -0.008978639488 0.81900007 1.233181324e-38
0.2817129661 -0.01053863949 0.81900007 1.223959239e-38
0.2820063061 -0.01307767949 0.82100004 1.22396064e-38
0.2820063061 -0.01464146949 0.82100004 1.242293268e-38
0.2822996361 -0.01719191949 0.82300001 1.260660087e-38
0.2822996361 -0.01875957949 0.82300001 1.205379143e-38
0.2822996361 -0.02032717949 0.82300001 1.159462796e-38
0.2822996361 -0.02189481949 0.82300001 1.186907226e-38
0.2825929761 -0.02446433949 0.82500005 1.205275026e-38
0.2825929761 -0.02603578949 0.82500005 1.232790502e-38
0.2825929761 -0.02760720949 0.82500005 1.25115648e-38
0.2825929761 -0.02917861949 0.82500005 1.232501414e-38
0.2825929761 -0.03075003949 0.82500005 1.223354719e-38
0.2825929761 -0.03232148949 0.82500005 1.232611136e-38
0.2825929761 -0.03389292949 0.82500005 1.241793425e-38
0.2825929761 -0.03546434949 0.82500005 1.186726879e-38
0.2825929761 -0.03703576949 0.82500005 1.131661174e-38
0.2828863061 -0.03964337949 0.82700002 1.177399276e-38
0.2831796361 -0.04225861949 0.82900006 1.232287156e-38
0.2831796361 -0.04383766949 0.82900006 1.177223553e-38
0.2831796361 -0.04541674949 0.82900006 1.122154485e-38
0.2739129761 0.2448213805 0.75600004 7.35834155e-39
0.2742101061 0.2429966305 0.75800002 6.714415479e-39
0.2737643961 0.2421356705 0.75500005 7.359056213e-39
0.2737643961 0.2406975705 0.75500005 8.092659781e-39
0.2733186861 0.2398537705 0.75200003 8.457486435e-39
0.2733186861 0.2384213805 0.75200003 8.920249838e-39
0.2733186861 0.2369890005 0.75200003 9.291536478e-39
0.2733186861 0.2355566105 0.75200003 9.660674927e-39
0.2730215461 0.2345356605 0.75000006 1.021348297e-38
0.2733186861 0.2326918705 0.75200003 1.076342675e-38
0.2730215461 0.2316785305 0.75000006 1.039537431e-38
0.2730215461 0.2302499505 0.75000006 1.011951049e-38
0.2730215461 0.2288213805 0.75000006 1.011951049e-38
0.2730215461 0.2273928005 0.75000006 1.011340363e-38
0.2730215461 0.2259642305 0.75000006 9.097104915e-39
0.2730215461 0.2245356605 0.75000006 8.189167206e-39
0.2733186861 0.2226652005 0.75200003 9.381249007e-39
0.2733186861 0.2212328105 0.75200003 1.057905511e-38
0.2733186861 0.2198004205 0.75200003 1.150314839e-38
0.2733186861 0.2183680505 0.75200003 1.251478779e-38
0.2733186861 0.2169356605 0.75200003 1.260807223e-38
0.2733186861 0.2155032905 0.75200003 1.279208514e-38
0.2733186861 0.2140709105 0.75200003 1.297645678e-38
0.2734672561 0.2124042505 0.75300002 1.325195907e-38
0.2734672561 0.2109699705 0.75300002 1.316012077e-38
0.2737643961 0.2090594705 0.75500005 1.306469094e-38
0.2739129761 0.2073813805 0.75600004 1.260192053e-38
0.2755472461 0.2032804305 0.76700002 1.223206602e-38
0.2756958261 0.2015756805 0.76800001 1.103641091e-38
0.2759929661 0.1996213905 0.77000004 9.841840398e-39
0.2759929661 0.1981547105 0.77000004 1.07616401e-38
0.2759929661 0.1966880505 0.77000004 1.177219209e-38
0.2759929661 0.1952213805 0.77000004 1.214061308e-38
0.2759929661 0.1937547105 0.77000004 1.250903967e-38
0.2759929661 0.1922880405 0.77000004 1.315548527e-38
0.2756958261 0.1913356705 0.76800001 1.380048194e-38
0.2756958261 0.1898728305 0.76800001 1.334201912e-38
0.2756958261 0.1884099505 0.76800001 1.297468274e-38
0.2756958261 0.1869471005 0.76800001 1.297612467e-38
0.2755472461 0.1857490105 0.76700002 1.297539179e-38
0.2755472461 0.1842880505 0.76700002 1.233073424e-38
0.2755472461 0.1828271005 0.76700002 1.177792901e-38
0.2755472461 0.1813661605 0.76700002 1.25162017e-38
0.2755472461 0.1799052005 0.76700002 1.334273098e-38
0.2752501161 0.1789928205 0.76500005 1.352641038e-38
0.2752501161 0.1775356605 0.76500005 1.38011952e-38
0.2752501161 0.1760785105 0.76500005 1.28814025e-38
0.2752501161 0.1746213705 0.76500005 1.196054062e-38
0.2749529661 0.1737280505 0.76300001 1.250976554e-38
0.2749529661 0.1722747205 0.76300001 1.306113725e-38
0.2752501161 0.1702499505 0.76500005 1.32455257e-38
0.2755472461 0.1682175805 0.76700002 1.342990015e-38
0.2755472461 0.1667566305 0.76700002 1.352279923e-38
0.2755472461 0.1652956705 0.76700002 1.370647723e-38
0.2755472461 0.1638347205 0.76700002 1.379975466e-38
0.2755472461 0.1623737605 0.76700002 1.398235506e-38
0.2756958261 0.1606156805 0.76800001 1.38898063e-38
0.2756958261 0.1591528205 0.76800001 1.379760927e-38
0.2759929661 0.1570880505 0.77000004 1.380083506e-38
0.2759929661 0.1556213805 0.77000004 1.380011479e-38
0.2759929661 0.1541547105 0.77000004 1.343241268e-38
0.2762901061 0.1520747205 0.77200001 1.306291409e-38
0.2762901061 0.1506042405 0.77200001 1.278596847e-38
0.2764386861 0.1488232905 0.77300006 1.251189831e-38
0.2764386861 0.1473508905 0.77300006 1.269628817e-38
0.2767358361 0.1452499405 0.77500004 1.28813955e-38
0.2767358361 0.1437737605 0.77500004 1.297538339e-38
0.2767358361 0.1422975805 0.77500004 1.315906419e-38
0.2770329661 0.1401814005 0.77700001 1.3159074e-38
0.2770329661 0.1387013805 0.77700001 1.315906559e-38
0.2770329661 0.1372213905 0.77700001 1.316228437e-38
0.2773301161 0.1350899305 0.77900004 1.325340801e-38
0.2774786861 0.1332785205 0.78000003 1.316122079e-38
0.2774786861 0.1317928105 0.78000003 1.306795737e-38
0.2774786861 0.1303071005 0.78000003 1.371081285e-38
0.2777758261 0.1281547205 0.78200006 1.444404927e-38
0.2780729761 0.1259947105 0.78400004 1.398414032e-38
0.2780729761 0.1245013705 0.78400004 1.352711803e-38
0.2780729761 0.1230080705 0.78400004 1.334345124e-38
0.2780729761 0.1215147005 0.78400004 1.315977044e-38
0.2783701061 0.1193356805 0.78600001 1.343383359e-38
0.2786672661 0.1171489905 0.78800005 1.371078202e-38
0.2783701061 0.1163413805 0.78600001 1.380298325e-38
0.2783701061 0.1148442605 0.78600001 1.389481735e-38
0.2786672661 0.1126461605 0.78800005 1.389553481e-38
0.2786672661 0.1111451705 0.78800005 1.398700597e-38
0.2786672661 0.1096442305 0.78800005 1.370898415e-38
0.2788158261 0.1077871005 0.78900003 1.352496564e-38
0.2788158261 0.1062842605 0.78900003 1.352461952e-38
0.2791129661 0.1040613905 0.79100001 1.361753541e-38
0.2791129661 0.1025547105 0.79100001 1.352570412e-38
0.2791129661 0.1010480505 0.79100001 1.343279103e-38
0.2791129661 0.09954136051 0.79100001 1.343242949e-38
0.2791129661 0.09803474051 0.79100001 1.35253524e-38
0.2791129661 0.09652808051 0.79100001 1.36182753e-38
0.2791129661 0.09502139051 0.79100001 1.371009818e-38
0.2794101161 0.09276804051 0.79300004 1.361860881e-38
0.2794101161 0.09125757051 0.79300004 1.352424957e-38
0.2794101161 0.08974710051 0.79300004 1.34327602e-38
0.2797072561 0.08747855051 0.79500002 1.343312173e-38
0.2797072561 0.08596426051 0.79500002 1.334200791e-38
0.2800044061 0.08368423051 0.79700005 1.334163936e-38
0.2800044061 0.08216616051 0.79700005 1.389407886e-38
0.2800044061 0.08064803051 0.79700005 1.453587216e-38
0.2800044061 0.07912993051 0.79700005 1.416819246e-38
0.2797072561 0.07839280051 0.79500002 1.380082946e-38
0.2800044061 0.07609376051 0.79700005 1.370753801e-38
0.2800044061 0.07457566051 0.79700005 1.361572213e-38
0.2800044061 0.07305756051 0.79700005 1.361610048e-38
0.2800044061 0.07153946051 0.79700005 1.361680113e-38
0.2801529761 0.06962138051 0.79800004 1.361391446e-38
0.2800044061 0.06850329051 0.79700005 1.361679833e-38
0.2801529761 0.06658137051 0.79800004 1.370936671e-38
0.2800044061 0.06546709051 0.79700005 1.389230762e-38
0.2801529761 0.06354138051 0.79800004 1.361642979e-38
0.2804501161 0.06120234051 0.80000001 1.343347626e-38
0.2804501161 0.05967852051 0.80000001 1.297142892e-38
0.2804501161 0.05815473051 0.80000001 1.251442766e-38
0.2807472561 0.05580040051 0.80200005 1.288143473e-38
0.2807472561 0.05427280051 0.80200005 1.33405982e-38
0.2807472561 0.05274519051 0.80200005 1.343313575e-38
0.2807472561 0.05121758051 0.80200005 1.352425378e-38
0.2807472561 0.04968995051 0.80200005 1.315655446e-38
0.2807472561 0.04816234051 0.80200005 1.279064601e-38
0.2807472561 0.04663470051 0.80200005 1.242115023e-38
0.2807472561 0.04510709051 0.80200005 1.214566476e-38
0.2807472561 0.04357946051 0.80200005 1.269669875e-38
0.2807472561 0.04205185051 0.80200005 1.324698165e-38
0.2807472561 0.04052421051 0.80200005 1.315836354e-38
0.2807472561 0.03899663051 0.80200005 1.315764047e-38
0.2810443961 0.03659284051 0.80400002 1.297217021e-38
0.2810443961 0.03506139051 0.80400002 1.288070466e-38
0.2810443961 0.03352996051 0.80400002 1.269776234e-38
0.2810443961 0.03199854051 0.80400002 1.260591563e-38
0.2810443961 0.03046712051 0.80400002 1.260590442e-38
0.2810443961 0.02893567051 0.80400002 1.269738259e-38
0.2813415461 0.02650517051 0.80600005 1.251335426e-38
0.2813415461 0.02496993051 0.80600005 1.24207943e-38
0.2816386761 0.02252805051 0.80800003 1.21452794e-38
0.2816386761 0.02098903051 0.80800003 1.186977431e-38
0.2816386761 0.01944995051 0.80800003 1.205380544e-38
0.2819358361 0.01699277051 0.81000006 1.23289546e-38
0.2819358361 0.01544994051 0.81000006 1.232859726e-38
0.2819358361 0.01390707051 0.81000006 1.242008244e-38
0.2819358361 0.01236424051 0.81000006 1.214458436e-38
0.2819358361 0.01082137051 0.81000006 1.186980514e-38
0.2819358361 0.009278530512 0.81000006 1.196236931e-38
0.2822329661 0.006794720512 0.81200004 1.205490406e-38
0.2822329661 0.005248040512 0.81200004 1.196197415e-38
0.2825301161 0.002752810512 0.81400001 1.186977711e-38
0.2825301161 0.001202340512 0.81400001 1.242042856e-38
0.2825301161 -0.0003481194882 0.81400001 1.29721618e-38
0.2826786861 -0.002378649488 0.81500006 1.233003219e-38
0.2829758261 -0.004894799488 0.81700003 1.168754526e-38
0.2829758261 -0.006450979488 0.81700003 1.205560611e-38
0.2829758261 -0.008007199488 0.81700003 1.242221521e-38
0.2829758261 -0.009563389488 0.81700003 1.242183966e-38
0.2832729761 -0.01209863949 0.81900007 1.242220961e-38
0.2832729761 -0.01365864949 0.81900007 1.269808744e-38
0.2835701061 -0.01620527949 0.82100004 1.306506929e-38
0.2835701061 -0.01776909949 0.82100004 1.223675476e-38
0.2835701061 -0.01933288949 0.82100004 1.14102437e-38
0.2835701061 -0.02089670949 0.82100004 1.16857572e-38
0.2838672561 -0.02346241949 0.82300001 1.205273485e-38
0.2838672561 -0.02503004949 0.82300001 1.214456614e-38
0.2838672561 -0.02659764949 0.82300001 1.223568697e-38
0.2841644061 -0.02917861949 0.82500005 1.223246258e-38
0.2841644061 -0.03075003949 0.82500005 1.223426325e-38
0.2841644061 -0.03232148949 0.82500005 1.251013688e-38
0.2841644061 -0.03389292949 0.82500005 1.278527343e-38
0.2841644061 -0.03546434949 0.82500005 1.223389191e-38
0.2841644061 -0.03703576949 0.82500005 1.177507176e-38
0.2841644061 -0.03860717949 0.82500005 1.186511359e-38
0.2844615461 -0.04121863949 0.82700002 1.19558799e-38
0.2844615461 -0.04279383949 0.82700002 1.158782886e-38
0.2847586861 -0.04541674949 0.82900006 1.122082599e-38
0.2756539161 0.2429966305 0.75800002 7.449095244e-39
0.2749015461 0.2425242505 0.75300002 7.725313592e-39
0.2749015461 0.2410899505 0.75300002 7.907908387e-39
0.2749015461 0.2396556705 0.75300002 8.09014445e-39
0.2747510661 0.2384213805 0.75200003 8.274169971e-39
0.2747510661 0.2369890005 0.75200003 8.553619713e-39
0.2747510661 0.2355566105 0.75200003 8.924553226e-39
0.2747510661 0.2341242405 0.75200003 8.922406437e-39
0.2747510661 0.2326918705 0.75200003 8.920259647e-39
0.2747510661 0.2312594905 0.75200003 9.288683434e-39
0.2747510661 0.2298271005 0.75200003 9.657100215e-39
0.2747510661 0.2283947105 0.75200003 9.840771207e-39
0.2747510661 0.2269623405 0.75200003 1.001331028e-38
0.2747510661 0.2255299505 0.75200003 9.743173572e-39
0.2747510661 0.2240975805 0.75200003 9.564905986e-39
0.2747510661 0.2226652005 0.75200003 1.03950352e-38
0.2747510661 0.2212328105 0.75200003 1.113329808e-38
0.2747510661 0.2198004205 0.75200003 1.187120224e-38
0.2747510661 0.2183680505 0.75200003 1.260913021e-38
0.2747510661 0.2169356605 0.75200003 1.270026506e-38
0.2747510661 0.2155032905 0.75200003 1.288320597e-38
0.2747510661 0.2140709105 0.75200003 1.306794055e-38
0.2749015461 0.2124042505 0.75300002 1.325196327e-38
0.2749015461 0.2109699705 0.75300002 1.343526852e-38
0.2752024961 0.2090594705 0.75500005 1.352529915e-38
0.2753529661 0.2073813805 0.75600004 1.287813608e-38
0.2767072561 0.2037642405 0.76500005 1.214058225e-38
0.2771586861 0.2015756805 0.76800001 1.140374588e-38
0.2771586861 0.2001128205 0.76800001 1.05768789e-38
0.2771586861 0.1986499505 0.76800001 1.122081618e-38
0.2774596361 0.1966880505 0.77000004 1.186367026e-38
0.2774596361 0.1952213805 0.77000004 1.223245278e-38
0.2771586861 0.1942614005 0.76800001 1.260160244e-38
0.2771586861 0.1927985405 0.76800001 1.297147096e-38
0.2771586861 0.1913356705 0.76800001 1.334023246e-38
0.2771586861 0.1898728305 0.76800001 1.306542942e-38
0.2771586861 0.1884099505 0.76800001 1.28824773e-38
0.2771586861 0.1869471005 0.76800001 1.297503166e-38
0.2771586861 0.1854842605 0.76800001 1.297501344e-38
0.2771586861 0.1840213805 0.76800001 1.288100874e-38
0.2771586861 0.1825585305 0.76800001 1.269627136e-38
0.2770082061 0.1813661605 0.76700002 1.297394005e-38
0.2770082061 0.1799052005 0.76700002 1.316014179e-38
0.2770082061 0.1784442305 0.76700002 1.325020464e-38
0.2770082061 0.1769832905 0.76700002 1.325054796e-38
0.2770082061 0.1755223405 0.76700002 1.278884534e-38
0.2770082061 0.1740613805 0.76700002 1.2327877e-38
0.2767072561 0.1731642305 0.76500005 1.269414699e-38
0.2767072561 0.1717070905 0.76500005 1.306041418e-38
0.2767072561 0.1702499505 0.76500005 1.324480544e-38
0.2770082061 0.1682175805 0.76700002 1.342918549e-38
0.2770082061 0.1667566305 0.76700002 1.352209017e-38
0.2770082061 0.1652956705 0.76700002 1.361464454e-38
0.2770082061 0.1638347205 0.76700002 1.370648283e-38
0.2770082061 0.1623737605 0.76700002 1.379832113e-38
0.2771586861 0.1606156805 0.76800001 1.370541224e-38
0.2771586861 0.1591528205 0.76800001 1.361285928e-38
0.2774596361 0.1570880505 0.77000004 1.352209998e-38
0.2774596361 0.1556213805 0.77000004 1.352317057e-38
0.2774596361 0.1541547105 0.77000004 1.315510692e-38
0.2777605861 0.1520747205 0.77200001 1.278704607e-38
0.2777605861 0.1506042405 0.77200001 1.260301494e-38
0.2779110761 0.1488232905 0.77300006 1.241934395e-38
0.2782120161 0.1467261405 0.77500004 1.251225705e-38
0.2782120161 0.1452499405 0.77500004 1.260480861e-38
0.2782120161 0.1437737605 0.77500004 1.27884782e-38
0.2782120161 0.1422975805 0.77500004 1.288033191e-38
0.2785129561 0.1401814005 0.77700001 1.297433802e-38
0.2785129561 0.1387013805 0.77700001 1.306687556e-38
0.2785129561 0.1372213905 0.77700001 1.334272537e-38
0.2788139261 0.1350899305 0.77900004 1.361895633e-38
0.2789643961 0.1332785205 0.78000003 1.334345685e-38
0.2789643961 0.1317928105 0.78000003 1.316015019e-38
0.2789643961 0.1303071005 0.78000003 1.361897455e-38
0.2792653461 0.1281547205 0.78200006 1.407741775e-38
0.2795663061 0.1259947105 0.78400004 1.371041908e-38
0.2795663061 0.1245013705 0.78400004 1.343564127e-38
0.2795663061 0.1230080705 0.78400004 1.343529375e-38
0.2795663061 0.1215147005 0.78400004 1.343529094e-38
0.2798672561 0.1193356805 0.78600001 1.35267649e-38
0.2801682161 0.1171489905 0.78800005 1.37104345e-38
0.2798672561 0.1163413805 0.78600001 1.380226999e-38
0.2798672561 0.1148442605 0.78600001 1.398629271e-38
0.2801682161 0.1126461605 0.78800005 1.407884007e-38
0.2801682161 0.1111451705 0.78800005 1.417102729e-38
0.2801682161 0.1096442305 0.78800005 1.380188604e-38
0.2803186861 0.1077871005 0.78900003 1.343348747e-38
0.2803186861 0.1062842605 0.78900003 1.343350709e-38
0.2803186861 0.1047813905 0.78900003 1.352534679e-38
0.2806196361 0.1025547105 0.79100001 1.334132127e-38
0.2806196361 0.1010480505 0.79100001 1.315764747e-38
0.2806196361 0.09954136051 0.79100001 1.333988214e-38
0.2806196361 0.09803474051 0.79100001 1.361504531e-38
0.2806196361 0.09652808051 0.79100001 1.361542085e-38
0.2806196361 0.09502139051 0.79100001 1.361576277e-38
0.2806196361 0.09351474051 0.79100001 1.352391186e-38
0.2806196361 0.09200808051 0.79100001 1.343242949e-38
0.2809205961 0.08974710051 0.79300004 1.334058979e-38
0.2809205961 0.08823663051 0.79300004 1.324982629e-38
0.2809205961 0.08672616051 0.79300004 1.306615249e-38
0.2812215361 0.08444997051 0.79500002 1.288247169e-38
0.2812215361 0.08293569051 0.79500002 1.352531176e-38
0.2812215361 0.08142137051 0.79500002 1.407669188e-38
0.2815224961 0.07912993051 0.79700005 1.389267196e-38
0.2812215361 0.07839280051 0.79500002 1.380082806e-38
0.2812215361 0.07687851051 0.79500002 1.380117978e-38
0.2812215361 0.07536426051 0.79500002 1.380154552e-38
0.2815224961 0.07305756051 0.79700005 1.36175228e-38
0.2815224961 0.07153946051 0.79700005 1.352567189e-38
0.2815224961 0.07002139051 0.79700005 1.361677451e-38
0.2815224961 0.06850329051 0.79700005 1.361608227e-38
0.2815224961 0.06698519051 0.79700005 1.370758566e-38
0.2815224961 0.06546709051 0.79700005 1.379940714e-38
0.2815224961 0.06394899051 0.79700005 1.35246041e-38
0.2815224961 0.06243089051 0.79700005 1.334163796e-38
0.2815224961 0.06091281051 0.79700005 1.306611886e-38
0.2816729761 0.05898136051 0.79800004 1.279065021e-38
0.2819739161 0.05663091051 0.80000001 1.306547847e-38
0.2819739161 0.05510711051 0.80000001 1.334024647e-38
0.2819739161 0.05358329051 0.80000001 1.352425518e-38
0.2819739161 0.05205947051 0.80000001 1.38011966e-38
0.2819739161 0.05053568051 0.80000001 1.343349728e-38
0.2819739161 0.04901185051 0.80000001 1.30661623e-38
0.2819739161 0.04748806051 0.80000001 1.288249832e-38
0.2822748661 0.04510709051 0.80200005 1.279068664e-38
0.2822748661 0.04357946051 0.80200005 1.315554132e-38
0.2822748661 0.04205185051 0.80200005 1.352142596e-38
0.2822748661 0.04052421051 0.80200005 1.34324379e-38
0.2822748661 0.03899663051 0.80200005 1.334166879e-38
0.2822748661 0.03746900051 0.80200005 1.31558356e-38
0.2825758261 0.03506139051 0.80400002 1.297218702e-38
0.2825758261 0.03352996051 0.80400002 1.278889719e-38
0.2825758261 0.03199854051 0.80400002 1.269741061e-38
0.2825758261 0.03046712051 0.80400002 1.269632601e-38
0.2825758261 0.02893567051 0.80400002 1.269344914e-38
0.2825758261 0.02740425051 0.80400002 1.260483523e-38
0.2828767761 0.02496993051 0.80600005 1.251262699e-38
0.2828767761 0.02343470051 0.80600005 1.232894198e-38
0.2831777361 0.02098903051 0.80800003 1.223711209e-38
0.2831777361 0.01944995051 0.80800003 1.242114882e-38
0.2831777361 0.01791089051 0.80800003 1.260554008e-38
0.2834786861 0.01544994051 0.81000006 1.251334866e-38
0.2834786861 0.01390707051 0.81000006 1.242116003e-38
0.2834786861 0.01236424051 0.81000006 1.205382506e-38
0.2834786861 0.01082137051 0.81000006 1.168648447e-38
0.2834786861 0.009278530512 0.81000006 1.18705156e-38
0.2834786861 0.007735640512 0.81000006 1.205489565e-38
0.2837796361 0.005248040512 0.81200004 1.205416978e-38
0.2840805861 0.002752810512 0.81400001 1.205380824e-38
0.2837796361 0.002154700512 0.81200004 1.232859586e-38
0.2837796361 0.0006080205118 0.81200004 1.260194856e-38
0.2842310661 -0.002378649488 0.81500006 1.223783376e-38
0.2845320061 -0.004894799488 0.81700003 1.196340347e-38
0.2842310661 -0.005483389488 0.81500006 1.242222222e-38
0.2842310661 -0.007035769488 0.81500006 1.288103536e-38
0.2842310661 -0.008588169488 0.81500006 1.269700003e-38
0.2845320061 -0.01111957949 0.81700003 1.251297872e-38
0.2845320061 -0.01267576949 0.81700003 1.260625895e-38
0.2848329761 -0.01521864949 0.81900007 1.278921248e-38
0.2848329761 -0.01677864949 0.81900007 1.232824274e-38
0.2848329761 -0.01833864949 0.81900007 1.186942539e-38
0.2848329761 -0.01989862949 0.81900007 1.205309778e-38
0.2851339161 -0.02246051949 0.82100004 1.223675056e-38
0.2851339161 -0.02402433949 0.82100004 1.223637501e-38
0.2854348661 -0.02659764949 0.82300001 1.223531563e-38
0.2854348661 -0.02816527949 0.82300001 1.223497511e-38
0.2854348661 -0.02973288949 0.82300001 1.223497932e-38
0.2854348661 -0.03130051949 0.82300001 1.232682042e-38
0.2854348661 -0.03286814949 0.82300001 1.241900624e-38
0.2854348661 -0.03443574949 0.82300001 1.214205641e-38
0.2854348661 -0.03600337949 0.82300001 1.186654992e-38
0.2854348661 -0.03757098949 0.82300001 1.205022232e-38
0.2857358261 -0.04017862949 0.82500005 1.232608474e-38
0.2857358261 -0.04175007949 0.82500005 1.186475346e-38
0.2763358261 0.2425242505 0.75300002 8.001534743e-39
0.2763358261 0.2410899505 0.75300002 7.817146286e-39
0.2763358261 0.2396556705 0.75300002 7.723158395e-39
0.2763358261 0.2382213905 0.75300002 7.631678829e-39
0.2761834461 0.2369890005 0.75200003 7.90789998e-39
0.2761834461 0.2355566105 0.75200003 8.27416857e-39
0.2761834461 0.2341242405 0.75200003 7.722442332e-39
0.2763358261 0.2324842505 0.75300002 7.171795094e-39
0.2763358261 0.2310499705 0.75300002 8.182711424e-39
0.2761834461 0.2298271005 0.75200003 9.290118364e-39
0.2761834461 0.2283947105 0.75200003 9.562396261e-39
0.2761834461 0.2269623405 0.75200003 9.933678697e-39
0.2761834461 0.2255299505 0.75200003 1.048863212e-38
0.2761834461 0.2240975805 0.75200003 1.104181431e-38
0.2761834461 0.2226652005 0.75200003 1.141168564e-38
0.2761834461 0.2212328105 0.75200003 1.177974089e-38
0.2761834461 0.2198004205 0.75200003 1.223963303e-38
0.2761834461 0.2183680505 0.75200003 1.270133985e-38
0.2761834461 0.2169356605 0.75200003 1.27935523e-38
0.2758786861 0.2159642405 0.75000006 1.297648621e-38
0.2761834461 0.2140709105 0.75200003 1.315977885e-38
0.2761834461 0.2126385205 0.75200003 1.334345405e-38
0.2763358261 0.2109699705 0.75300002 1.37104415e-38
0.2766405961 0.2090594705 0.75500005 1.407561428e-38
0.2767929761 0.2073813805 0.75600004 1.306253574e-38
0.2770977261 0.2054575805 0.75800002 1.214094799e-38
0.2784691561 0.2018194805 0.76700002 1.177109207e-38
0.2786215361 0.2001128205 0.76800001 1.140375849e-38
0.2786215361 0.1986499505 0.76800001 1.168106845e-38
0.2786215361 0.1971871105 0.76800001 1.195658055e-38
0.2789263061 0.1952213805 0.77000004 1.232428827e-38
0.2786215361 0.1942614005 0.76800001 1.278562655e-38
0.2786215361 0.1927985405 0.76800001 1.278742862e-38
0.2786215361 0.1913356705 0.76800001 1.288069345e-38
0.2786215361 0.1898728305 0.76800001 1.288140671e-38
0.2786215361 0.1884099505 0.76800001 1.288176404e-38
0.2786215361 0.1869471005 0.76800001 1.29753932e-38
0.2786215361 0.1854842605 0.76800001 1.306577695e-38
0.2786215361 0.1840213805 0.76800001 1.333947436e-38
0.2786215361 0.1825585305 0.76800001 1.370646742e-38
0.2786215361 0.1810956705 0.76800001 1.334021004e-38
0.2784691561 0.1799052005 0.76700002 1.306543643e-38
0.2784691561 0.1784442305 0.76700002 1.288249692e-38
0.2784691561 0.1769832905 0.76700002 1.278992994e-38
0.2784691561 0.1755223405 0.76700002 1.26966469e-38
0.2784691561 0.1740613805 0.76700002 1.269557071e-38
0.2784691561 0.1726004305 0.76700002 1.28792431e-38
0.2784691561 0.1711394805 0.76700002 1.306041137e-38
0.2784691561 0.1696785405 0.76700002 1.324444951e-38
0.2784691561 0.1682175805 0.76700002 1.342883236e-38
0.2784691561 0.1667566305 0.76700002 1.352137831e-38
0.2784691561 0.1652956705 0.76700002 1.361428861e-38
0.2786215361 0.1635413905 0.76800001 1.36153634e-38
0.2786215361 0.1620785305 0.76800001 1.361429001e-38
0.2786215361 0.1606156805 0.76800001 1.352138112e-38
0.2786215361 0.1591528205 0.76800001 1.352066365e-38
0.2789263061 0.1570880505 0.77000004 1.333663393e-38
0.2789263061 0.1556213805 0.77000004 1.324479283e-38
0.2789263061 0.1541547105 0.77000004 1.287780537e-38
0.2792310661 0.1520747205 0.77200001 1.260086255e-38
0.2792310661 0.1506042405 0.77200001 1.250759072e-38
0.2793834461 0.1488232905 0.77300006 1.241719156e-38
0.2796882061 0.1467261405 0.77500004 1.242006282e-38
0.2796882061 0.1452499405 0.77500004 1.242042015e-38
0.2796882061 0.1437737605 0.77500004 1.251297311e-38
0.2799929661 0.1416613905 0.77700001 1.269701405e-38
0.2799929661 0.1401814005 0.77700001 1.288141511e-38
0.2799929661 0.1387013805 0.77700001 1.306472037e-38
0.2799929661 0.1372213905 0.77700001 1.352388944e-38
0.2802977361 0.1350899305 0.77900004 1.398415153e-38
0.2804501161 0.1332785205 0.78000003 1.361825288e-38
0.2804501161 0.1317928105 0.78000003 1.325127663e-38
0.2804501161 0.1303071005 0.78000003 1.343531336e-38
0.2807548761 0.1281547205 0.78200006 1.371080584e-38
0.2810596361 0.1259947105 0.78400004 1.352747957e-38
0.2810596361 0.1245013705 0.78400004 1.343565248e-38
0.2810596361 0.1230080705 0.78400004 1.352749638e-38
0.2810596361 0.1215147005 0.78400004 1.371044571e-38
0.2813643961 0.1193356805 0.78600001 1.371008277e-38
0.2813643961 0.1178385305 0.78600001 1.371007436e-38
0.2813643961 0.1163413805 0.78600001 1.389373835e-38
0.2813643961 0.1148442605 0.78600001 1.407776667e-38
0.2816691661 0.1126461605 0.78800005 1.426215513e-38
0.2816691661 0.1111451705 0.78800005 1.444582192e-38
0.2816691661 0.1096442305 0.78800005 1.389480614e-38
0.2818215361 0.1077871005 0.78900003 1.343528814e-38
0.2818215361 0.1062842605 0.78900003 1.343530636e-38
0.2818215361 0.1047813905 0.78900003 1.343530636e-38
0.2821262961 0.1025547105 0.79100001 1.315979987e-38
0.2821262961 0.1010480505 0.79100001 1.288321578e-38
0.2821262961 0.09954136051 0.79100001 1.324768791e-38
0.2821262961 0.09803474051 0.79100001 1.370723113e-38
0.2821262961 0.09652808051 0.79100001 1.361576277e-38
0.2821262961 0.09502139051 0.79100001 1.361539143e-38
0.2821262961 0.09351474051 0.79100001 1.352246712e-38
0.2821262961 0.09200808051 0.79100001 1.343242669e-38
0.2821262961 0.09050139051 0.79100001 1.324839696e-38
0.2824310661 0.08823663051 0.79300004 1.30661623e-38
0.2824310661 0.08672616051 0.79300004 1.279101595e-38
0.2824310661 0.08521565051 0.79300004 1.251549965e-38
0.2827358261 0.08293569051 0.79500002 1.306650422e-38
0.2827358261 0.08142137051 0.79500002 1.370899676e-38
0.2830405861 0.07912993051 0.79700005 1.370720731e-38
0.2827358261 0.07839280051 0.79500002 1.380083366e-38
0.2827358261 0.07687851051 0.79500002 1.389302649e-38
0.2827358261 0.07536426051 0.79500002 1.3984876e-38
0.2827358261 0.07384997051 0.79500002 1.371081845e-38
0.2830405861 0.07153946051 0.79700005 1.352605445e-38
0.2830405861 0.07002139051 0.79700005 1.361751439e-38
0.2827358261 0.06930709051 0.79500002 1.370971563e-38
0.2830405861 0.06698519051 0.79700005 1.371008137e-38
0.2830405861 0.06546709051 0.79700005 1.37093583e-38
0.2830405861 0.06394899051 0.79700005 1.352496564e-38
0.2830405861 0.06243089051 0.79700005 1.334200931e-38
0.2830405861 0.06091281051 0.79700005 1.325124721e-38
0.2831929761 0.05898136051 0.79800004 1.315871386e-38
0.2831929761 0.05746138051 0.79800004 1.325021165e-38
0.2831929761 0.05594137051 0.79800004 1.334094993e-38
0.2834977261 0.05358329051 0.80000001 1.370755343e-38
0.2834977261 0.05205947051 0.80000001 1.416817284e-38
0.2834977261 0.05053568051 0.80000001 1.37104387e-38
0.2834977261 0.04901185051 0.80000001 1.334202752e-38
0.2834977261 0.04748806051 0.80000001 1.334203593e-38
0.2834977261 0.04596424051 0.80000001 1.343244491e-38
0.2834977261 0.04444045051 0.80000001 1.361468938e-38
0.2838024961 0.04205185051 0.80200005 1.379834916e-38
0.2838024961 0.04052421051 0.80200005 1.361466696e-38
0.2838024961 0.03899663051 0.80200005 1.352533978e-38
0.2838024961 0.03746900051 0.80200005 1.333951359e-38
0.2838024961 0.03594139051 0.80200005 1.315657268e-38
0.2838024961 0.03441375051 0.80200005 1.297506529e-38
0.2838024961 0.03288614051 0.80200005 1.27892363e-38
0.2838024961 0.03135851051 0.80200005 1.269488547e-38
0.2838024961 0.02983090051 0.80200005 1.269488267e-38
0.2838024961 0.02830329051 0.80200005 1.26963148e-38
0.2841072561 0.02587282051 0.80400002 1.269737978e-38
0.2841072561 0.02434137051 0.80400002 1.260696941e-38
0.2841072561 0.02280995051 0.80400002 1.260661068e-38
0.2844120161 0.02036422051 0.80600005 1.269808884e-38
0.2847167761 0.01791089051 0.80800003 1.28814025e-38
0.2850215461 0.01544994051 0.81000006 1.269773431e-38
0.2850215461 0.01390707051 0.81000006 1.251299413e-38
0.2850215461 0.01236424051 0.81000006 1.196198676e-38
0.2847167761 0.01175472051 0.80800003 1.150280227e-38
0.2850215461 0.009278530512 0.81000006 1.177866189e-38
0.2850215461 0.007735640512 0.81000006 1.21463626e-38
0.2850215461 0.006192770512 0.81000006 1.22392757e-38
0.2853263061 0.003701390512 0.81200004 1.232931193e-38
0.2850215461 0.003107070512 0.81000006 1.223675336e-38
0.2853263061 0.0006080205118 0.81200004 1.223460237e-38
0.2856310661 -0.001898619488 0.81400001 1.223783376e-38
0.2856310661 -0.003449089488 0.81400001 1.232894899e-38
0.2856310661 -0.004999549488 0.81400001 1.278776353e-38
0.2856310661 -0.006550049488 0.81400001 1.333878632e-38
0.2856310661 -0.008100509488 0.81400001 1.297145415e-38
0.2857834561 -0.01014053949 0.81500006 1.260375063e-38
0.2857834561 -0.01169290949 0.81500006 1.260626035e-38
0.2860882061 -0.01423194949 0.81700003 1.260446249e-38
0.2860882061 -0.01578813949 0.81700003 1.241971249e-38
0.2860882061 -0.01734435949 0.81700003 1.232824694e-38
0.2863929661 -0.01989862949 0.81900007 1.242081111e-38
0.2866977261 -0.02246051949 0.82100004 1.251226966e-38
0.2866977261 -0.02402433949 0.82100004 1.242005721e-38
0.2866977261 -0.02558815949 0.82100004 1.232715253e-38
0.2866977261 -0.02715197949 0.82100004 1.232716093e-38
0.2870024961 -0.02973288949 0.82300001 1.232824274e-38
0.2866977261 -0.03027957949 0.82100004 1.214565355e-38
0.2870024961 -0.03286814949 0.82300001 1.205094399e-38
0.2866977261 -0.03340720949 0.82100004 1.195838682e-38
0.2866977261 -0.03497099949 0.82100004 1.195946022e-38
0.2870024961 -0.03757098949 0.82300001 1.232823573e-38
0.2870024961 -0.03913861949 0.82300001 1.269306799e-38
0.2870024961 -0.04070621949 0.82300001 1.214169768e-38
0.2777701061 0.2410899505 0.75300002 7.818578413e-39
0.2777701061 0.2396556705 0.75300002 7.079230922e-39
0.2777701061 0.2382213905 0.75300002 6.347055277e-39
0.2777701061 0.2367871105 0.75300002 7.264691373e-39
0.2777701061 0.2353528305 0.75300002 8.179101679e-39
0.2777701061 0.2339185305 0.75300002 8.179104482e-39
0.2780786761 0.2320690005 0.75500005 8.179473023e-39
0.2777701061 0.2310499705 0.75300002 8.91847159e-39
0.2776158261 0.2298271005 0.75200003 9.749655979e-39
0.2777701061 0.2281813905 0.75300002 1.011951049e-38
0.2776158261 0.2269623405 0.75200003 1.04893636e-38
0.2777701061 0.2253128105 0.75300002 1.085742305e-38
0.2777701061 0.2238785305 0.75300002 1.12287223e-38
0.2776158261 0.2226652005 0.75200003 1.150352394e-38
0.2776158261 0.2212328105 0.75200003 1.187014986e-38
0.2776158261 0.2198004205 0.75200003 1.233112381e-38
0.2776158261 0.2183680505 0.75200003 1.2701714e-38
0.2776158261 0.2169356605 0.75200003 1.288540461e-38
0.2773072561 0.2159642405 0.75000006 1.316088447e-38
0.2776158261 0.2140709105 0.75200003 1.325161715e-38
0.2776158261 0.2126385205 0.75200003 1.343530356e-38
0.2777701061 0.2109699705 0.75300002 1.343603784e-38
0.2780786761 0.2090594705 0.75500005 1.352390205e-38
0.2782329761 0.2073813805 0.75600004 1.278596567e-38
0.2785415361 0.2054575805 0.75800002 1.204947963e-38
0.2799301161 0.2018194805 0.76700002 1.149558979e-38
0.2799301161 0.2003585405 0.76700002 1.103677664e-38
0.2800843961 0.1986499505 0.76800001 1.149775479e-38
0.2800843961 0.1971871105 0.76800001 1.195765675e-38
0.2800843961 0.1957242505 0.76800001 1.232500714e-38
0.2800843961 0.1942614005 0.76800001 1.269450292e-38
0.2800843961 0.1927985405 0.76800001 1.278741741e-38
0.2800843961 0.1913356705 0.76800001 1.278885655e-38
0.2800843961 0.1898728305 0.76800001 1.269738399e-38
0.2800843961 0.1884099505 0.76800001 1.260590442e-38
0.2800843961 0.1869471005 0.76800001 1.278957261e-38
0.2800843961 0.1854842605 0.76800001 1.297322959e-38
0.2800843961 0.1840213805 0.76800001 1.297249811e-38
0.2800843961 0.1825585305 0.76800001 1.306290709e-38
0.2800843961 0.1810956705 0.76800001 1.287888577e-38
0.2799301161 0.1799052005 0.76700002 1.269486445e-38
0.2799301161 0.1784442305 0.76700002 1.260590863e-38
0.2799301161 0.1769832905 0.76700002 1.260553728e-38
0.2799301161 0.1755223405 0.76700002 1.26048072e-38
0.2799301161 0.1740613805 0.76700002 1.260408694e-38
0.2799301161 0.1726004305 0.76700002 1.26955623e-38
0.2799301161 0.1711394805 0.76700002 1.287709631e-38
0.2800843961 0.1693928105 0.76800001 1.306042399e-38
0.2800843961 0.1679299605 0.76800001 1.324373064e-38
0.2799301161 0.1667566305 0.76700002 1.324372644e-38
0.2800843961 0.1650042505 0.76800001 1.333591506e-38
0.2800843961 0.1635413905 0.76800001 1.324407536e-38
0.2800843961 0.1620785305 0.76800001 1.324407676e-38
0.2800843961 0.1606156805 0.76800001 1.315188534e-38
0.2800843961 0.1591528205 0.76800001 1.306004984e-38
0.2803929761 0.1570880505 0.77000004 1.287637885e-38
0.2803929761 0.1556213805 0.77000004 1.269270365e-38
0.2803929761 0.1541547105 0.77000004 1.250795226e-38
0.2807015361 0.1520747205 0.77200001 1.22317255e-38
0.2808558361 0.1502956605 0.77300006 1.21398886e-38
0.2808558361 0.1488232905 0.77300006 1.204805451e-38
0.2811643961 0.1467261405 0.77500004 1.214276267e-38
0.2811643961 0.1452499405 0.77500004 1.214455633e-38
0.2811643961 0.1437737605 0.77500004 1.232679239e-38
0.2814729661 0.1416613905 0.77700001 1.24175573e-38
0.2814729661 0.1401814005 0.77700001 1.260231149e-38
0.2814729661 0.1387013805 0.77700001 1.278741741e-38
0.2817815461 0.1365737605 0.77900004 1.30640001e-38
0.2817815461 0.1350899305 0.77900004 1.333987373e-38
0.2819358361 0.1332785205 0.78000003 1.288249972e-38
0.2819358361 0.1317928105 0.78000003 1.242440684e-38
0.2819358361 0.1303071005 0.78000003 1.27924761e-38
0.2822444061 0.1281547205 0.78200006 1.325235844e-38
0.2825529661 0.1259947105 0.78400004 1.325162976e-38
0.2825529661 0.1245013705 0.78400004 1.334346946e-38
0.2825529661 0.1230080705 0.78400004 1.371045832e-38
0.2825529661 0.1215147005 0.78400004 1.407707723e-38
0.2825529661 0.1200213705 0.78400004 1.38930433e-38
0.2828615361 0.1178385305 0.78600001 1.380119239e-38
0.2828615361 0.1163413805 0.78600001 1.380153571e-38
0.2828615361 0.1148442605 0.78600001 1.380190005e-38
0.2828615361 0.1133470805 0.78600001 1.398665284e-38
0.2828615361 0.1118499605 0.78600001 1.417175736e-38
0.2831701061 0.1096442305 0.78800005 1.361930806e-38
0.2833244061 0.1077871005 0.78900003 1.307082302e-38
0.2833244061 0.1062842605 0.78900003 1.325343463e-38
0.2833244061 0.1047813905 0.78900003 1.343638396e-38
0.2833244061 0.1032785105 0.78900003 1.334346806e-38
0.2836329661 0.1010480505 0.79100001 1.334346806e-38
0.2836329661 0.09954136051 0.79100001 1.361754102e-38
0.2836329661 0.09803474051 0.79100001 1.398380541e-38
0.2836329661 0.09652808051 0.79100001 1.379977568e-38
0.2836329661 0.09502139051 0.79100001 1.370685558e-38
0.2836329661 0.09351474051 0.79100001 1.361537041e-38
0.2836329661 0.09200808051 0.79100001 1.352425798e-38
0.2839415461 0.08974710051 0.79300004 1.334131146e-38
0.2839415461 0.08823663051 0.79300004 1.325019903e-38
0.2839415461 0.08672616051 0.79300004 1.306689238e-38
0.2839415461 0.08521565051 0.79300004 1.297576594e-38
0.2842501161 0.08293569051 0.79500002 1.334202332e-38
0.2842501161 0.08142137051 0.79500002 1.380083927e-38
0.2842501161 0.07990709051 0.79500002 1.380083646e-38
0.2842501161 0.07839280051 0.79500002 1.37093639e-38
0.2842501161 0.07687851051 0.79500002 1.370936811e-38
0.2842501161 0.07536426051 0.79500002 1.370938773e-38
0.2842501161 0.07384997051 0.79500002 1.343426099e-38
0.2842501161 0.07233569051 0.79500002 1.315909502e-38
0.2842501161 0.07082140051 0.79500002 1.334274779e-38
0.2842501161 0.06930709051 0.79500002 1.352640617e-38
0.2842501161 0.06779280051 0.79500002 1.361823046e-38
0.2842501161 0.06627851051 0.79500002 1.380190565e-38
0.2845586861 0.06394899051 0.79700005 1.361824027e-38
0.2845586861 0.06243089051 0.79700005 1.334273938e-38
0.2845586861 0.06091281051 0.79700005 1.334274639e-38
0.2845586861 0.05939471051 0.79700005 1.32509137e-38
0.2847129661 0.05746138051 0.79800004 1.325055777e-38
0.2847129661 0.05594137051 0.79800004 1.315834252e-38
0.2847129661 0.05442136051 0.79800004 1.352386982e-38
0.2850215461 0.05205947051 0.80000001 1.380082525e-38
0.2850215461 0.05053568051 0.80000001 1.361752701e-38
0.2847129661 0.04986137051 0.79800004 1.334238766e-38
0.2850215461 0.04748806051 0.80000001 1.34324379e-38
0.2850215461 0.04596424051 0.80000001 1.361394949e-38
0.2850215461 0.04444045051 0.80000001 1.379833094e-38
0.2850215461 0.04291662051 0.80000001 1.407491363e-38
0.2853301161 0.04052421051 0.80200005 1.38919601e-38
0.2853301161 0.03899663051 0.80200005 1.370901078e-38
0.2853301161 0.03746900051 0.80200005 1.343315116e-38
0.2853301161 0.03594139051 0.80200005 1.324912284e-38
0.2853301161 0.03441375051 0.80200005 1.315693001e-38
0.2853301161 0.03288614051 0.80200005 1.315656988e-38
0.2853301161 0.03135851051 0.80200005 1.306329805e-38
0.2853301161 0.02983090051 0.80200005 1.306222325e-38
0.2853301161 0.02830329051 0.80200005 1.306437845e-38
0.2853301161 0.02677568051 0.80200005 1.31590754e-38
0.2856386761 0.02434137051 0.80400002 1.306759163e-38
0.2856386761 0.02280995051 0.80400002 1.306794476e-38
0.2856386761 0.02127853051 0.80400002 1.297431139e-38
0.2859472561 0.01882898051 0.80600005 1.297395406e-38
0.2862558361 0.01637184051 0.80800003 1.278956841e-38
0.2862558361 0.01483279051 0.80800003 1.269666232e-38
0.2862558361 0.01329377051 0.80800003 1.223785058e-38
0.2862558361 0.01175472051 0.80800003 1.187121064e-38
0.2862558361 0.01021567051 0.80800003 1.205415016e-38
0.2865644061 0.007735640512 0.81000006 1.223818969e-38
0.2865644061 0.006192770512 0.81000006 1.232967626e-38
0.2865644061 0.004649930512 0.81000006 1.232966646e-38
0.2862558361 0.004059490512 0.80800003 1.20523579e-38
0.2865644061 0.001564230512 0.81000006 1.168394532e-38
0.2865644061 2.137051182e-05 0.81000006 1.196017628e-38
0.2868729761 -0.002485279488 0.81200004 1.223675196e-38
0.2868729761 -0.004031959488 0.81200004 1.251189271e-38
0.2868729761 -0.005578639488 0.81200004 1.287710612e-38
0.2868729761 -0.007125289488 0.81200004 1.251194175e-38
0.2868729761 -0.008671939488 0.81200004 1.223570379e-38
0.2871815361 -0.01120146949 0.81400001 1.23278854e-38
0.2871815361 -0.01275193949 0.81400001 1.242007263e-38
0.2873358361 -0.01479765949 0.81500006 1.232787139e-38
0.2873358361 -0.01635005949 0.81500006 1.223569678e-38
0.2873358361 -0.01790243949 0.81500006 1.251122429e-38
0.2876443961 -0.02045669949 0.81700003 1.278563496e-38
0.2876443961 -0.02201288949 0.81700003 1.260338068e-38
0.2876443961 -0.02356907949 0.81700003 1.251082492e-38
0.2876443961 -0.02512529949 0.81700003 1.241755309e-38
0.2879529761 -0.02769863949 0.81900007 1.232428967e-38
0.2879529761 -0.02925863949 0.81900007 1.223317865e-38
0.2879529761 -0.03081863949 0.81900007 1.223425344e-38
0.2879529761 -0.03237864949 0.81900007 1.204950625e-38
0.2879529761 -0.03393864949 0.81900007 1.196053641e-38
0.2879529761 -0.03549864949 0.81900007 1.2143127e-38
0.2882615361 -0.03809863949 0.82100004 1.2325726e-38
0.2882615361 -0.03966241949 0.82100004 1.204950625e-38
0.2792043961 0.2396556705 0.75300002 6.435664984e-39
0.2792043961 0.2382213905 0.75300002 5.062078598e-39
0.2792043961 0.2367871105 0.75300002 6.621489772e-39
0.2792043961 0.2353528305 0.75300002 8.183054742e-39
0.2790482061 0.2341242405 0.75200003 8.642953892e-39
0.2792043961 0.2324842505 0.75300002 9.198994727e-39
0.2792043961 0.2310499705 0.75300002 9.755394296e-39
0.2790482061 0.2298271005 0.75200003 1.030569681e-38
0.2790482061 0.2283947105 0.75200003 1.067232974e-38
0.2790482061 0.2269623405 0.75200003 1.113293795e-38
0.2792043961 0.2253128105 0.75300002 1.12265629e-38
0.2792043961 0.2238785305 0.75300002 1.140987937e-38
0.2790482061 0.2226652005 0.75200003 1.168503133e-38
0.2790482061 0.2212328105 0.75200003 1.205488584e-38
0.2790482061 0.2198004205 0.75200003 1.242258936e-38
0.2790482061 0.2183680505 0.75200003 1.279101875e-38
0.2790482061 0.2169356605 0.75200003 1.306761405e-38
0.2787358261 0.2159642405 0.75000006 1.334310372e-38
0.2790482061 0.2140709105 0.75200003 1.343528254e-38
0.2790482061 0.2126385205 0.75200003 1.352748377e-38
0.2790482061 0.2112061505 0.75200003 1.325341922e-38
0.2792043961 0.2095356805 0.75300002 1.306507349e-38
0.2795167861 0.2076213805 0.75500005 1.250938579e-38
0.2799853561 0.2054575805 0.75800002 1.195657074e-38
0.2813910561 0.2018194805 0.76700002 1.13119202e-38
0.2813910561 0.2003585405 0.76700002 1.066908013e-38
0.2815472561 0.1986499505 0.76800001 1.131444954e-38
0.2815472561 0.1971871105 0.76800001 1.204949364e-38
0.2815472561 0.1957242505 0.76800001 1.2325719e-38
0.2815472561 0.1942614005 0.76800001 1.269521758e-38
0.2815472561 0.1927985405 0.76800001 1.269594065e-38
0.2815472561 0.1913356705 0.76800001 1.278742022e-38
0.2815472561 0.1898728305 0.76800001 1.260375203e-38
0.2815472561 0.1884099505 0.76800001 1.242116284e-38
0.2815472561 0.1869471005 0.76800001 1.260591423e-38
0.2815472561 0.1854842605 0.76800001 1.288104237e-38
0.2815472561 0.1840213805 0.76800001 1.260551626e-38
0.2815472561 0.1825585305 0.76800001 1.242113481e-38
0.2815472561 0.1810956705 0.76800001 1.232894619e-38
0.2813910561 0.1799052005 0.76700002 1.232895039e-38
0.2813910561 0.1784442305 0.76700002 1.232931473e-38
0.2813910561 0.1769832905 0.76700002 1.242221801e-38
0.2815472561 0.1752442505 0.76800001 1.24232858e-38
0.2815472561 0.1737813905 0.76800001 1.251225144e-38
0.2813910561 0.1726004305 0.76700002 1.26037268e-38
0.2815472561 0.1708556805 0.76800001 1.278526502e-38
0.2815472561 0.1693928105 0.76800001 1.297182549e-38
0.2815472561 0.1679299605 0.76800001 1.315225668e-38
0.2815472561 0.1664671105 0.76800001 1.306005264e-38
0.2815472561 0.1650042505 0.76800001 1.306005124e-38
0.2815472561 0.1635413905 0.76800001 1.296821434e-38
0.2815472561 0.1620785305 0.76800001 1.296857868e-38
0.2815472561 0.1606156805 0.76800001 1.278491329e-38
0.2818596361 0.1585547105 0.77000004 1.260087516e-38
0.2818596361 0.1570880505 0.77000004 1.241791182e-38
0.2818596361 0.1556213805 0.77000004 1.223351916e-38
