# .PCD v0.7 - Point Cloud Data file format
VERSION 0.7
FIELDS x y z rgb
SIZE 4 4 4 4
TYPE F F F F
COUNT 1 1 1 1
WIDTH 876
HEIGHT 1
VIEWPOINT 0 0 0 1 0 0 0
POINTS 876
DATA ascii
0.2785338704 -0.083925724 0.8928552987 1.076307503e-38
0.2785338704 -0.083925724 0.8913828987 1.094927396e-38
0.2785338704 -0.083925724 0.8899105087 1.113546169e-38
0.2785338704 -0.083925724 0.8884381387 1.141240871e-38
0.2805338504 -0.084142864 0.8863524287 1.169473252e-38
0.2805338504 -0.084142864 0.8848762487 1.160110476e-38
0.2805338504 -0.084142864 0.8834000587 1.14156317e-38
0.2805338504 -0.084142864 0.8819238587 1.094999003e-38
0.2825338204 -0.084360003 0.8798190987 1.058121031e-38
0.2825338204 -0.084360003 0.8783391187 1.012023636e-38
0.2845338504 -0.084577151 0.8762229187 9.658906489e-39
0.2855338404 -0.084685721 0.8744190987 9.383041268e-39
0.2855338404 -0.084685721 0.8729333787 9.107526372e-39
0.2875338704 -0.084902868 0.8708000387 8.833087672e-39
0.2875338704 -0.084902868 0.8693105187 8.649050941e-39
0.2895338504 -0.085120007 0.8671657687 8.281343218e-39
0.2895338504 -0.085120007 0.8656724287 8.000458546e-39
0.2445338304 -0.080234289 0.8790933987 8.184133742e-39
0.2445338304 -0.080234289 0.8776857787 8.368157861e-39
0.2445338304 -0.080234289 0.8762781387 8.091928303e-39
0.2425338604 -0.080017149 0.8755448087 7.819661617e-39
0.2425338604 -0.080017149 0.8741409987 9.012816812e-39
0.2425338604 -0.080017149 0.8727371887 1.02978019e-38
0.2425338604 -0.080017149 0.8713333787 1.066550962e-38
0.2425338604 -0.080017149 0.8699295787 1.103860394e-38
0.2425338604 -0.080017149 0.8685257687 1.204916574e-38
0.2425338604 -0.080017149 0.8671219587 1.315154902e-38
0.2425338604 -0.080017149 0.8657181487 1.324517818e-38
0.2425338604 -0.080017149 0.8643143087 1.325198849e-38
0.2425338604 -0.080017149 0.8629104987 1.31590726e-38
0.2445338304 -0.080234289 0.8607943287 1.30661623e-38
0.2425338604 -0.080017149 0.8601028887 1.315620694e-38
0.2445338304 -0.080234289 0.8579791087 1.33384374e-38
0.2455338204 -0.080342859 0.8562095687 1.343206095e-38
0.2455338204 -0.080342859 0.8548000687 1.352819143e-38
0.2475338504 -0.080560006 0.8526590987 1.334056457e-38
0.2475338504 -0.080560006 0.8512457487 1.315293631e-38
0.2485338404 -0.080668576 0.8494629187 1.269303015e-38
0.2485338404 -0.080668576 0.8480476687 1.232535466e-38
0.2485338404 -0.080668576 0.8466324387 1.195409184e-38
0.2485338404 -0.080668576 0.8452171887 1.158639813e-38
0.2505338704 -0.080885723 0.8430476687 1.204737768e-38
0.2525338504 -0.081102863 0.8408705187 1.250834602e-38
0.2525338504 -0.081102863 0.8394476687 1.342921071e-38
0.2535338404 -0.081211433 0.8376419487 1.425858882e-38
0.2555338704 -0.08142858 0.8354476587 1.417248324e-38
0.2575338404 -0.08164572 0.8332457787 1.40824414e-38
0.2585338304 -0.08175429 0.8314248287 1.417463563e-38
0.2605338604 -0.081971437 0.8292095587 1.426685648e-38
0.2605338604 -0.081971437 0.8277714787 1.463422509e-38
0.2615338504 -0.082080007 0.8259391087 1.49100721e-38
0.2615338504 -0.082080007 0.8244990887 1.426792287e-38
0.2615338504 -0.082080007 0.8230590787 1.371802813e-38
0.2615338504 -0.082080007 0.8216190887 1.390353483e-38
0.2805338504 -0.082666665 0.9055429187 9.753935544e-39
0.2825338204 -0.082879998 0.9034991087 9.383732108e-39
0.2825338204 -0.082879998 0.9020191087 9.107517964e-39
0.2825338204 -0.082879998 0.9005391087 8.832375813e-39
0.2825338204 -0.082879998 0.8990591087 9.108605371e-39
0.2805338504 -0.082666665 0.8981619587 9.477752228e-39
0.2805338504 -0.082666665 0.8966857687 9.661793163e-39
0.2805338504 -0.082666665 0.8952095687 9.9358409e-39
0.2805338504 -0.082666665 0.8937333787 1.002657638e-38
0.2785338704 -0.082453333 0.8928552987 1.011914475e-38
0.2785338704 -0.082453333 0.8913828987 9.755405506e-39
0.2785338704 -0.082453333 0.8899105087 9.480622088e-39
0.2805338504 -0.082666665 0.8878286287 1.021603053e-38
0.2805338504 -0.082666665 0.8863524287 1.09517949e-38
0.2805338504 -0.082666665 0.8848762487 1.086139854e-38
0.2805338504 -0.082666665 0.8834000587 1.076740364e-38
0.2805338504 -0.082666665 0.8819238587 1.039826099e-38
0.2805338504 -0.082666665 0.8804476587 1.012167269e-38
0.2825338204 -0.082879998 0.8783391187 9.752890175e-39
0.2845338504 -0.08309333 0.8762229187 9.383398599e-39
0.2855338404 -0.0832 0.8744190987 9.014264354e-39
0.2855338404 -0.0832 0.8729333787 8.740543119e-39
0.2875338704 -0.08341334 0.8708000387 8.649775413e-39
0.2875338704 -0.08341334 0.8693105187 8.557935713e-39
0.2585338304 -0.080320001 0.8773219487 8.558291642e-39
0.2535338404 -0.079786666 0.8775352887 8.553629522e-39
0.2445338304 -0.078826673 0.8790933987 8.553630924e-39
0.2445338304 -0.078826673 0.8776857787 8.552549121e-39
0.2445338304 -0.078826673 0.8762781387 8.184482665e-39
0.2455338204 -0.078933336 0.8745334087 7.819661617e-39
0.2445338304 -0.078826673 0.8734629087 8.094103118e-39
0.2445338304 -0.078826673 0.8720552887 8.368178881e-39
0.2425338604 -0.078613341 0.8713333787 8.73409014e-39
0.2425338604 -0.078613341 0.8699295787 9.197945155e-39
0.2425338604 -0.078613341 0.8685257687 1.113116811e-38
0.2425338604 -0.078613341 0.8671219587 1.305898906e-38
0.2425338604 -0.078613341 0.8657181487 1.305826599e-38
0.2425338604 -0.078613341 0.8643143087 1.305826599e-38
0.2425338604 -0.078613341 0.8629104987 1.287459499e-38
0.2445338304 -0.078826673 0.8607943287 1.26919988e-38
0.2445338304 -0.078826673 0.8593867087 1.278490909e-38
0.2455338204 -0.078933336 0.8576190987 1.296857868e-38
0.2475338504 -0.079146668 0.8554857587 1.306077151e-38
0.2475338504 -0.079146668 0.8540724187 1.32422845e-38
0.2475338504 -0.079146668 0.8526590987 1.305645411e-38
0.2485338404 -0.079253338 0.8508781387 1.287421524e-38
0.2485338404 -0.079253338 0.8494629187 1.250830538e-38
0.2485338404 -0.079253338 0.8480476687 1.223353738e-38
0.2505338704 -0.079466678 0.8458857487 1.278277771e-38
0.2505338704 -0.079466678 0.8444667087 1.342599473e-38
0.2525338504 -0.079680003 0.8422933787 1.380159737e-38
0.2525338504 -0.079680003 0.8408705187 1.426219296e-38
0.2535338404 -0.079786666 0.8390667087 1.44476408e-38
0.2535338404 -0.079786666 0.8376419487 1.472350182e-38
0.2555338704 -0.080000006 0.8354476587 1.454054269e-38
0.2585338304 -0.080320001 0.8328590887 1.435759336e-38
0.2605338604 -0.080533341 0.8306476687 1.435831643e-38
0.2615338504 -0.080640003 0.8288190887 1.435833045e-38
0.2615338504 -0.080640003 0.8273790987 1.481788067e-38
0.2635338304 -0.080853336 0.8251505387 1.53695943e-38
0.2635338304 -0.080853336 0.8237067387 1.436010589e-38
0.2615338504 -0.080640003 0.8230590787 1.344250203e-38
0.2615338504 -0.080640003 0.8216190887 1.381131397e-38
0.2845338504 -0.081609525 0.9044152887 9.843977378e-39
0.2845338504 -0.081609525 0.9029314787 9.475208872e-39
0.2845338504 -0.081609525 0.9014476787 8.924564436e-39
0.2825338204 -0.0814 0.9005391087 8.374277332e-39
0.2825338204 -0.0814 0.8990591087 8.92565885e-39
0.2825338204 -0.0814 0.8975790987 9.568884273e-39
0.2825338204 -0.0814 0.8960990987 9.843691513e-39
0.2805338504 -0.081190482 0.8952095687 1.021063833e-38
0.2805338504 -0.081190482 0.8937333787 1.002657217e-38
0.2805338504 -0.081190482 0.8922572087 9.750720965e-39
0.2805338504 -0.081190482 0.8907810087 9.476304687e-39
0.2805338504 -0.081190482 0.8893048087 9.110404639e-39
0.2805338504 -0.081190482 0.8878286287 9.662143488e-39
0.2805338504 -0.081190482 0.8863524287 1.021388094e-38
0.2785338704 -0.080980957 0.8854933787 1.012169371e-38
0.2785338704 -0.080980957 0.8840210087 1.012132798e-38
0.2785338704 -0.080980957 0.8825486087 9.937649977e-39
0.2785338704 -0.080980957 0.8810762287 9.846164805e-39
0.2785338704 -0.080980957 0.8796038587 9.478098349e-39
0.2805338504 -0.081190482 0.8774952987 9.200084938e-39
0.2585338304 -0.078885712 0.8830591087 8.924582653e-39
0.2585338304 -0.078885712 0.8816248287 8.649425088e-39
0.2605338604 -0.079095237 0.8795429087 8.649775413e-39
0.2585338304 -0.078885712 0.8787562487 8.558298649e-39
0.2585338304 -0.078885712 0.8773219487 8.648699215e-39
0.2575338404 -0.078780949 0.8762171987 8.739458514e-39
0.2555338704 -0.078571431 0.8754476487 8.738741049e-39
0.2555338704 -0.078571431 0.8740190787 8.738016578e-39
0.2535338404 -0.078361914 0.8732609987 8.462503083e-39
0.2525338504 -0.078257151 0.8721733887 8.187363735e-39
0.2475338504 -0.077733338 0.8724457887 8.368892142e-39
0.2455338204 -0.077523813 0.8717143487 8.549696078e-39
0.2445338304 -0.07741905 0.8706476587 8.824487904e-39
0.2445338304 -0.07741905 0.8692400687 9.191485169e-39
0.2445338304 -0.07741905 0.8678324487 1.002017244e-38
0.2445338304 -0.07741905 0.8664248187 1.094066859e-38
0.2445338304 -0.07741905 0.8650171987 1.103285161e-38
0.2445338304 -0.07741905 0.8636095787 1.112540877e-38
0.2445338304 -0.07741905 0.8622019487 1.167714342e-38
0.2445338304 -0.07741905 0.8607943287 1.222886966e-38
0.2455338204 -0.077523813 0.8590286287 1.259943603e-38
0.2475338504 -0.077733338 0.8568991087 1.296749828e-38
0.2475338504 -0.077733338 0.8554857587 1.315117207e-38
0.2475338504 -0.077733338 0.8540724187 1.333484026e-38
0.2485338404 -0.0778381 0.8522933987 1.333376126e-38
0.2485338404 -0.0778381 0.8508781387 1.342452477e-38
0.2505338704 -0.078047626 0.8487238487 1.315045881e-38
0.2525338504 -0.078257151 0.8465619587 1.296823957e-38
0.2525338504 -0.078257151 0.8451391087 1.333631723e-38
0.2525338504 -0.078257151 0.8437162287 1.379658212e-38
0.2525338504 -0.078257151 0.8422933787 1.398672151e-38
0.2535338404 -0.078361914 0.8404914987 1.426434956e-38
0.2535338404 -0.078361914 0.8390667087 1.43557955e-38
0.2555338704 -0.078571431 0.8368762387 1.453946649e-38
0.2575338404 -0.078780949 0.8346781387 1.43557969e-38
0.2605338604 -0.079095237 0.8320857487 1.426432854e-38
0.2615338504 -0.0792 0.8302590787 1.435725004e-38
0.2635338304 -0.079409525 0.8280381487 1.435832764e-38
0.2635338304 -0.079409525 0.8265943487 1.463419567e-38
0.2635338304 -0.079409525 0.8251505387 1.48217973e-38
0.2635338304 -0.079409525 0.8237067387 1.426897665e-38
0.2665338504 -0.079723813 0.8210686087 1.36261548e-38
0.2665338504 -0.079723813 0.8196190787 1.371801832e-38
0.2845338504 -0.080125719 0.9044152887 9.850440167e-39
0.2855338404 -0.080228575 0.9026476787 9.57243236e-39
0.2855338404 -0.080228575 0.9011619487 8.743411577e-39
0.2845338504 -0.080125719 0.8999638587 7.916896316e-39
0.2845338504 -0.080125719 0.8984800487 8.743419985e-39
0.2845338504 -0.080125719 0.8969962487 9.659991094e-39
0.2825338204 -0.079920001 0.8960990987 1.011881965e-38
0.2825338204 -0.079920001 0.8946190987 1.057905091e-38
0.2825338204 -0.079920001 0.8931391187 1.002370932e-38
0.2805338504 -0.079714291 0.8922572087 9.475933343e-39
0.2805338504 -0.079714291 0.8907810087 9.109318632e-39
0.2805338504 -0.079714291 0.8893048087 8.834526806e-39
0.2805338504 -0.079714291 0.8878286287 9.107879499e-39
0.2785338704 -0.07950858 0.8869657587 9.478102553e-39
0.2785338704 -0.07950858 0.8854933787 9.47775363e-39
0.2785338704 -0.07950858 0.8840210087 9.478109559e-39
0.2785338704 -0.07950858 0.8825486087 9.478464088e-39
0.2785338704 -0.07950858 0.8810762287 9.570298183e-39
0.2785338704 -0.07950858 0.8796038587 9.295147624e-39
0.2785338704 -0.07950858 0.8781314887 9.017130009e-39
0.2585338304 -0.07745143 0.8830591087 8.833101685e-39
0.2585338304 -0.07745143 0.8816248287 8.649782419e-39
0.2605338604 -0.077657148 0.8795429087 8.650134145e-39
0.2605338604 -0.077657148 0.8781047987 8.649778215e-39
0.2605338604 -0.077657148 0.8766666987 8.739105387e-39
0.2575338404 -0.077348575 0.8762171987 8.92348964e-39
0.2575338404 -0.077348575 0.8747848087 8.924561634e-39
0.2555338704 -0.077142864 0.8740190787 8.922760965e-39
0.2555338704 -0.077142864 0.8725905087 8.737648037e-39
0.2535338404 -0.076937146 0.8718362387 8.646181082e-39
0.2505338704 -0.076628581 0.8714285987 8.644039898e-39
0.2505338704 -0.076628581 0.8700095687 8.733360063e-39
0.2485338404 -0.076422863 0.8692762487 9.005633756e-39
0.2475338504 -0.07632 0.8682057787 9.282230455e-39
0.2455338204 -0.076114282 0.8674857587 9.006021916e-39
0.2455338204 -0.076114282 0.8660762487 8.828439565e-39
0.2455338204 -0.076114282 0.8646667187 9.007794559e-39
0.2455338204 -0.076114282 0.8632571887 9.288690441e-39
0.2455338204 -0.076114282 0.8618476887 1.048004917e-38
0.2455338204 -0.076114282 0.8604381587 1.176969498e-38
0.2475338504 -0.07632 0.8583124487 1.241398258e-38
0.2475338504 -0.07632 0.8568991087 1.306364978e-38
0.2485338404 -0.076422863 0.8551238387 1.325198709e-38
0.2485338404 -0.076422863 0.8537086187 1.343529655e-38
0.2485338404 -0.076422863 0.8522933987 1.371080023e-38
0.2505338704 -0.076628581 0.8501428887 1.407957995e-38
0.2525338504 -0.076834284 0.8479848087 1.389734669e-38
0.2525338504 -0.076834284 0.8465619587 1.371117438e-38
0.2525338504 -0.076834284 0.8451391087 1.389270279e-38
0.2525338504 -0.076834284 0.8437162287 1.417000574e-38
0.2525338504 -0.076834284 0.8422933787 1.417180361e-38
0.2525338504 -0.076834284 0.8408705187 1.426290342e-38
0.2535338404 -0.076937146 0.8390667087 1.426252647e-38
0.2555338704 -0.077142864 0.8368762387 1.435400183e-38
0.2575338404 -0.077348575 0.8346781387 1.426216634e-38
0.2635338304 -0.077965714 0.8309257587 1.426432854e-38
0.2635338304 -0.077965714 0.8294819487 1.435617385e-38
0.2635338304 -0.077965714 0.8280381487 1.445052187e-38
0.2655338604 -0.078171432 0.8258095587 1.435868778e-38
0.2655338604 -0.078171432 0.8243619387 1.43611919e-38
0.2655338604 -0.078171432 0.8229143287 1.408603713e-38
0.2665338504 -0.078274287 0.8210686087 1.390165989e-38
0.2665338504 -0.078274287 0.8196190787 1.362508981e-38
0.2875338704 -0.078944765 0.9020800387 9.756826423e-39
0.2875338704 -0.078944765 0.9005905187 9.110760568e-39
0.2855338404 -0.078742854 0.8996762387 8.466475764e-39
0.2855338404 -0.078742854 0.8981905387 8.833100284e-39
0.2855338404 -0.078742854 0.8967048187 9.200084938e-39
0.2845338504 -0.078641906 0.8955124387 9.567788457e-39
0.2845338504 -0.078641906 0.8940286087 9.845796264e-39
0.2845338504 -0.078641906 0.8925448087 9.477368273e-39
0.2825338204 -0.078439996 0.8916591187 9.01747613e-39
0.2805338504 -0.078238092 0.8907810087 8.558302853e-39
0.2805338504 -0.078238092 0.8893048087 8.007637398e-39
0.2785338704 -0.078036197 0.8884381387 8.558639164e-39
0.2785338704 -0.078036197 0.8869657587 9.110024887e-39
0.2775338204 -0.077935241 0.8858019587 9.1100389e-39
0.2775338204 -0.077935241 0.8843314887 9.202233128e-39
0.2775338204 -0.077935241 0.8828610087 9.1100389e-39
0.2755338504 -0.077733338 0.8820191087 9.110041702e-39
0.2755338504 -0.077733338 0.8805524287 8.466838701e-39
0.2605338604 -0.076219052 0.8838571987 7.91582152e-39
0.2585338304 -0.076017141 0.8830591087 8.097696047e-39
0.2585338304 -0.076017141 0.8816248287 8.280645371e-39
0.2585338304 -0.076017141 0.8801905187 8.465029624e-39
0.2605338604 -0.076219052 0.8781047987 8.649782419e-39
0.2585338304 -0.076017141 0.8773219487 8.833817749e-39
0.2585338304 -0.076017141 0.8758876887 8.926002168e-39
0.2585338304 -0.076017141 0.8744533887 9.01675306e-39
0.2575338404 -0.075916193 0.8733524287 9.107505352e-39
0.2555338704 -0.07571429 0.8725905087 8.923828755e-39
0.2535338404 -0.075512379 0.8718362387 8.740168973e-39
0.2535338404 -0.075512379 0.8704115087 9.013175545e-39
0.2535338404 -0.075512379 0.8689867487 9.376560262e-39
0.2525338504 -0.075411431 0.8679048087 9.559502579e-39
0.2485338404 -0.075007625 0.8678610287 9.742830254e-39
0.2485338404 -0.075007625 0.8664457387 1.020417554e-38
0.2485338404 -0.075007625 0.8650305187 1.075733111e-38
0.2475338504 -0.074906677 0.8639657387 1.103318652e-38
0.2475338504 -0.074906677 0.8625524287 1.140125718e-38
0.2475338504 -0.074906677 0.8611390787 1.186116473e-38
0.2475338504 -0.074906677 0.8597257687 1.241290639e-38
0.2475338504 -0.074906677 0.8583124487 1.306222325e-38
0.2485338404 -0.075007625 0.8565390887 1.371117298e-38
0.2485338404 -0.075007625 0.8551238387 1.371081705e-38
0.2485338404 -0.075007625 0.8537086187 1.371081425e-38
0.2505338704 -0.075209528 0.8515619587 1.407815483e-38
0.2505338704 -0.075209528 0.8501428887 1.453840851e-38
0.2525338504 -0.075411431 0.8479848087 1.426326075e-38
0.2525338504 -0.075411431 0.8465619587 1.39881144e-38
0.2525338504 -0.075411431 0.8451391087 1.426290622e-38
0.2505338704 -0.075209528 0.8444667087 1.462988527e-38
0.2505338704 -0.075209528 0.8430476687 1.435437598e-38
0.2525338504 -0.075411431 0.8408705187 1.407922122e-38
0.2505338704 -0.075209528 0.8402095687 1.417069238e-38
0.2525338504 -0.075411431 0.8380248187 1.426252647e-38
0.2535338404 -0.075512379 0.8362171887 1.435507803e-38
0.2665338504 -0.076824762 0.8297657887 1.435652277e-38
0.2655338604 -0.076723814 0.8287047987 1.444944427e-38
0.2655338604 -0.076723814 0.8272572087 1.46345516e-38
0.2665338504 -0.076824762 0.8254171787 1.463419427e-38
0.2665338504 -0.076824762 0.8239676587 1.46356292e-38
0.2665338504 -0.076824762 0.8225181287 1.436048144e-38
0.2665338504 -0.076824762 0.8210686087 1.408568961e-38
0.2665338504 -0.076824762 0.8196190787 1.344212087e-38
0.2875338704 -0.077455238 0.9020800387 1.003413078e-38
0.2875338704 -0.077455238 0.9005905187 9.478106757e-39
0.2875338704 -0.077455238 0.8991009987 9.017855881e-39
0.2875338704 -0.077455238 0.8976114587 8.923869392e-39
0.2875338704 -0.077455238 0.8961219387 8.832388425e-39
0.2855338404 -0.077257141 0.8952191087 9.016774079e-39
0.2855338404 -0.077257141 0.8937333887 9.20007653e-39
0.2855338404 -0.077257141 0.8922476687 8.9242015e-39
0.2825338204 -0.076959997 0.8916591187 8.650142553e-39
0.2805338504 -0.076761909 0.8907810087 7.916190061e-39
0.2805338504 -0.076761909 0.8893048087 7.273326174e-39
0.2785338704 -0.076563813 0.8884381387 8.008353461e-39
0.2775338204 -0.076464765 0.8872724387 8.742682902e-39
0.2775338204 -0.076464765 0.8858019587 8.834165271e-39
0.2755338504 -0.076266669 0.8849524287 9.018556531e-39
0.2755338504 -0.076266669 0.8834857687 8.834888341e-39
0.2735338204 -0.076068573 0.8826476887 8.650502686e-39
0.2725338304 -0.075969525 0.8815010087 7.731791795e-39
0.2605338604 -0.074780956 0.8838571987 6.81343263e-39
0.2605338604 -0.074780956 0.8824190887 7.362647741e-39
0.2585338304 -0.07458286 0.8816248287 7.912936246e-39
0.2585338304 -0.07458286 0.8801905187 8.280272626e-39
0.2605338604 -0.074780956 0.8781047987 8.740890641e-39
0.2585338304 -0.07458286 0.8773219487 8.834168074e-39
0.2585338304 -0.07458286 0.8758876887 9.017474728e-39
0.2575338404 -0.074483812 0.8747848087 9.201140115e-39
0.2575338404 -0.074483812 0.8733524287 9.384089439e-39
0.2555338704 -0.074285723 0.8725905087 9.107859881e-39
0.2555338704 -0.074285723 0.8711619287 8.831647138e-39
0.2535338404 -0.07408762 0.8704115087 9.47414949e-39
0.2535338404 -0.07408762 0.8689867487 1.011914195e-38
0.2535338404 -0.07408762 0.8675619587 1.021312143e-38
0.2535338404 -0.07408762 0.8661371987 1.030819393e-38
0.2485338404 -0.07359238 0.8664457387 1.150565111e-38
0.2505338704 -0.073790476 0.8643333887 1.269914962e-38
0.2485338404 -0.07359238 0.8636152987 1.30664874e-38
0.2485338404 -0.07359238 0.8622000787 1.352567189e-38
0.2485338404 -0.07359238 0.8607848187 1.325053254e-38
0.2485338404 -0.07359238 0.8593695687 1.30672329e-38
0.2485338404 -0.07359238 0.8579543487 1.371045411e-38
0.2505338704 -0.073790476 0.8558190987 1.435222919e-38
0.2505338704 -0.073790476 0.8544000287 1.416784494e-38
0.2505338704 -0.073790476 0.8529809887 1.398525575e-38
0.2505338704 -0.073790476 0.8515619587 1.444551643e-38
0.2505338704 -0.073790476 0.8501428887 1.499723567e-38
0.2525338504 -0.073988572 0.8479848087 1.463095867e-38
0.2525338504 -0.073988572 0.8465619587 1.426326356e-38
0.2525338504 -0.073988572 0.8451391087 1.463061115e-38
0.2505338704 -0.073790476 0.8444667087 1.508834669e-38
0.2505338704 -0.073790476 0.8430476687 1.453625191e-38
0.2505338704 -0.073790476 0.8416285987 1.398415993e-38
0.2505338704 -0.073790476 0.8402095687 1.407491783e-38
0.2505338704 -0.073790476 0.8387905287 1.426145588e-38
0.2525338504 -0.073988572 0.8366019387 1.435615843e-38
0.2685338204 -0.07557334 0.8289924187 1.454091123e-38
0.2665338504 -0.075375244 0.8283162387 1.463454599e-38
0.2665338504 -0.075375244 0.8268667087 1.481750653e-38
0.2685338204 -0.07557334 0.8246324287 1.490863156e-38
0.2665338504 -0.075375244 0.8239676587 1.500118452e-38
0.2665338504 -0.075375244 0.8225181287 1.463491874e-38
0.2685338204 -0.07557334 0.8202724687 1.426685648e-38
0.2685338204 -0.07557334 0.8188191287 1.334240167e-38
0.2685338204 -0.07557334 0.8173657887 1.242769989e-38
0.2915338204 -0.076354288 0.9009448187 1.021995837e-38
0.2895338504 -0.076159999 0.9000190987 9.847606741e-39
0.2895338504 -0.076159999 0.8985257687 9.477399101e-39
0.2895338504 -0.076159999 0.8970324287 8.829892712e-39
0.2895338504 -0.076159999 0.8955390987 8.1855995e-39
0.2875338704 -0.075965717 0.8946324187 8.647995764e-39
0.2875338704 -0.075965717 0.8931428987 9.015686671e-39
0.2855338404 -0.075771436 0.8922476687 8.832366004e-39
0.2845338504 -0.075674295 0.8910609987 8.558316866e-39
0.2825338204 -0.075479999 0.8901791187 8.09987927e-39
0.2805338504 -0.075285718 0.8893048087 7.640682172e-39
0.2775338204 -0.074994288 0.8887429187 8.100198767e-39
0.2775338204 -0.074994288 0.8872724387 8.559730776e-39
0.2755338504 -0.0748 0.8864190987 8.834875729e-39
0.2735338204 -0.074605711 0.8855733987 9.110386422e-39
0.2735338204 -0.074605711 0.8841105287 8.926362302e-39
0.2705338604 -0.074314289 0.8835905287 8.742333979e-39
0.2685338204 -0.07412 0.8827657587 8.190965072e-39
0.2635338304 -0.073634289 0.8829029087 7.639947891e-39
0.2605338604 -0.07334286 0.8824190887 8.004774545e-39
0.2605338604 -0.07334286 0.8809810087 8.463942217e-39
0.2585338304 -0.073148571 0.8801905187 8.73979903e-39
0.2605338604 -0.07334286 0.8781047987 9.107506753e-39
0.2585338304 -0.073148571 0.8773219487 9.291903618e-39
0.2575338404 -0.07305143 0.8762171987 9.476648005e-39
0.2575338404 -0.07305143 0.8747848087 9.751435628e-39
0.2575338404 -0.07305143 0.8733524287 1.002944904e-38
0.2555338704 -0.072857149 0.8725905087 1.0120923e-38
0.2555338704 -0.072857149 0.8711619287 1.021241097e-38
0.2555338704 -0.072857149 0.8697333587 1.0673036e-38
0.2555338704 -0.072857149 0.8683048087 1.11336428e-38
0.2555338704 -0.072857149 0.8668762387 1.150349171e-38
0.2535338404 -0.07266286 0.8661371987 1.187370355e-38
0.2535338404 -0.07266286 0.8647124387 1.24243592e-38
0.2525338504 -0.072565712 0.8636362487 1.297501484e-38
0.2505338704 -0.072371431 0.8629143187 1.33419995e-38
0.2505338704 -0.072371431 0.8614952787 1.380117978e-38
0.2505338704 -0.072371431 0.8600762387 1.352496003e-38
0.2485338404 -0.072177142 0.8593695687 1.324911023e-38
0.2485338404 -0.072177142 0.8579543487 1.361539143e-38
0.2505338704 -0.072371431 0.8558190987 1.398202015e-38
0.2505338704 -0.072371431 0.8544000287 1.389090772e-38
0.2505338704 -0.072371431 0.8529809887 1.389199794e-38
0.2505338704 -0.072371431 0.8515619587 1.407711787e-38
0.2505338704 -0.072371431 0.8501428887 1.43543956e-38
0.2525338504 -0.072565712 0.8479848087 1.407886669e-38
0.2525338504 -0.072565712 0.8465619587 1.380731607e-38
0.2505338704 -0.072371431 0.8458857487 1.3707957e-38
0.2505338704 -0.072371431 0.8444667087 1.361252437e-38
0.2505338704 -0.072371431 0.8430476687 1.361251456e-38
0.2505338704 -0.072371431 0.8416285987 1.36128761e-38
0.2485338404 -0.072177142 0.8409714887 1.379583243e-38
0.2505338704 -0.072371431 0.8387905287 1.397878175e-38
0.2665338504 -0.073925719 0.8312153187 1.417321051e-38
0.2685338204 -0.07412 0.8289924187 1.44497946e-38
0.2685338204 -0.07412 0.8275391087 1.45416315e-38
0.2685338204 -0.07412 0.8260857687 1.472459623e-38
0.2685338204 -0.07412 0.8246324287 1.49997566e-38
0.2685338204 -0.07412 0.8231790887 1.527526309e-38
0.2685338204 -0.07412 0.8217257487 1.472389278e-38
0.2685338204 -0.07412 0.8202724687 1.42647125e-38
0.2705338604 -0.074314289 0.8180190887 1.352715727e-38
0.2735338204 -0.074605711 0.8153562487 1.279109582e-38
0.2735338204 -0.074605711 0.8138933987 1.354018794e-38
0.2915338204 -0.074857138 0.9009448187 1.049618232e-38
0.2915338204 -0.074857138 0.8994476887 1.021710813e-38
0.2895338504 -0.074666664 0.8985257687 9.93908911e-39
0.2875338704 -0.074476197 0.8976114587 8.736257949e-39
0.2875338704 -0.074476197 0.8961219387 7.635305389e-39
0.2895338504 -0.074666664 0.8940457587 8.279585989e-39
0.2895338504 -0.074666664 0.8925524387 8.924216914e-39
0.2875338704 -0.074476197 0.8916533787 8.740893444e-39
0.2845338504 -0.074190475 0.8910609987 8.55831126e-39
0.2825338204 -0.074000001 0.8901791187 8.28389218e-39
0.2805338504 -0.073809519 0.8893048087 8.100211378e-39
0.2775338204 -0.073523812 0.8887429187 8.283872561e-39
0.2755338504 -0.073333338 0.8878857587 8.466819082e-39
0.2735338204 -0.073142856 0.8870362587 8.833436596e-39
0.2725338304 -0.073047623 0.8858838587 9.200425453e-39
0.2705338604 -0.072857149 0.8850476687 9.016760066e-39
0.2685338204 -0.072666667 0.8842190987 8.83380794e-39
0.2665338504 -0.072476193 0.8833981487 8.649779616e-39
0.2615338504 -0.072000004 0.8835390987 8.465029624e-39
0.2605338604 -0.071904771 0.8824190887 8.739098381e-39
0.2605338604 -0.071904771 0.8809810087 9.014957996e-39
0.2585338304 -0.071714289 0.8801905187 9.291177746e-39
0.2605338604 -0.071904771 0.8781047987 9.566689839e-39
0.2605338604 -0.071904771 0.8766666987 9.750365036e-39
0.2575338404 -0.071619049 0.8762171987 9.934398964e-39
0.2575338404 -0.071619049 0.8747848087 1.030210248e-38
0.2555338704 -0.071428575 0.8740190787 1.076378689e-38
0.2555338704 -0.071428575 0.8725905087 1.122260143e-38
0.2555338704 -0.071428575 0.8711619287 1.168501591e-38
0.2555338704 -0.071428575 0.8697333587 1.187335883e-38
0.2555338704 -0.071428575 0.8683048087 1.214922826e-38
0.2555338704 -0.071428575 0.8668762387 1.27927998e-38
0.2535338404 -0.071238101 0.8661371987 1.343564267e-38
0.2535338404 -0.071238101 0.8647124387 1.334380157e-38
0.2535338404 -0.071238101 0.8632876787 1.325161154e-38
0.2525338504 -0.07114286 0.8622133687 1.371079323e-38
0.2525338504 -0.07114286 0.8607905087 1.416924624e-38
0.2525338504 -0.07114286 0.8593676887 1.379974345e-38
0.2525338504 -0.07114286 0.8579448087 1.352424817e-38
0.2525338504 -0.07114286 0.8565219587 1.352425798e-38
0.2525338504 -0.07114286 0.8550990787 1.361466415e-38
0.2525338504 -0.07114286 0.8536762487 1.371081144e-38
0.2525338504 -0.07114286 0.8522533987 1.379906943e-38
0.2525338504 -0.07114286 0.8508305187 1.370365642e-38
0.2505338704 -0.070952386 0.8501428887 1.370723253e-38
0.2525338504 -0.07114286 0.8479848087 1.352713765e-38
0.2525338504 -0.07114286 0.8465619587 1.343171623e-38
0.2505338704 -0.070952386 0.8458857487 1.278528324e-38
0.2485338404 -0.070761904 0.8452171887 1.223498352e-38
0.2485338404 -0.070761904 0.8438019387 1.269236314e-38
0.2485338404 -0.070761904 0.8423867187 1.324338172e-38
0.2485338404 -0.070761904 0.8409714887 1.351889381e-38
0.2505338704 -0.070952386 0.8387905287 1.379870929e-38
0.2685338204 -0.072666667 0.8304457587 1.40821135e-38
0.2685338204 -0.072666667 0.8289924187 1.435797171e-38
0.2685338204 -0.072666667 0.8275391087 1.445016034e-38
0.2685338204 -0.072666667 0.8260857687 1.463420127e-38
0.2685338204 -0.072666667 0.8246324287 1.50937501e-38
0.2685338204 -0.072666667 0.8231790887 1.555077098e-38
0.2705338604 -0.072857149 0.8209333687 1.490863577e-38
0.2705338604 -0.072857149 0.8194762387 1.435689972e-38
0.2725338304 -0.073047623 0.8172190987 1.380372874e-38
0.2725338304 -0.073047623 0.8157581587 1.325170403e-38
0.2755338504 -0.073333338 0.8130857587 1.354054808e-38
0.2755338504 -0.073333338 0.8116190987 1.382502708e-38
0.2915338204 -0.073359996 0.8994476887 1.049477542e-38
0.2915338204 -0.073359996 0.8979505387 1.049297335e-38
0.2915338204 -0.073359996 0.8964533987 9.845094213e-39
0.2875338704 -0.072986677 0.8961219387 9.197586423e-39
0.2895338504 -0.073173337 0.8940457587 9.199026957e-39
0.2875338704 -0.072986677 0.8931428987 9.29228337e-39
0.2875338704 -0.072986677 0.8916533787 9.017123002e-39
0.2845338504 -0.07270667 0.8910609987 8.833812144e-39
0.2825338204 -0.072520003 0.8901791187 8.559741986e-39
0.2775338204 -0.072053328 0.8902133887 8.375712262e-39
0.2755338504 -0.071866669 0.8893524287 8.191682537e-39
0.2755338504 -0.071866669 0.8878857587 8.099118365e-39
0.2735338204 -0.071680002 0.8870362587 8.557925903e-39
0.2725338304 -0.071586668 0.8858838587 8.924556028e-39
0.2705338604 -0.071400002 0.8850476687 8.833445004e-39
0.2685338204 -0.071213335 0.8842190987 8.834522602e-39
0.2665338504 -0.071026668 0.8833981487 8.741253578e-39
0.2615338504 -0.070560001 0.8835390987 8.647621617e-39
0.2605338604 -0.070466675 0.8824190887 8.830573743e-39
0.2605338604 -0.070466675 0.8809810087 9.104645302e-39
0.2585338304 -0.070280001 0.8801905187 9.290827421e-39
0.2605338604 -0.070466675 0.8781047987 9.566694043e-39
0.2585338304 -0.070280001 0.8773219487 9.842203334e-39
0.2575338404 -0.070186675 0.8762171987 1.020991246e-38
0.2575338404 -0.070186675 0.8747848087 1.067017595e-38
0.2555338704 -0.070000008 0.8740190787 1.113078275e-38
0.2555338704 -0.070000008 0.8725905087 1.140951363e-38
0.2555338704 -0.070000008 0.8711619287 1.178008841e-38
0.2555338704 -0.070000008 0.8697333587 1.196340487e-38
0.2555338704 -0.070000008 0.8683048087 1.214708988e-38
0.2555338704 -0.070000008 0.8668762387 1.251624094e-38
0.2535338404 -0.069813333 0.8661371987 1.279245368e-38
0.2535338404 -0.069813333 0.8647124387 1.279244247e-38
0.2535338404 -0.069813333 0.8632876787 1.270061398e-38
0.2535338404 -0.069813333 0.8618629187 1.288429198e-38
0.2535338404 -0.069813333 0.8604381587 1.297610786e-38
0.2525338504 -0.06972 0.8593676887 1.25140423e-38
0.2525338504 -0.06972 0.8579448087 1.20534355e-38
0.2525338504 -0.06972 0.8565219587 1.186977011e-38
0.2525338504 -0.06972 0.8550990787 1.168610612e-38
0.2525338504 -0.06972 0.8536762487 1.177400257e-38
0.2525338504 -0.06972 0.8522533987 1.186225635e-38
0.2525338504 -0.06972 0.8508305187 1.177078519e-38
0.2525338504 -0.06972 0.8494076687 1.177114392e-38
0.2535338404 -0.069813333 0.8476152987 1.177006772e-38
0.2535338404 -0.069813333 0.8461905387 1.176898592e-38
0.2525338504 -0.06972 0.8451391087 1.17743613e-38
0.2485338404 -0.069346666 0.8452171887 1.186763313e-38
0.2485338404 -0.069346666 0.8438019387 1.260267863e-38
0.2485338404 -0.069346666 0.8423867187 1.342956384e-38
0.2685338204 -0.071213335 0.8333524387 1.36161131e-38
0.2665338504 -0.071026668 0.8326648087 1.380266796e-38
0.2665338504 -0.071026668 0.8312153187 1.398958156e-38
0.2685338204 -0.071213335 0.8289924187 1.417431473e-38
0.2685338204 -0.071213335 0.8275391087 1.417430212e-38
0.2685338204 -0.071213335 0.8260857687 1.426650756e-38
0.2685338204 -0.071213335 0.8246324287 1.45413078e-38
0.2685338204 -0.071213335 0.8231790887 1.490792391e-38
0.2705338604 -0.071400002 0.8209333687 1.454093225e-38
0.2725338304 -0.071586668 0.8186800387 1.417393919e-38
0.2735338204 -0.071680002 0.8168191287 1.334418132e-38
0.2735338204 -0.071680002 0.8153562487 1.251880812e-38
0.2735338204 -0.071680002 0.8138933987 1.307886087e-38
0.2735338204 -0.071680002 0.8124305487 1.354628779e-38
0.2915338204 -0.071862854 0.8994476887 1.086678092e-38
0.2915338204 -0.071862854 0.8979505387 1.114372935e-38
0.2915338204 -0.071862854 0.8964533987 1.096150169e-38
0.2875338704 -0.07149715 0.8961219387 1.0866432e-38
0.2895338504 -0.071680009 0.8940457587 1.022070806e-38
0.2895338504 -0.071680009 0.8925524387 9.663939953e-39
0.2875338704 -0.07149715 0.8916533787 9.382679733e-39
0.2845338504 -0.071222864 0.8910609987 9.200805205e-39
0.2825338204 -0.071040004 0.8901791187 8.927453914e-39
0.2775338204 -0.070582859 0.8902133887 8.651590094e-39
0.2755338504 -0.070400007 0.8893524287 8.191337817e-39
0.2735338204 -0.07021714 0.8884990987 7.823628693e-39
0.2725338304 -0.070125714 0.8873448187 8.282797766e-39
0.2725338304 -0.070125714 0.8858838587 8.742688507e-39
0.2705338604 -0.069942862 0.8850476687 8.743403169e-39
0.2665338504 -0.069577143 0.8848476787 8.835238666e-39
0.2655338604 -0.069485717 0.8837143287 8.833086271e-39
0.2615338504 -0.069120005 0.8835390987 8.83237301e-39
0.2605338604 -0.069028571 0.8824190887 9.013895812e-39
0.2585338304 -0.068845719 0.8816248287 9.28975823e-39
0.2585338304 -0.068845719 0.8801905187 9.38230979e-39
0.2605338604 -0.069028571 0.8781047987 9.567774444e-39
0.2585338304 -0.068845719 0.8773219487 1.002838685e-38
0.2575338404 -0.068754286 0.8762171987 1.058083897e-38
0.2575338404 -0.068754286 0.8747848087 1.104360797e-38
0.2555338704 -0.068571433 0.8740190787 1.150422179e-38
0.2555338704 -0.068571433 0.8725905087 1.168933051e-38
0.2555338704 -0.068571433 0.8711619287 1.196304894e-38
0.2555338704 -0.068571433 0.8697333587 1.205489004e-38
0.2555338704 -0.068571433 0.8683048087 1.223893098e-38
0.2555338704 -0.068571433 0.8668762387 1.223965825e-38
0.2535338404 -0.068388566 0.8661371987 1.224216237e-38
0.2535338404 -0.068388566 0.8647124387 1.224502382e-38
0.2535338404 -0.068388566 0.8632876787 1.224179383e-38
0.2535338404 -0.068388566 0.8618629187 1.205525298e-38
0.2535338404 -0.068388566 0.8604381587 1.187157078e-38
0.2535338404 -0.068388566 0.8590133687 1.122871249e-38
0.2525338504 -0.068297148 0.8579448087 1.06719598e-38
0.2525338504 -0.068297148 0.8565219587 1.020740273e-38
0.2525338504 -0.068297148 0.8550990787 9.84078522e-39
0.2525338504 -0.068297148 0.8536762487 9.841869825e-39
0.2525338504 -0.068297148 0.8522533987 9.933706723e-39
0.2535338404 -0.068388566 0.8504648387 9.84223136e-39
0.2535338404 -0.068388566 0.8490400587 9.841159367e-39
0.2535338404 -0.068388566 0.8476152987 1.00241157e-38
0.2555338704 -0.068571433 0.8454476487 1.020957475e-38
0.2555338704 -0.068571433 0.8440190787 1.08556448e-38
0.2485338404 -0.067931429 0.8452171887 1.1502082e-38
0.2485338404 -0.067931429 0.8438019387 1.260590302e-38
0.2705338604 -0.069942862 0.8340476687 1.371044571e-38
0.2685338204 -0.069760002 0.8333524387 1.371332117e-38
0.2685338204 -0.069760002 0.8318990987 1.380516648e-38
0.2705338604 -0.069942862 0.8296762287 1.389701038e-38
0.2725338304 -0.070125714 0.8274457687 1.39891962e-38
0.2725338304 -0.070125714 0.8259848287 1.398990526e-38
0.2705338604 -0.069942862 0.8253047987 1.39891934e-38
0.2725338304 -0.070125714 0.8230629187 1.408031844e-38
0.2725338304 -0.070125714 0.8216019787 1.426434536e-38
0.2725338304 -0.070125714 0.8201410087 1.408138903e-38
0.2735338204 -0.07021714 0.8182819387 1.398918779e-38
0.2735338204 -0.07021714 0.8168191287 1.288464511e-38
0.2735338204 -0.07021714 0.8153562487 1.187344852e-38
0.2735338204 -0.07021714 0.8138933987 1.261753099e-38
0.2735338204 -0.07021714 0.8124305487 1.33669258e-38
0.2915338204 -0.070365719 0.8979505387 1.234585846e-38
0.2915338204 -0.070365719 0.8964533987 1.169980662e-38
0.2875338704 -0.070007622 0.8961219387 1.114554823e-38
0.2895338504 -0.070186675 0.8940457587 1.058913886e-38
0.2875338704 -0.070007622 0.8931428987 1.013066202e-38
0.2855338404 -0.06982857 0.8922476687 9.76115083e-39
0.2845338504 -0.069739051 0.8910609987 9.483854883e-39
0.2825338204 -0.069559999 0.8901791187 9.389513865e-39
0.2775338204 -0.069112383 0.8902133887 9.387005541e-39
0.2755338504 -0.068933338 0.8893524287 8.744877335e-39
0.2735338204 -0.068754286 0.8884990987 8.194574817e-39
0.2725338304 -0.068664759 0.8873448187 8.468999503e-39
0.2725338304 -0.068664759 0.8858838587 8.743415781e-39
0.2705338604 -0.068485714 0.8850476687 8.651567673e-39
0.2665338504 -0.068127625 0.8848476787 8.560448241e-39
0.2655338604 -0.068038099 0.8837143287 8.834519799e-39
0.2615338504 -0.067680001 0.8835390987 9.109318632e-39
0.2605338604 -0.067590483 0.8824190887 9.292281969e-39
0.2585338304 -0.06741143 0.8816248287 9.567425521e-39
0.2585338304 -0.06741143 0.8801905187 9.66033301e-39
0.2605338604 -0.067590483 0.8781047987 9.84543613e-39
0.2585338304 -0.06741143 0.8773219487 1.021241798e-38
0.2575338404 -0.067321904 0.8762171987 1.067410519e-38
0.2555338704 -0.067142867 0.8754476487 1.094997041e-38
0.2555338704 -0.067142867 0.8740190787 1.131803967e-38
0.2555338704 -0.067142867 0.8725905087 1.141060244e-38
0.2555338704 -0.067142867 0.8711619287 1.159535663e-38
0.2555338704 -0.067142867 0.8697333587 1.159356998e-38
0.2555338704 -0.067142867 0.8683048087 1.159214065e-38
0.2555338704 -0.067142867 0.8668762387 1.159178893e-38
0.2555338704 -0.067142867 0.8654476587 1.159178472e-38
0.2555338704 -0.067142867 0.8640190887 1.103969134e-38
0.2535338404 -0.066963814 0.8632876787 1.057942786e-38
0.2535338404 -0.066963814 0.8618629187 1.030463043e-38
0.2535338404 -0.066963814 0.8604381587 1.003019733e-38
0.2535338404 -0.066963814 0.8590133687 9.657114228e-39
0.2535338404 -0.066963814 0.8575886087 9.376222549e-39
0.2535338404 -0.066963814 0.8561638487 9.376577078e-39
0.2535338404 -0.066963814 0.8547390887 9.285108722e-39
0.2535338404 -0.066963814 0.8533143287 9.470223052e-39
0.2535338404 -0.066963814 0.8518895687 9.655684903e-39
0.2535338404 -0.066963814 0.8504648387 9.747877731e-39
0.2735338204 -0.068754286 0.8416876687 9.932273194e-39
0.2735338204 -0.068754286 0.8402248287 1.029998092e-38
0.2735338204 -0.068754286 0.8387619787 1.067054449e-38
0.2725338304 -0.068664759 0.8376724387 1.122406159e-38
0.2725338304 -0.068664759 0.8362114987 1.177937935e-38
0.2725338304 -0.068664759 0.8347505587 1.251549965e-38
0.2725338304 -0.068664759 0.8332895587 1.334489178e-38
0.2725338304 -0.068664759 0.8318286187 1.343709021e-38
0.2725338304 -0.068664759 0.8303676787 1.352928864e-38
0.2725338304 -0.068664759 0.8289067087 1.362112834e-38
0.2725338304 -0.068664759 0.8274457687 1.371295964e-38
0.2725338304 -0.068664759 0.8259848287 1.371223797e-38
0.2725338304 -0.068664759 0.8245238587 1.380371613e-38
0.2735338204 -0.068754286 0.8226705087 1.38044364e-38
0.2735338204 -0.068754286 0.8212076987 1.380479653e-38
0.2735338204 -0.068754286 0.8197448187 1.371296384e-38
0.2755338504 -0.068933338 0.8174857687 1.362112554e-38
0.2755338504 -0.068933338 0.8160190787 1.288285144e-38
0.2755338504 -0.068933338 0.8145524487 1.214680401e-38
0.2775338204 -0.069112383 0.8122781487 1.261968479e-38
0.2775338204 -0.069112383 0.8108076687 1.309608843e-38
0.2915338204 -0.068868577 0.8979505387 1.363121629e-38
0.2915338204 -0.068868577 0.8964533987 1.253243294e-38
0.2895338504 -0.06869334 0.8955390987 1.141889672e-38
0.2875338704 -0.068518102 0.8946324187 1.095789615e-38
0.2875338704 -0.068518102 0.8931428987 1.05898353e-38
0.2855338404 -0.068342857 0.8922476687 1.022213318e-38
0.2825338204 -0.068080001 0.8916591187 9.855152733e-39
0.2805338504 -0.067904763 0.8907810087 9.947707096e-39
0.2775338204 -0.067641906 0.8902133887 1.01281495e-38
0.2735338204 -0.067291424 0.8899619687 9.298761573e-39
0.2735338204 -0.067291424 0.8884990987 8.561555266e-39
0.2725338304 -0.067203812 0.8873448187 8.65302082e-39
0.2705338604 -0.067028575 0.8865048087 8.835244271e-39
0.2685338204 -0.06685333 0.8856724387 8.559725171e-39
0.2665338504 -0.066678092 0.8848476787 8.284221485e-39
0.2655338604 -0.066590481 0.8837143287 8.835238666e-39
0.2615338504 -0.066239998 0.8835390987 9.385899917e-39
0.2605338604 -0.066152386 0.8824190887 9.569577915e-39
0.2605338604 -0.066152386 0.8809810087 9.844718665e-39
0.2585338304 -0.065977141 0.8801905187 1.002802532e-38
0.2605338604 -0.066152386 0.8781047987 1.021240957e-38
0.2605338604 -0.066152386 0.8766666987 1.048863072e-38
0.2575338404 -0.06588953 0.8762171987 1.076449875e-38
0.2575338404 -0.06588953 0.8747848087 1.094889141e-38
0.2575338404 -0.06588953 0.8733524287 1.113256801e-38
0.2575338404 -0.06588953 0.8719200387 1.122476784e-38
0.2555338704 -0.065714292 0.8711619287 1.131589007e-38
0.2555338704 -0.065714292 0.8697333587 1.113186455e-38
0.2555338704 -0.065714292 0.8683048087 1.103895706e-38
0.2555338704 -0.065714292 0.8668762387 1.10382424e-38
0.2555338704 -0.065714292 0.8654476587 1.103752213e-38
0.2555338704 -0.065714292 0.8640190887 9.935136047e-39
0.2555338704 -0.065714292 0.8625905187 8.924934379e-39
0.2555338704 -0.065714292 0.8611619387 8.557582585e-39
0.2535338404 -0.065539047 0.8604381587 8.18701341e-39
0.2535338404 -0.065539047 0.8590133687 8.183784819e-39
0.2535338404 -0.065539047 0.8575886087 8.182704418e-39
0.2535338404 -0.065539047 0.8561638487 8.457490639e-39
0.2825338204 -0.068080001 0.8442991287 8.824841031e-39
0.2825338204 -0.068080001 0.8428191187 9.10071466e-39
0.2805338504 -0.067904763 0.8420667287 9.379809874e-39
0.2805338504 -0.067904763 0.8405905287 9.745359597e-39
0.2775338204 -0.067641906 0.8402171987 1.011629591e-38
0.2755338504 -0.067466669 0.8394857587 1.066767463e-38
0.2735338204 -0.067291424 0.8387619787 1.122227073e-38
0.2725338304 -0.067203812 0.8376724387 1.168431526e-38
0.2725338304 -0.067203812 0.8362114987 1.214671993e-38
0.2725338304 -0.067203812 0.8347505587 1.251692898e-38
0.2725338304 -0.067203812 0.8332895587 1.297682953e-38
0.2725338304 -0.067203812 0.8318286187 1.316086486e-38
0.2725338304 -0.067203812 0.8303676787 1.334490019e-38
0.2725338304 -0.067203812 0.8289067087 1.334562326e-38
0.2725338304 -0.067203812 0.8274457687 1.343636994e-38
0.2725338304 -0.067203812 0.8259848287 1.352711803e-38
0.2725338304 -0.067203812 0.8245238587 1.3619678e-38
0.2735338204 -0.067291424 0.8226705087 1.352892711e-38
0.2735338204 -0.067291424 0.8212076987 1.343709021e-38
0.2755338504 -0.067466669 0.8189524387 1.334489598e-38
0.2755338504 -0.067466669 0.8174857687 1.334561765e-38
0.2755338504 -0.067466669 0.8160190787 1.288142212e-38
0.2775338204 -0.067641906 0.8137486487 1.251809486e-38
0.2775338204 -0.067641906 0.8122781487 1.271367408e-38
0.2775338204 -0.067641906 0.8108076687 1.290882872e-38
0.2915338204 -0.067371428 0.8964533987 1.160727187e-38
0.2915338204 -0.067371428 0.8949562487 1.077425038e-38
0.2895338504 -0.067200005 0.8940457587 1.040578736e-38
0.2875338704 -0.067028575 0.8931428987 1.003738319e-38
0.2845338504 -0.066771425 0.8925448087 9.854086345e-39
0.2825338204 -0.066600002 0.8916591187 9.670772684e-39
0.2805338504 -0.066428572 0.8907810087 9.578937188e-39
0.2775338204 -0.06617143 0.8902133887 9.579293118e-39
0.2755338504 -0.066 0.8893524287 8.839944226e-39
0.2735338204 -0.065828577 0.8884990987 8.194210479e-39
0.2725338304 -0.065742858 0.8873448187 8.561178317e-39
0.2705338604 -0.065571435 0.8865048087 8.927431493e-39
0.2685338204 -0.065399997 0.8856724387 8.835583385e-39
0.2665338504 -0.065228574 0.8848476787 8.653713061e-39
0.2655338604 -0.065142855 0.8837143287 9.112181485e-39
0.2655338604 -0.065142855 0.8822667187 9.571004437e-39
0.2615338504 -0.064800002 0.8820990887 9.937993295e-39
0.2605338604 -0.06471429 0.8809810087 1.030496674e-38
0.2605338604 -0.06471429 0.8795429087 1.048934679e-38
0.2605338604 -0.06471429 0.8781047987 1.067372964e-38
0.2605338604 -0.06471429 0.8766666987 1.0764126e-38
0.2585338304 -0.06454286 0.8758876887 1.085453357e-38
0.2575338404 -0.064457141 0.8747848087 1.094709494e-38
0.2575338404 -0.064457141 0.8733524287 1.094781381e-38
0.2575338404 -0.064457141 0.8719200387 1.122368043e-38
0.2575338404 -0.064457141 0.8704876787 1.159138255e-38
0.2555338704 -0.064285718 0.8697333587 1.113113167e-38
0.2555338704 -0.064285718 0.8683048087 1.076307223e-38
0.2555338704 -0.064285718 0.8668762387 1.094602715e-38
0.2555338704 -0.064285718 0.8654476587 1.112826182e-38
0.2555338704 -0.064285718 0.8640190887 9.933682901e-39
0.2555338704 -0.064285718 0.8625905187 8.739092775e-39
0.2555338704 -0.064285718 0.8611619387 8.462498879e-39
0.2555338704 -0.064285718 0.8597333687 8.277754492e-39
0.2935338604 -0.067542858 0.8448419487 8.36923546e-39
0.2895338504 -0.067200005 0.8447657787 8.46070802e-39
0.2845338504 -0.066771425 0.8450629087 8.364923665e-39
0.2825338204 -0.066600002 0.8442991287 8.272379111e-39
0.2825338204 -0.066600002 0.8428191187 8.734077528e-39
0.2805338504 -0.066428572 0.8420667287 9.287605836e-39
0.2805338504 -0.066428572 0.8405905287 9.656386954e-39
0.2775338204 -0.06617143 0.8402171987 1.011700637e-38
0.2775338204 -0.06617143 0.8387467187 1.057690832e-38
0.2755338504 -0.066 0.8380190987 1.113114989e-38
0.2735338204 -0.065828577 0.8372990987 1.159212244e-38
0.2735338204 -0.065828577 0.8358362587 1.205488164e-38
0.2725338304 -0.065742858 0.8347505587 1.242544801e-38
0.2735338204 -0.065828577 0.8329105287 1.2792797e-38
0.2725338304 -0.065742858 0.8318286187 1.29764764e-38
0.2725338304 -0.065742858 0.8303676787 1.325198849e-38
0.2725338304 -0.065742858 0.8289067087 1.325127803e-38
0.2725338304 -0.065742858 0.8274457687 1.334273518e-38
0.2735338204 -0.065828577 0.8255962687 1.352710402e-38
0.2735338204 -0.065828577 0.8241333887 1.380334058e-38
0.2735338204 -0.065828577 0.8226705087 1.352928304e-38
0.2735338204 -0.065828577 0.8212076987 1.334596798e-38
0.2755338504 -0.066 0.8189524387 1.316229418e-38
0.2755338504 -0.066 0.8174857687 1.2978633e-38
0.2755338504 -0.066 0.8160190787 1.261273715e-38
0.2775338204 -0.06617143 0.8137486487 1.215506186e-38
0.2785338704 -0.066257149 0.8118743187 1.234776983e-38
0.2785338704 -0.066257149 0.8104019387 1.26297349e-38
0.2915338204 -0.065874286 0.8964533987 1.077389866e-38
0.2895338504 -0.06570667 0.8955390987 1.012636704e-38
0.2875338704 -0.065539055 0.8946324187 9.846536149e-39
0.2875338704 -0.065539055 0.8931428987 9.573547794e-39
0.2845338504 -0.06528762 0.8925448087 9.576426061e-39
0.2825338204 -0.065119997 0.8916591187 9.577507863e-39
0.2805338504 -0.064952381 0.8907810087 9.303083177e-39
0.2775338204 -0.064700954 0.8902133887 9.025770415e-39
0.2755338504 -0.064533338 0.8893524287 8.38111707e-39
0.2735338204 -0.064365715 0.8884990987 7.827580354e-39
0.2725338304 -0.064281903 0.8873448187 8.469700152e-39
0.2705338604 -0.064114295 0.8865048087 9.111824154e-39
0.2685338204 -0.063946664 0.8856724387 9.111817147e-39
0.2665338504 -0.063779049 0.8848476787 9.11289895e-39
0.2665338504 -0.063779049 0.8833981487 9.480605272e-39
0.2655338604 -0.063695244 0.8822667187 9.847957066e-39
0.2635338304 -0.063527621 0.8814591087 1.030858069e-38
0.2615338504 -0.063359998 0.8806590987 1.076487149e-38
0.2605338604 -0.063276194 0.8795429087 1.094924454e-38
0.2615338504 -0.063359998 0.8777791087 1.11325596e-38
0.2615338504 -0.063359998 0.8763390887 1.103965071e-38
0.2605338604 -0.063276194 0.8752286187 1.103821578e-38
0.2585338304 -0.063108571 0.8744533887 1.094673901e-38
0.2585338304 -0.063108571 0.8730190887 1.085491052e-38
0.2575338404 -0.063024767 0.8719200387 1.131409641e-38
0.2555338704 -0.062857151 0.8711619287 1.186510378e-38
0.2535338404 -0.062689528 0.8704115087 1.113041421e-38
0.2535338404 -0.062689528 0.8689867487 1.04872042e-38
0.2555338704 -0.062857151 0.8668762387 1.085418605e-38
0.2555338704 -0.062857151 0.8654476587 1.122009171e-38
0.2555338704 -0.062857151 0.8640190887 9.931524901e-39
0.2555338704 -0.062857151 0.8625905187 8.645460815e-39
0.2915338204 -0.065874286 0.8485447987 8.461781414e-39
0.2915338204 -0.065874286 0.8470476787 8.371033326e-39
0.2915338204 -0.065874286 0.8455505287 8.555791726e-39
0.2895338504 -0.06570667 0.8447657787 8.73622712e-39
0.2845338504 -0.06528762 0.8450629087 8.180902348e-39
0.2825338204 -0.065119997 0.8442991287 7.722806669e-39
0.2825338204 -0.065119997 0.8428191187 8.459648638e-39
0.2805338504 -0.064952381 0.8420667287 9.196846537e-39
0.2805338504 -0.064952381 0.8405905287 9.657820482e-39
0.2775338204 -0.064700954 0.8402171987 1.011664484e-38
0.2775338204 -0.064700954 0.8387467187 1.057798032e-38
0.2755338504 -0.064533338 0.8380190987 1.113078836e-38
0.2755338504 -0.064533338 0.8365524287 1.159212103e-38
0.2735338204 -0.064365715 0.8358362587 1.205380824e-38
0.2735338204 -0.064365715 0.8343734087 1.233397685e-38
0.2735338204 -0.064365715 0.8329105287 1.270096711e-38
0.2735338204 -0.064365715 0.8314476787 1.288428637e-38
0.2735338204 -0.064365715 0.8299848387 1.315979567e-38
0.2735338204 -0.064365715 0.8285219587 1.316051733e-38
0.2735338204 -0.064365715 0.8270591087 1.325198569e-38
0.2735338204 -0.064365715 0.8255962687 1.361931927e-38
0.2735338204 -0.064365715 0.8241333887 1.398738572e-38
0.2755338504 -0.064533338 0.8218857587 1.362256187e-38
0.2755338504 -0.064533338 0.8204190987 1.334633932e-38
0.2755338504 -0.064533338 0.8189524387 1.298007493e-38
0.2755338504 -0.064533338 0.8174857687 1.270314753e-38
0.2755338504 -0.064533338 0.8160190787 1.224255053e-38
0.2775338204 -0.064700954 0.8137486487 1.188099031e-38
0.2775338204 -0.064700954 0.8122781487 1.207367025e-38
0.2775338204 -0.064700954 0.8108076687 1.235206201e-38
0.2935338604 -0.06454096 0.8973752887 1.086823267e-38
