# .PCD v0.7 - Point Cloud Data file format
VERSION 0.7
FIELDS x y z rgb
SIZE 4 4 4 4
TYPE F F F F
COUNT 1 1 1 1
WIDTH 904
HEIGHT 1
VIEWPOINT 0 0 0 1 0 0 0
POINTS 904
DATA ascii
0.344615811 -0.1070980157 0.80400002 9.753959366e-39
0.344775805 -0.1095666057 0.80600005 9.93871076e-39
0.344615811 -0.1101608657 0.80400002 1.012273628e-38
0.344615811 -0.1116922857 0.80400002 1.049079012e-38
0.344615811 -0.1132237357 0.80400002 1.094960747e-38
0.344615811 -0.1147551557 0.80400002 1.104108283e-38
0.344615811 -0.1162865857 0.80400002 1.113328547e-38
0.344615811 -0.1178180057 0.80400002 1.149955967e-38
0.34445581 -0.1183856457 0.80200005 1.195981895e-38
0.34445581 -0.1199132557 0.80200005 1.15939189e-38
0.344615811 -0.1224122957 0.80400002 1.131840821e-38
0.34445581 -0.1229685057 0.80200005 1.131876274e-38
0.34445581 -0.1244961357 0.80200005 1.131912147e-38
0.34445581 -0.1260237457 0.80200005 1.150350993e-38
0.34445581 -0.1275513857 0.80200005 1.177900941e-38
0.34445581 -0.1290789857 0.80200005 1.196303213e-38
0.344615811 -0.1316008957 0.80400002 1.214601368e-38
0.344615811 -0.1331323157 0.80400002 1.20563586e-38
0.344615811 -0.1346637357 0.80400002 1.205705365e-38
0.344615811 -0.1361951857 0.80400002 1.205774869e-38
0.344615811 -0.1377266157 0.80400002 1.205847456e-38
0.344615811 -0.1392580057 0.80400002 1.205920184e-38
0.344615811 -0.1407894257 0.80400002 1.205813125e-38
0.344775805 -0.1433418457 0.80600005 1.196594402e-38
0.344775805 -0.1448770857 0.80600005 1.196523917e-38
0.344775805 -0.1464123157 0.80600005 1.205744601e-38
0.344935806 -0.1489799057 0.80800003 1.214926329e-38
0.345095815 -0.1515551857 0.81000006 1.205633338e-38
0.345095815 -0.1530980557 0.81000006 1.205632497e-38
0.345095815 -0.1546408857 0.81000006 1.187264417e-38
0.347211996 -0.07892850568 0.81700003 8.479783896e-39
0.347375812 -0.08133802568 0.81900007 8.932484575e-39
0.347375812 -0.08289802568 0.81900007 9.477022152e-39
0.347375812 -0.08445802568 0.81900007 8.368163467e-39
0.347375812 -0.08601803568 0.81900007 7.351151488e-39
0.347375812 -0.08757803568 0.81900007 7.26110545e-39
0.347211996 -0.08826563568 0.81700003 7.266845169e-39
0.347211996 -0.08982182568 0.81700003 7.265410239e-39
0.347048188 -0.09049803568 0.81500006 7.264336844e-39
0.346966276 -0.09160849568 0.81400001 7.357610073e-39
0.346802475 -0.09227136568 0.81200004 7.542718797e-39
0.346802475 -0.09381804568 0.81200004 7.635274561e-39
0.346638666 -0.09446949568 0.81000006 7.726782153e-39
0.346638666 -0.09601232568 0.81000006 8.0037544e-39
0.346638666 -0.09755519568 0.81000006 8.279591595e-39
0.346474851 -0.09819135568 0.80800003 8.464669491e-39
0.346474851 -0.09973037568 0.80800003 8.64869361e-39
0.346474851 -0.1012694557 0.80800003 8.925989557e-39
0.346474851 -0.1028085157 0.80800003 9.109656345e-39
0.346311042 -0.1034256557 0.80600005 9.20184637e-39
0.346474851 -0.1058866157 0.80800003 9.294406337e-39
0.346311042 -0.1064961357 0.80600005 9.385532776e-39
0.346311042 -0.1080313657 0.80600005 9.478094145e-39
0.346474851 -0.1105037357 0.80800003 9.845444538e-39
0.346147241 -0.1101608657 0.80400002 1.012094542e-38
0.346311042 -0.1126370757 0.80600005 1.030497094e-38
0.346147241 -0.1132237357 0.80400002 1.058118929e-38
0.346147241 -0.1147551557 0.80400002 1.076593228e-38
0.346147241 -0.1162865857 0.80400002 1.094961448e-38
0.346147241 -0.1178180057 0.80400002 1.131625161e-38
0.346147241 -0.1193494557 0.80400002 1.159139796e-38
0.346147241 -0.1208808757 0.80400002 1.131696767e-38
0.346147241 -0.1224122957 0.80400002 1.113437428e-38
0.346147241 -0.1239437257 0.80400002 1.113401835e-38
0.346147241 -0.1254751757 0.80400002 1.122549371e-38
0.345983425 -0.1260237457 0.80200005 1.140988077e-38
0.346147241 -0.1285380157 0.80400002 1.150277845e-38
0.346147241 -0.1300694657 0.80400002 1.168643543e-38
0.346147241 -0.1316008957 0.80400002 1.177831577e-38
0.346147241 -0.1331323157 0.80400002 1.177836201e-38
0.346147241 -0.1346637357 0.80400002 1.187015547e-38
0.346147241 -0.1361951857 0.80400002 1.187334342e-38
0.346147241 -0.1377266157 0.80400002 1.196627193e-38
0.346147241 -0.1392580057 0.80400002 1.205776551e-38
0.346147241 -0.1407894257 0.80400002 1.205777251e-38
0.346311042 -0.1433418457 0.80600005 1.205742219e-38
0.346311042 -0.1448770857 0.80600005 1.205708868e-38
0.346311042 -0.1464123157 0.80600005 1.224114503e-38
0.346474851 -0.1489799057 0.80800003 1.251697942e-38
0.346638666 -0.1515551857 0.81000006 1.224144211e-38
0.346474851 -0.1520580457 0.80800003 1.20577585e-38
0.346474851 -0.1535970957 0.80800003 1.187335743e-38
0.348935815 -0.08133802568 0.81900007 1.014074717e-38
0.349103423 -0.08375517568 0.82100004 1.151288321e-38
0.349103423 -0.08531898568 0.82100004 9.762610983e-39
0.349103423 -0.08688277568 0.82100004 8.006224889e-39
0.348935815 -0.08757803568 0.81900007 7.535893072e-39
0.348935815 -0.08913803568 0.81900007 7.077074324e-39
0.348935815 -0.09069803568 0.81900007 7.169268553e-39
0.348768191 -0.09137800568 0.81700003 7.355810805e-39
0.348600568 -0.09205043568 0.81500006 7.265770373e-39
0.348516764 -0.09315896568 0.81400001 7.266849372e-39
0.348349141 -0.09381804568 0.81200004 7.176451608e-39
0.348349141 -0.09536469568 0.81200004 7.175395029e-39
0.348349141 -0.09691134568 0.81200004 7.544909027e-39
0.348349141 -0.09845802568 0.81200004 7.911874062e-39
0.348181525 -0.09909803568 0.81000006 8.006201067e-39
0.348181525 -0.1006408957 0.81000006 8.190589524e-39
0.348181525 -0.1021837357 0.81000006 8.559007706e-39
0.348013902 -0.1028085157 0.80800003 8.925988155e-39
0.348013902 -0.1043475657 0.80800003 8.924907754e-39
0.348013902 -0.1058866157 0.80800003 8.925272092e-39
0.347846286 -0.1064961357 0.80600005 9.109667556e-39
0.348013902 -0.1089646857 0.80800003 9.292986822e-39
0.348013902 -0.1105037357 0.80800003 9.752171309e-39
0.347846286 -0.1111018457 0.80600005 1.021134318e-38
0.347846286 -0.1126370757 0.80600005 1.021169771e-38
0.347678663 -0.1132237357 0.80400002 1.021384871e-38
0.347678663 -0.1147551557 0.80400002 1.049078872e-38
0.347678663 -0.1162865857 0.80400002 1.085779019e-38
0.347846286 -0.1187780257 0.80600005 1.10414794e-38
0.347678663 -0.1193494557 0.80400002 1.131626002e-38
0.347678663 -0.1208808757 0.80400002 1.113186455e-38
0.347678663 -0.1224122957 0.80400002 1.094926555e-38
0.347678663 -0.1239437257 0.80400002 1.104217445e-38
0.347678663 -0.1254751757 0.80400002 1.122584824e-38
0.347678663 -0.1270065957 0.80400002 1.122584964e-38
0.347678663 -0.1285380157 0.80400002 1.13183956e-38
0.347678663 -0.1300694657 0.80400002 1.141309254e-38
0.347678663 -0.1316008957 0.80400002 1.150352254e-38
0.347678663 -0.1331323157 0.80400002 1.15935952e-38
0.347678663 -0.1346637357 0.80400002 1.16868404e-38
0.347678663 -0.1361951857 0.80400002 1.17811632e-38
0.347678663 -0.1377266157 0.80400002 1.196448527e-38
0.347846286 -0.1402713757 0.80600005 1.205633198e-38
0.347846286 -0.1418066057 0.80600005 1.214853321e-38
0.347846286 -0.1433418457 0.80600005 1.214890035e-38
0.347846286 -0.1448770857 0.80600005 1.224110719e-38
0.347846286 -0.1464123157 0.80600005 1.251698503e-38
0.348013902 -0.1489799057 0.80800003 1.288358853e-38
0.348181525 -0.1515551857 0.81000006 1.24240327e-38
0.348013902 -0.1520580457 0.80800003 1.205703823e-38
0.348013902 -0.1535970957 0.80800003 1.196591039e-38
0.35066724 -0.08375517568 0.82100004 1.15244159e-38
0.35066724 -0.08531898568 0.82100004 1.097051905e-38
0.35066724 -0.08688277568 0.82100004 1.050841005e-38
0.35066724 -0.08844659568 0.82100004 9.48058145e-39
0.35049581 -0.08913803568 0.81900007 8.543931136e-39
0.35049581 -0.09069803568 0.81900007 7.443340111e-39
0.35049581 -0.09225804568 0.81900007 6.345618946e-39
0.350152956 -0.09205043568 0.81500006 6.714037128e-39
0.350152956 -0.09360281568 0.81500006 7.082816845e-39
0.350067237 -0.09470943568 0.81400001 6.807671892e-39
0.349895807 -0.09536469568 0.81200004 6.532532543e-39
0.350067237 -0.09781039568 0.81400001 6.900600401e-39
0.349895807 -0.09845802568 0.81200004 7.360485537e-39
0.349895807 -0.1000047057 0.81200004 7.635982216e-39
0.349724384 -0.1006408957 0.81000006 7.820016145e-39
0.349724384 -0.1021837357 0.81000006 8.097680633e-39
0.349724384 -0.1037266357 0.81000006 8.375336714e-39
0.349552946 -0.1043475657 0.80800003 8.558287438e-39
0.349724384 -0.1068123357 0.81000006 8.740527705e-39
0.349552946 -0.1074256357 0.80800003 8.923485436e-39
0.349552946 -0.1089646857 0.80800003 9.106444569e-39
0.349552946 -0.1105037357 0.80800003 9.474150891e-39
0.349381531 -0.1111018457 0.80600005 9.750370641e-39
0.349381531 -0.1126370757 0.80600005 9.844354327e-39
0.349381531 -0.1141723157 0.80600005 9.938343619e-39
0.349381531 -0.1157075557 0.80600005 1.021277671e-38
0.349381531 -0.1172427857 0.80600005 1.048758956e-38
0.349381531 -0.1187780257 0.80600005 1.067128577e-38
0.349381531 -0.1203132657 0.80600005 1.094677685e-38
0.349381531 -0.1218485257 0.80600005 1.094712017e-38
0.349381531 -0.1233837657 0.80600005 1.094747049e-38
0.349381531 -0.1249190057 0.80600005 1.085634405e-38
0.349381531 -0.1264542357 0.80600005 1.085742585e-38
0.349381531 -0.1279894757 0.80600005 1.094962569e-38
0.349210093 -0.1285380157 0.80400002 1.113437148e-38
0.349210093 -0.1300694657 0.80400002 1.113544627e-38
0.349210093 -0.1316008957 0.80400002 1.122873071e-38
0.349210093 -0.1331323157 0.80400002 1.132022149e-38
0.349381531 -0.1356656657 0.80600005 1.150352674e-38
0.349210093 -0.1361951857 0.80400002 1.159535523e-38
0.349381531 -0.1387361357 0.80600005 1.168719353e-38
0.349381531 -0.1402713757 0.80600005 1.177831577e-38
0.349381531 -0.1418066057 0.80600005 1.186980094e-38
0.349381531 -0.1433418457 0.80600005 1.196272104e-38
0.349552946 -0.1459018357 0.80800003 1.205599006e-38
0.349552946 -0.1474408857 0.80800003 1.223858346e-38
0.349552946 -0.1489799057 0.80800003 1.242116844e-38
0.349724384 -0.1515551857 0.81000006 1.224071623e-38
0.349552946 -0.1520580457 0.80800003 1.20556019e-38
0.349552946 -0.1535970957 0.80800003 1.214778772e-38
0.35223105 -0.08531898568 0.82100004 1.226342007e-38
0.352406288 -0.08774751568 0.82300001 1.299305096e-38
0.35223105 -0.08844659568 0.82100004 1.151719641e-38
0.35223105 -0.09001040568 0.82100004 1.012239857e-38
0.35223105 -0.09157419568 0.82100004 7.71741167e-39
0.352055812 -0.09225804568 0.81900007 5.421882999e-39
0.352055812 -0.09381804568 0.81900007 6.157284433e-39
0.351880567 -0.09449041568 0.81700003 6.985959095e-39
0.351705329 -0.09515515568 0.81500006 6.437101315e-39
0.351617711 -0.09625992568 0.81400001 5.887896013e-39
0.351705329 -0.09825993568 0.81500006 6.346728775e-39
0.351617711 -0.09936085568 0.81400001 6.897730541e-39
0.351617711 -0.1009113557 0.81400001 7.173585953e-39
0.351442473 -0.1015513557 0.81200004 7.54093074e-39
0.351442473 -0.1030980157 0.81200004 7.724964669e-39
0.351267235 -0.1037266357 0.81000006 7.912936246e-39
0.351267235 -0.1052694657 0.81000006 8.192025855e-39
0.351267235 -0.1068123357 0.81000006 8.556140649e-39
0.351267235 -0.1083551657 0.81000006 8.739096979e-39
0.351267235 -0.1098980357 0.81000006 9.014248939e-39
0.351267235 -0.1114408757 0.81000006 9.197565403e-39
0.351092005 -0.1120427857 0.80800003 9.382664318e-39
0.351092005 -0.1135818157 0.80800003 9.477005336e-39
0.350916767 -0.1141723157 0.80600005 9.661036462e-39
0.350916767 -0.1157075557 0.80600005 9.845427722e-39
0.350916767 -0.1172427857 0.80600005 1.01195175e-38
0.351092005 -0.1197380457 0.80800003 1.039396601e-38
0.350916767 -0.1203132657 0.80600005 1.066982422e-38
0.351092005 -0.1228161257 0.80800003 1.076237158e-38
0.351092005 -0.1243551757 0.80800003 1.094639429e-38
0.351092005 -0.1258942257 0.80800003 1.076307643e-38
0.351092005 -0.1274332457 0.80800003 1.05812019e-38
0.351092005 -0.1289722957 0.80800003 1.076559176e-38
0.350916767 -0.1295247157 0.80600005 1.094997882e-38
0.350916767 -0.1310599457 0.80600005 1.095069628e-38
0.350916767 -0.1325951857 0.80600005 1.095106903e-38
0.350916767 -0.1341304257 0.80600005 1.11354715e-38
0.350916767 -0.1356656657 0.80600005 1.131877395e-38
0.350741522 -0.1361951857 0.80400002 1.141060104e-38
0.350916767 -0.1387361357 0.80600005 1.15020834e-38
0.350916767 -0.1402713757 0.80600005 1.159392591e-38
0.350916767 -0.1418066057 0.80600005 1.168540687e-38
0.351092005 -0.1443627857 0.80800003 1.177724657e-38
0.351092005 -0.1459018357 0.80800003 1.186944361e-38
0.351092005 -0.1474408857 0.80800003 1.187016387e-38
0.351092005 -0.1489799057 0.80800003 1.196199096e-38
0.351267235 -0.1515551857 0.81000006 1.196593001e-38
0.351267235 -0.1530980557 0.81000006 1.205525158e-38
0.351267235 -0.1546408857 0.81000006 1.233039793e-38
0.353973897 -0.08774751568 0.82300001 1.299813487e-38
0.353973897 -0.08931515568 0.82300001 1.2534654e-38
0.35379486 -0.09001040568 0.82100004 1.207107924e-38
0.353973897 -0.09245041568 0.82300001 1.031319937e-38
0.35379486 -0.09313804568 0.82100004 8.463575077e-39
0.35379486 -0.09470186568 0.82100004 7.539839129e-39
0.353615815 -0.09537804568 0.81900007 6.616105984e-39
0.353436762 -0.09604660568 0.81700003 6.618261181e-39
0.353436762 -0.09760278568 0.81700003 6.62294432e-39
0.353436762 -0.09915897568 0.81700003 6.714083371e-39
0.353257718 -0.09981233568 0.81500006 6.805188791e-39
0.353436762 -0.1022713857 0.81700003 7.081760266e-39
0.353257718 -0.1029170857 0.81500006 7.358345754e-39
0.353168184 -0.1040122857 0.81400001 7.542378282e-39
0.352989139 -0.1046446957 0.81200004 7.726401e-39
0.352989139 -0.1061913757 0.81200004 7.910066387e-39
0.352989139 -0.1077380257 0.81200004 8.185572875e-39
0.352810094 -0.1083551657 0.81000006 8.368885135e-39
0.352810094 -0.1098980357 0.81000006 8.644394426e-39
0.352810094 -0.1114408757 0.81000006 8.829863285e-39
0.352631049 -0.1120427857 0.80800003 9.014959398e-39
0.352631049 -0.1135818157 0.80800003 9.200774377e-39
0.352631049 -0.1151208657 0.80800003 9.384805503e-39
0.352452004 -0.1157075557 0.80600005 9.568120565e-39
0.352631049 -0.1181989957 0.80800003 9.751802768e-39
0.352631049 -0.1197380457 0.80800003 9.935127639e-39
0.352631049 -0.1212770657 0.80800003 1.011880143e-38
0.352631049 -0.1228161257 0.80800003 1.021099847e-38
0.352631049 -0.1243551757 0.80800003 1.039538272e-38
0.352631049 -0.1258942257 0.80800003 1.030390315e-38
0.352631049 -0.1274332457 0.80800003 1.021314245e-38
0.352810094 -0.1299551757 0.81000006 1.039645331e-38
0.352631049 -0.1305113457 0.80800003 1.048828741e-38
0.352452004 -0.1310599457 0.80600005 1.058048163e-38
0.352631049 -0.1335894557 0.80800003 1.067304861e-38
0.352452004 -0.1341304257 0.80600005 1.076561558e-38
0.352631049 -0.1366675557 0.80800003 1.095035156e-38
0.352452004 -0.1372008957 0.80600005 1.104325204e-38
0.352631049 -0.1397456557 0.80800003 1.113509595e-38
0.352631049 -0.1412846757 0.80800003 1.131805928e-38
0.352631049 -0.1428237357 0.80800003 1.150137154e-38
0.352631049 -0.1443627857 0.80800003 1.159284831e-38
0.352810094 -0.1469266157 0.81000006 1.168433208e-38
0.352631049 -0.1474408857 0.80800003 1.168649148e-38
0.352810094 -0.1500123157 0.81000006 1.177832137e-38
0.352810094 -0.1515551857 0.81000006 1.18705114e-38
0.352810094 -0.1530980557 0.81000006 1.187123166e-38
0.352810094 -0.1546408857 0.81000006 1.205454813e-38
0.355541522 -0.08774751568 0.82300001 1.30892487e-38
0.355541522 -0.08931515568 0.82300001 1.354842478e-38
0.355358662 -0.09001040568 0.82100004 1.409652726e-38
0.355358662 -0.09157419568 0.82100004 1.280791981e-38
0.355358662 -0.09313804568 0.82100004 1.160075303e-38
0.355358662 -0.09470186568 0.82100004 8.924577048e-39
0.355358662 -0.09626564568 0.82100004 6.25595266e-39
0.35517581 -0.09693801568 0.81900007 6.797624582e-39
0.35517581 -0.09849802568 0.81900007 7.354748621e-39
0.35517581 -0.1000580257 0.81900007 7.08140854e-39
0.35517581 -0.1016180257 0.81900007 6.805892243e-39
0.35517581 -0.1031780257 0.81900007 6.992424686e-39
0.354992958 -0.1038275457 0.81700003 7.175748157e-39
0.354992958 -0.1053837257 0.81700003 7.359071627e-39
0.354718657 -0.1055627557 0.81400001 7.633850842e-39
0.354535805 -0.1061913757 0.81200004 7.724960465e-39
0.354535805 -0.1077380257 0.81200004 7.816791757e-39
0.354535805 -0.1092846757 0.81200004 8.000459947e-39
0.354535805 -0.1108313557 0.81200004 8.277402766e-39
0.35435296 -0.1114408757 0.81000006 8.462152759e-39
0.35435296 -0.1129837657 0.81000006 8.646176878e-39
0.35435296 -0.1145266357 0.81000006 8.924906353e-39
0.354535805 -0.1170180157 0.81200004 9.199699581e-39
0.35435296 -0.1176123357 0.81000006 9.291180548e-39
0.35435296 -0.1191551757 0.81000006 9.475574611e-39
0.35435296 -0.1206980357 0.81000006 9.476656413e-39
0.35435296 -0.1222409057 0.81000006 9.569573712e-39
0.35435296 -0.1237837757 0.81000006 9.754326506e-39
0.35435296 -0.1253266057 0.81000006 9.936198231e-39
0.35435296 -0.1268694757 0.81000006 9.936911492e-39
0.35435296 -0.1284123157 0.81000006 9.937640167e-39
0.35435296 -0.1299551757 0.81000006 1.003020434e-38
0.35435296 -0.1314980157 0.81000006 1.01216755e-38
0.35435296 -0.1330409157 0.81000006 1.021314806e-38
0.35435296 -0.1345837457 0.81000006 1.03971932e-38
0.354170093 -0.1351285057 0.80800003 1.048940424e-38
0.354170093 -0.1366675557 0.80800003 1.058265645e-38
0.354170093 -0.1382066057 0.80800003 1.067626739e-38
0.354170093 -0.1397456557 0.80800003 1.085922652e-38
0.354170093 -0.1412846757 0.80800003 1.104182692e-38
0.35435296 -0.1438409157 0.81000006 1.131697748e-38
0.35435296 -0.1453837557 0.81000006 1.140881438e-38
0.35435296 -0.1469266157 0.81000006 1.150065548e-38
0.35435296 -0.1484694557 0.81000006 1.159464898e-38
0.35435296 -0.1500123157 0.81000006 1.168648167e-38
0.35435296 -0.1515551857 0.81000006 1.168719773e-38
0.354535805 -0.1541380357 0.81200004 1.177903463e-38
0.354535805 -0.1556846857 0.81200004 1.18705128e-38
0.356922472 -0.09157419568 0.82100004 1.299814468e-38
0.356922472 -0.09313804568 0.82100004 1.253997893e-38
0.356922472 -0.09470186568 0.82100004 1.114623907e-38
0.356922472 -0.09626564568 0.82100004 9.661054679e-39
0.356922472 -0.09782946568 0.82100004 8.093363233e-39
0.356735812 -0.09849802568 0.81900007 6.52570822e-39
0.356922472 -0.1009570757 0.82100004 6.436749589e-39
0.356735812 -0.1016180257 0.81900007 6.439612442e-39
0.356735812 -0.1031780257 0.81900007 6.622201632e-39
0.356735812 -0.1047380357 0.81900007 6.713339282e-39
0.356735812 -0.1062980357 0.81900007 7.080700884e-39
0.356549138 -0.1069399157 0.81700003 7.44838899e-39
0.356549138 -0.1084961057 0.81700003 7.541289473e-39
0.356549138 -0.1100523257 0.81700003 7.633117962e-39
0.356362471 -0.1106790057 0.81500006 7.633469688e-39
0.356362471 -0.1122313757 0.81500006 7.726740114e-39
0.356269138 -0.1133151757 0.81400001 7.910412508e-39
0.356082479 -0.1139246857 0.81200004 8.094082099e-39
0.356082479 -0.1154713657 0.81200004 8.370304651e-39
0.356082479 -0.1170180157 0.81200004 8.646892942e-39
0.356082479 -0.1185647057 0.81200004 8.830929673e-39
0.356082479 -0.1201113857 0.81200004 9.015316729e-39
0.356082479 -0.1216580357 0.81200004 9.108944486e-39
0.356082479 -0.1232046857 0.81200004 9.202940784e-39
0.356082479 -0.1247513657 0.81200004 9.385902719e-39
0.356082479 -0.1262980457 0.81200004 9.661043469e-39
0.355895812 -0.1268694757 0.81000006 9.661037864e-39
0.355895812 -0.1284123157 0.81000006 9.663931545e-39
0.355895812 -0.1299551757 0.81000006 9.754714666e-39
0.355895812 -0.1314980157 0.81000006 9.846540353e-39
0.355895812 -0.1330409157 0.81000006 9.938008709e-39
0.355895812 -0.1345837457 0.81000006 1.002950369e-38
0.355895812 -0.1361266157 0.81000006 1.02142691e-38
0.355895812 -0.1376694757 0.81000006 1.030679683e-38
0.355895812 -0.1392123157 0.81000006 1.039896724e-38
0.355895812 -0.1407551857 0.81000006 1.04915216e-38
0.355895812 -0.1422980457 0.81000006 1.085886639e-38
0.355895812 -0.1438409157 0.81000006 1.122370145e-38
0.355895812 -0.1453837557 0.81000006 1.122478185e-38
0.355895812 -0.1469266157 0.81000006 1.122550212e-38
0.356082479 -0.1494980257 0.81200004 1.131841802e-38
0.356082479 -0.1510447057 0.81200004 1.141097098e-38
0.356082479 -0.1525913857 0.81200004 1.131985435e-38
0.356082479 -0.1541380357 0.81200004 1.131985435e-38
0.356082479 -0.1556846857 0.81200004 1.150352534e-38
0.358486289 -0.09626564568 0.82100004 1.31698654e-38
0.358486289 -0.09782946568 0.82100004 9.392721438e-39
0.358295815 -0.09849802568 0.81900007 5.707093479e-39
0.358676763 -0.1018560857 0.82300001 5.87891369e-39
0.358486289 -0.1025208857 0.82100004 6.157287235e-39
0.358486289 -0.1040847057 0.82100004 6.251989788e-39
0.358486289 -0.1056484957 0.82100004 6.345631558e-39
0.358295815 -0.1062980357 0.81900007 6.804462918e-39
0.358295815 -0.1078580357 0.81900007 7.356186353e-39
0.358295815 -0.1094180357 0.81900007 7.357971608e-39
0.358295815 -0.1109780457 0.81900007 7.450165836e-39
0.358105334 -0.1116085157 0.81700003 7.358687671e-39
0.358105334 -0.1131646957 0.81700003 7.266854978e-39
0.358105334 -0.1147208857 0.81700003 7.450887505e-39
0.357914859 -0.1153361257 0.81500006 7.633836829e-39
0.357819619 -0.1164161357 0.81400001 7.912566303e-39
0.357819619 -0.1179665957 0.81400001 8.187716862e-39
0.357629145 -0.1185647057 0.81200004 8.371392058e-39
0.357629145 -0.1201113857 0.81200004 8.555063051e-39
0.357629145 -0.1216580357 0.81200004 8.649409674e-39
0.357629145 -0.1232046857 0.81200004 8.833086271e-39
0.357629145 -0.1247513657 0.81200004 9.108598365e-39
0.357629145 -0.1262980457 0.81200004 9.384459382e-39
0.357629145 -0.1278446957 0.81200004 9.385172643e-39
0.35743867 -0.1284123157 0.81000006 9.386264254e-39
0.35743867 -0.1299551757 0.81000006 9.479191362e-39
0.357629145 -0.1324847057 0.81200004 9.571382788e-39
0.35743867 -0.1330409157 0.81000006 9.663574214e-39
0.35743867 -0.1345837457 0.81000006 9.755415315e-39
0.35743867 -0.1361266157 0.81000006 9.939093314e-39
0.35743867 -0.1376694757 0.81000006 1.012275169e-38
0.35743867 -0.1392123157 0.81000006 1.012309782e-38
0.35743867 -0.1407551857 0.81000006 1.021565498e-38
0.35743867 -0.1422980457 0.81000006 1.067591286e-38
0.35743867 -0.1438409157 0.81000006 1.113114849e-38
0.35743867 -0.1453837557 0.81000006 1.104111226e-38
0.35743867 -0.1469266157 0.81000006 1.104111086e-38
0.357629145 -0.1494980257 0.81200004 1.113438129e-38
0.357629145 -0.1510447057 0.81200004 1.122657692e-38
0.357629145 -0.1525913857 0.81200004 1.104470099e-38
0.357629145 -0.1541380357 0.81200004 1.086066706e-38
0.357629145 -0.1556846857 0.81200004 1.113616934e-38
0.360244373 -0.1018560857 0.82300001 9.384441165e-39
0.360050092 -0.1025208857 0.82100004 8.360260143e-39
0.360050092 -0.1040847057 0.82100004 6.799774173e-39
0.360050092 -0.1056484957 0.82100004 5.24539226e-39
0.360050092 -0.1072123157 0.82100004 6.071201267e-39
0.359855818 -0.1078580357 0.81900007 6.896999064e-39
0.359855818 -0.1094180357 0.81900007 7.080667253e-39
0.359855818 -0.1109780457 0.81900007 7.172508355e-39
0.359855818 -0.1125380457 0.81900007 7.171796495e-39
0.359661521 -0.1131646957 0.81700003 7.171083234e-39
0.359661521 -0.1147208857 0.81700003 7.356912226e-39
0.35946724 -0.1153361257 0.81500006 7.541292275e-39
0.35946724 -0.1168884957 0.81500006 7.725313592e-39
0.35946724 -0.1184409057 0.81500006 8.001537546e-39
0.359370092 -0.1195170657 0.81400001 8.094449239e-39
0.359370092 -0.1210675257 0.81400001 8.278480365e-39
0.359175811 -0.1216580357 0.81200004 8.370317262e-39
0.359175811 -0.1232046857 0.81200004 8.553991057e-39
0.359175811 -0.1247513657 0.81200004 8.832011475e-39
0.359175811 -0.1262980457 0.81200004 9.107516562e-39
0.359175811 -0.1278446957 0.81200004 9.201144319e-39
0.359175811 -0.1293913457 0.81200004 9.292626688e-39
0.359175811 -0.1309380257 0.81200004 9.29335116e-39
0.359175811 -0.1324847057 0.81200004 9.294430159e-39
0.359175811 -0.1340313657 0.81200004 9.385911127e-39
0.359175811 -0.1355780157 0.81200004 9.477382286e-39
0.359175811 -0.1371246957 0.81200004 9.661406405e-39
0.359175811 -0.1386713757 0.81200004 9.753599232e-39
0.359175811 -0.1402180257 0.81200004 9.845793461e-39
0.359175811 -0.1417647057 0.81200004 1.003018892e-38
0.358981522 -0.1422980457 0.81000006 1.067196821e-38
0.358981522 -0.1438409157 0.81000006 1.131410342e-38
0.359175811 -0.1464046857 0.81200004 1.113151423e-38
0.359175811 -0.1479513657 0.81200004 1.085707973e-38
0.359175811 -0.1494980257 0.81200004 1.094926976e-38
0.359175811 -0.1510447057 0.81200004 1.113330088e-38
0.359175811 -0.1525913857 0.81200004 1.095250115e-38
0.359175811 -0.1541380357 0.81200004 1.086209218e-38
0.359175811 -0.1556846857 0.81200004 1.104432123e-38
0.361613901 -0.1025208857 0.82100004 1.057870619e-38
0.361613901 -0.1040847057 0.82100004 7.347920094e-39
0.361613901 -0.1056484957 0.82100004 4.13367913e-39
0.361415813 -0.1062980357 0.81900007 5.327541981e-39
0.361415813 -0.1078580357 0.81900007 6.526425685e-39
0.361415813 -0.1094180357 0.81900007 6.712249071e-39
0.361415813 -0.1109780457 0.81900007 6.988835961e-39
0.361415813 -0.1125380457 0.81900007 7.078881999e-39
0.361415813 -0.1140980457 0.81900007 7.171803501e-39
0.361217709 -0.1147208857 0.81700003 7.264366272e-39
0.361217709 -0.1162770757 0.81700003 7.449099448e-39
0.361217709 -0.1178332657 0.81700003 7.633832625e-39
0.361217709 -0.1193894757 0.81700003 7.817862349e-39
0.361019621 -0.1199932757 0.81500006 7.910772641e-39
0.361019621 -0.1215456757 0.81500006 8.002609539e-39
0.360920565 -0.1226180257 0.81400001 8.094446436e-39
0.360920565 -0.1241684957 0.81400001 8.279195027e-39
0.360920565 -0.1257189557 0.81400001 8.555780515e-39
0.360920565 -0.1272694557 0.81400001 8.830929673e-39
0.360722477 -0.1278446957 0.81200004 9.017471926e-39
0.360722477 -0.1293913457 0.81200004 9.200789791e-39
0.360722477 -0.1309380257 0.81200004 9.108601167e-39
0.360920565 -0.1334713457 0.81400001 9.109321435e-39
0.360722477 -0.1340313657 0.81200004 9.201877198e-39
0.360722477 -0.1355780157 0.81200004 9.293349758e-39
0.360722477 -0.1371246957 0.81200004 9.384822318e-39
0.360722477 -0.1386713757 0.81200004 9.47737668e-39
0.360722477 -0.1402180257 0.81200004 9.66176794e-39
0.360722477 -0.1417647057 0.81200004 9.845443136e-39
0.360722477 -0.1433113557 0.81200004 1.067196821e-38
0.360722477 -0.1448580357 0.81200004 1.158996584e-38
0.360722477 -0.1464046857 0.81200004 1.113078976e-38
0.360722477 -0.1479513657 0.81200004 1.076415543e-38
0.360722477 -0.1494980257 0.81200004 1.085669998e-38
0.360722477 -0.1510447057 0.81200004 1.104073391e-38
0.360722477 -0.1525913857 0.81200004 1.095213121e-38
0.360920565 -0.1551780157 0.81400001 1.095212561e-38
0.360920565 -0.1567284857 0.81400001 1.095248013e-38
0.363177711 -0.1025208857 0.82100004 1.290405449e-38
0.363177711 -0.1040847057 0.82100004 1.077345865e-38
0.363177711 -0.1056484957 0.82100004 8.734779579e-39
0.362975815 -0.1062980357 0.81900007 7.812475758e-39
0.362975815 -0.1078580357 0.81900007 6.982371771e-39
0.362975815 -0.1094180357 0.81900007 6.250919196e-39
0.362975815 -0.1109780457 0.81900007 5.611302117e-39
0.362975815 -0.1125380457 0.81900007 6.34599029e-39
0.362975815 -0.1140980457 0.81900007 7.080688273e-39
0.362975815 -0.1156580557 0.81900007 7.172539183e-39
0.362773905 -0.1162770757 0.81700003 7.265431258e-39
0.362773905 -0.1178332657 0.81700003 7.358323334e-39
0.362773905 -0.1193894757 0.81700003 7.358680665e-39
0.362773905 -0.1209456657 0.81700003 7.45051476e-39
0.362773905 -0.1225018257 0.81700003 7.542708988e-39
0.362572001 -0.1230980557 0.81500006 7.727457579e-39
0.362572001 -0.1246503957 0.81500006 7.912564902e-39
0.362572001 -0.1262027957 0.81500006 8.187356728e-39
0.362471046 -0.1272694557 0.81400001 8.370673192e-39
0.362471046 -0.1288199157 0.81400001 8.554348388e-39
0.362471046 -0.1303703857 0.81400001 8.646546821e-39
0.362471046 -0.1319208757 0.81400001 8.646909757e-39
0.362471046 -0.1334713457 0.81400001 8.647271292e-39
0.362471046 -0.1350218157 0.81400001 8.739827056e-39
0.362471046 -0.1365723057 0.81400001 8.92421271e-39
0.362471046 -0.1381227757 0.81400001 9.016045404e-39
0.362471046 -0.1396732357 0.81400001 9.200079332e-39
0.362471046 -0.1412237057 0.81400001 9.2915603e-39
0.362269143 -0.1417647057 0.81200004 9.383398599e-39
0.362269143 -0.1433113557 0.81200004 9.934774512e-39
0.362269143 -0.1448580357 0.81200004 1.057797892e-38
0.362471046 -0.1474256557 0.81400001 1.039610018e-38
0.362269143 -0.1479513657 0.81200004 1.030460801e-38
0.362471046 -0.1505265857 0.81400001 1.039678822e-38
0.362269143 -0.1510447057 0.81200004 1.058082495e-38
0.362269143 -0.1525913857 0.81200004 1.058154942e-38
0.362572001 -0.1556980357 0.81500006 1.067445831e-38
0.362572001 -0.1572504057 0.81500006 1.067481565e-38
0.364741528 -0.1056484957 0.82100004 1.335641746e-38
0.364741528 -0.1072123157 0.82100004 1.040510353e-38
0.36453581 -0.1078580357 0.81900007 7.454854581e-39
0.36453581 -0.1094180357 0.81900007 5.785999194e-39
0.36453581 -0.1109780457 0.81900007 4.22623209e-39
0.36453581 -0.1125380457 0.81900007 5.605200864e-39
0.36453581 -0.1140980457 0.81900007 7.077088337e-39
0.36453581 -0.1156580557 0.81900007 7.079607872e-39
0.364330092 -0.1162770757 0.81700003 7.172867087e-39
0.36453581 -0.1187780257 0.81900007 7.082815444e-39
0.36453581 -0.1203380257 0.81900007 6.990619814e-39
0.364330092 -0.1209456657 0.81700003 6.990619814e-39
0.364330092 -0.1225018257 0.81700003 7.08209938e-39
0.364330092 -0.1240580157 0.81700003 7.360835862e-39
0.364124382 -0.1246503957 0.81500006 7.635626287e-39
0.364124382 -0.1262027957 0.81500006 7.818582617e-39
0.364124382 -0.1277551757 0.81500006 8.002256412e-39
0.364124382 -0.1293075757 0.81500006 8.094454844e-39
0.364021519 -0.1303703857 0.81400001 8.18736934e-39
0.364021519 -0.1319208757 0.81400001 8.187012009e-39
0.364124382 -0.1339647257 0.81500006 8.278851709e-39
0.364124382 -0.1355170657 0.81500006 8.37104874e-39
0.364124382 -0.1370694657 0.81500006 8.55615186e-39
0.364124382 -0.1386218457 0.81500006 8.740896247e-39
0.364021519 -0.1396732357 0.81400001 9.016045404e-39
0.364021519 -0.1412237057 0.81400001 8.923853978e-39
0.363815809 -0.1417647057 0.81200004 8.923858182e-39
0.363815809 -0.1433113557 0.81200004 9.291205772e-39
0.363815809 -0.1448580357 0.81200004 9.659618348e-39
0.364021519 -0.1474256557 0.81400001 9.753602035e-39
0.363815809 -0.1479513657 0.81200004 9.845430525e-39
0.364124382 -0.1510409157 0.81500006 9.937259014e-39
0.363815809 -0.1510447057 0.81200004 1.012093141e-38
0.364124382 -0.1541456657 0.81500006 1.021456337e-38
0.364330092 -0.1567380457 0.81700003 1.039787703e-38
0.364330092 -0.1582942057 0.81700003 1.04893566e-38
0.366305331 -0.1072123157 0.82100004 1.26235748e-38
0.366095806 -0.1078580357 0.81900007 1.132561088e-38
0.366095806 -0.1094180357 0.81900007 9.843259913e-39
0.366095806 -0.1109780457 0.81900007 8.453171837e-39
0.366305331 -0.1134675457 0.82100004 7.258234189e-39
0.366305331 -0.1150313657 0.82100004 5.97182118e-39
0.366305331 -0.1165951557 0.82100004 6.157288637e-39
0.366095806 -0.1172180557 0.81900007 6.343109221e-39
0.366095806 -0.1187780257 0.81900007 6.43709571e-39
0.366095806 -0.1203380257 0.81900007 6.531442333e-39
0.366305331 -0.1228504257 0.82100004 6.53072627e-39
0.366095806 -0.1234580357 0.81900007 6.621847104e-39
0.366095806 -0.1250180357 0.81900007 6.8055223e-39
0.36588628 -0.1256142057 0.81700003 6.989553426e-39
0.36588628 -0.1271703857 0.81700003 7.265420048e-39
0.36588628 -0.1287266057 0.81700003 7.541646804e-39
0.36588628 -0.1302827957 0.81700003 7.542368473e-39
0.365676763 -0.1308599457 0.81500006 7.636715096e-39
0.365676763 -0.1324123157 0.81500006 7.820386088e-39
0.365676763 -0.1339647257 0.81500006 8.005854946e-39
0.36588628 -0.1365075457 0.81700003 8.187377748e-39
0.365676763 -0.1370694657 0.81500006 8.371762001e-39
0.365676763 -0.1386218457 0.81500006 8.555430191e-39
0.365676763 -0.1401742457 0.81500006 8.831295412e-39
0.365676763 -0.1417266157 0.81500006 8.739818648e-39
0.365676763 -0.1432789957 0.81500006 8.648706222e-39
0.365676763 -0.1448313657 0.81500006 8.924578449e-39
0.365572 -0.1458751657 0.81400001 9.200436664e-39
0.365676763 -0.1479361457 0.81500006 9.293700083e-39
0.365676763 -0.1494885157 0.81500006 9.386253044e-39
0.36588628 -0.1520694557 0.81700003 9.477729808e-39
0.365572 -0.1520770857 0.81400001 9.661397997e-39
0.36588628 -0.1551818657 0.81700003 9.845426321e-39
0.36588628 -0.1567380457 0.81700003 1.012165588e-38
0.36588628 -0.1582942057 0.81700003 1.021349698e-38
0.367869141 -0.1134675457 0.82100004 8.830590559e-39
0.367655808 -0.1140980457 0.81900007 4.966309658e-39
0.367869141 -0.1165951557 0.82100004 5.234984816e-39
0.367869141 -0.1181589757 0.82100004 5.515153424e-39
0.367869141 -0.1197228157 0.82100004 5.789224983e-39
0.367869141 -0.1212866057 0.82100004 6.161230489e-39
0.368082473 -0.1238027857 0.82300001 6.162308088e-39
0.367869141 -0.1244142457 0.82100004 6.163026954e-39
0.367655808 -0.1250180357 0.81900007 6.253071591e-39
0.367655808 -0.1265780357 0.81900007 6.345268622e-39
0.367655808 -0.1281380457 0.81900007 6.712973543e-39
0.367655808 -0.1296980457 0.81900007 7.08175326e-39
0.367655808 -0.1312580457 0.81900007 7.082114795e-39
0.367442476 -0.1318389857 0.81700003 7.176814545e-39
0.367442476 -0.1333951757 0.81700003 7.453751759e-39
0.367442476 -0.1349513557 0.81700003 7.728546388e-39
0.367655808 -0.1374980557 0.81900007 7.911865654e-39
0.367655808 -0.1390580557 0.81900007 8.186294544e-39
0.367655808 -0.1406180357 0.81900007 8.369248072e-39
0.367442476 -0.1411761057 0.81700003 8.646188088e-39
0.367655808 -0.1437380357 0.81900007 8.555786121e-39
0.367442476 -0.1442884857 0.81700003 8.464314962e-39
0.367442476 -0.1458447057 0.81700003 8.557589592e-39
0.367442476 -0.1474008957 0.81700003 8.74125638e-39
0.367442476 -0.1489570757 0.81700003 8.833805137e-39
0.367442476 -0.1505132657 0.81700003 8.926356697e-39
0.367442476 -0.1520694557 0.81700003 9.111461218e-39
0.367442476 -0.1536256457 0.81700003 9.293337147e-39
0.367442476 -0.1551818657 0.81700003 9.568483501e-39
0.367655808 -0.1577780557 0.81900007 9.844354327e-39
0.367655808 -0.1593380657 0.81900007 9.936554161e-39
0.369215811 -0.1140980457 0.81900007 1.03121554e-38
0.36943295 -0.1165951557 0.82100004 9.382288771e-39
0.36943295 -0.1181589757 0.82100004 8.544289868e-39
0.36965009 -0.1206675557 0.82300001 6.524626417e-39
0.36965009 -0.1222351557 0.82300001 4.505680432e-39
0.36965009 -0.1238027857 0.82300001 4.967011708e-39
0.36965009 -0.1253703857 0.82300001 5.520535812e-39
0.36943295 -0.1259780257 0.82100004 5.609861582e-39
0.36943295 -0.1275418457 0.82100004 5.797842969e-39
0.369215811 -0.1281380457 0.81900007 6.254516329e-39
0.36943295 -0.1306694557 0.82100004 6.80588944e-39
0.369215811 -0.1312580457 0.81900007 6.622578581e-39
0.368998663 -0.1318389857 0.81700003 6.533603135e-39
0.369215811 -0.1343780557 0.81900007 6.900219247e-39
0.369215811 -0.1359380557 0.81900007 7.359045002e-39
0.369215811 -0.1374980557 0.81900007 7.541648205e-39
0.36943295 -0.1400522957 0.82100004 7.724244402e-39
0.369215811 -0.1406180357 0.81900007 8.001188622e-39
0.36943295 -0.1431799257 0.82100004 8.185933009e-39
0.36943295 -0.1447437457 0.82100004 8.003695545e-39
0.369215811 -0.1452980357 0.81900007 7.821103553e-39
0.369215811 -0.1468580457 0.81900007 8.005137481e-39
0.369215811 -0.1484180457 0.81900007 8.281358632e-39
0.369215811 -0.1499780457 0.81900007 8.465386955e-39
0.369215811 -0.1515380457 0.81900007 8.741249374e-39
0.369215811 -0.1530980557 0.81900007 8.833083469e-39
0.368998663 -0.1536256457 0.81700003 9.017111792e-39
0.369215811 -0.1562180557 0.81900007 9.292977013e-39
0.369215811 -0.1577780557 0.81900007 9.660681934e-39
0.369215811 -0.1593380657 0.81900007 1.002731206e-38
0.370996768 -0.1181589757 0.82100004 1.159356297e-38
0.371438669 -0.1216123157 0.82500005 7.168199362e-39
0.371438669 -0.1231837657 0.82500005 2.850134578e-39
0.371438669 -0.1247551757 0.82500005 3.858885902e-39
0.371438669 -0.1263265957 0.82500005 4.871946219e-39
0.371217715 -0.1269379957 0.82300001 5.058488472e-39
0.371438669 -0.1294694557 0.82500005 5.244318865e-39
0.371438669 -0.1310409057 0.82500005 5.888250542e-39
0.371217715 -0.1316408857 0.82300001 6.530738881e-39
0.371217715 -0.1332084857 0.82300001 6.163396897e-39
0.370996768 -0.1337970857 0.82100004 5.889321134e-39
0.370996768 -0.1353608757 0.82100004 6.441406104e-39
0.370996768 -0.1369246857 0.82100004 7.082826654e-39
0.371217715 -0.1394789857 0.82300001 7.17359296e-39
0.371217715 -0.1410465857 0.82300001 7.357265353e-39
0.370775813 -0.1406180357 0.81900007 7.541296479e-39
0.370775813 -0.1421780357 0.81900007 7.817519031e-39
0.370996768 -0.1447437457 0.82100004 7.451969307e-39
0.370775813 -0.1452980357 0.81900007 7.176822953e-39
0.370996768 -0.1478713857 0.82100004 7.544525071e-39
0.370775813 -0.1484180457 0.81900007 7.912227189e-39
0.370775813 -0.1499780457 0.81900007 8.188095213e-39
0.370996768 -0.1525628057 0.82100004 8.556149057e-39
0.370996768 -0.1541266157 0.82100004 8.648696413e-39
0.370775813 -0.1546580557 0.81900007 8.83308487e-39
0.370775813 -0.1562180557 0.81900007 9.110026288e-39
0.370775813 -0.1577780557 0.81900007 9.475933343e-39
0.370775813 -0.1593380657 0.81900007 1.002623026e-38
0.373010093 -0.1216123157 0.82500005 1.133273228e-38
0.373010093 -0.1231837657 0.82500005 9.207951827e-39
0.373010093 -0.1247551757 0.82500005 8.185916194e-39
0.373010093 -0.1263265957 0.82500005 7.256081795e-39
0.373010093 -0.1278980457 0.82500005 5.789583716e-39
0.373010093 -0.1294694557 0.82500005 4.417080534e-39
0.373459624 -0.1329761157 0.82900006 5.243249674e-39
0.373459624 -0.1345551957 0.82900006 6.069766337e-39
0.373234855 -0.1351589657 0.82700002 6.162676629e-39
0.373234855 -0.1367341957 0.82700002 6.255588323e-39
0.373234855 -0.1383094557 0.82700002 6.439260716e-39
0.373010093 -0.1388980557 0.82500005 6.715131542e-39
0.373010093 -0.1404694657 0.82500005 6.897374612e-39
0.373010093 -0.1420408857 0.82500005 7.080686871e-39
0.373010093 -0.1436123057 0.82500005 7.356552092e-39
0.373010093 -0.1451837457 0.82500005 7.632417313e-39
0.373010093 -0.1467551957 0.82500005 7.449822518e-39
0.373010093 -0.1483266157 0.82500005 7.359061818e-39
0.373010093 -0.1498980257 0.82500005 7.542731409e-39
0.373010093 -0.1514694457 0.82500005 7.818243503e-39
0.372785324 -0.1520199257 0.82300001 8.002280234e-39
0.372785324 -0.1535875557 0.82300001 8.186660283e-39
0.372785324 -0.1551551557 0.82300001 8.280998498e-39
0.372785324 -0.1567227857 0.82300001 8.373551459e-39
0.37256057 -0.1572542257 0.82100004 8.648699215e-39
0.372785324 -0.1598580257 0.82300001 8.9242015e-39
0.372785324 -0.1614256257 0.82300001 9.29118195e-39
0.374581525 -0.1231837657 0.82500005 1.556513569e-38
0.374581525 -0.1247551757 0.82500005 1.261166516e-38
0.374581525 -0.1263265957 0.82500005 9.65782889e-39
0.374810094 -0.1288580357 0.82700002 6.612515857e-39
0.375267232 -0.1323608857 0.83100003 3.582306019e-39
0.375038663 -0.1329761157 0.82900006 4.593218145e-39
0.375267232 -0.1355266057 0.83100003 5.699188754e-39
0.375038663 -0.1361342457 0.82900006 6.160877362e-39
0.375038663 -0.1377132557 0.82900006 6.622567371e-39
0.374810094 -0.1383094557 0.82700002 6.439257914e-39
0.374810094 -0.1398846857 0.82700002 6.346710558e-39
0.374810094 -0.1414599157 0.82700002 6.529671092e-39
0.374810094 -0.1430351457 0.82700002 6.805176179e-39
0.374810094 -0.1446104157 0.82700002 7.078889005e-39
0.374810094 -0.1461856457 0.82700002 7.448380582e-39
0.374810094 -0.1477608757 0.82700002 7.448017646e-39
0.374810094 -0.1493361057 0.82700002 7.541648205e-39
0.374810094 -0.1509113657 0.82700002 7.635638898e-39
0.374810094 -0.1524865957 0.82700002 7.726763936e-39
0.374581525 -0.1530408957 0.82500005 7.727488407e-39
0.374581525 -0.1546123357 0.82500005 7.819672827e-39
0.374581525 -0.1561837557 0.82500005 7.91365231e-39
0.374581525 -0.1577551757 0.82500005 8.005846538e-39
0.374581525 -0.1593265857 0.82500005 8.190233594e-39
0.374581525 -0.1608980357 0.82500005 8.465018414e-39
0.374581525 -0.1624694857 0.82500005 8.464656879e-39
0.376385333 -0.1288580357 0.82700002 1.096393995e-38
0.376850093 -0.1323608857 0.83100003 9.388028489e-39
0.376850093 -0.1339437457 0.83100003 8.001169004e-39
0.377082476 -0.1364980657 0.83300006 6.522832755e-39
0.376850093 -0.1371094657 0.83100003 6.34167289e-39
0.376850093 -0.1386922957 0.83100003 6.163028355e-39
0.376617717 -0.1392923357 0.82900006 5.979002834e-39
0.376617717 -0.1408713857 0.82900006 5.886814211e-39
0.376617717 -0.1424503957 0.82900006 6.070490808e-39
0.376385333 -0.1430351457 0.82700002 6.2541604e-39
0.376385333 -0.1446104157 0.82700002 6.71333788e-39
0.376385333 -0.1461856457 0.82700002 7.172508355e-39
0.376385333 -0.1477608757 0.82700002 7.263978112e-39
0.376385333 -0.1493361057 0.82700002 7.449088238e-39
0.376385333 -0.1509113657 0.82700002 7.541646804e-39
0.376385333 -0.1524865957 0.82700002 7.634565504e-39
0.376385333 -0.1540618257 0.82700002 7.635650109e-39
0.376385333 -0.1556370957 0.82700002 7.636716497e-39
0.376385333 -0.1572123257 0.82700002 7.728543585e-39
0.376385333 -0.1587875557 0.82700002 7.820736412e-39
0.376152957 -0.1593265857 0.82500005 7.913287972e-39
0.376152957 -0.1608980357 0.82500005 8.098030958e-39
0.376152957 -0.1624694857 0.82500005 8.096950557e-39
0.38008629 -0.1391075357 0.84500003 1.528603207e-38
0.379850099 -0.1397494457 0.84300005 1.132236968e-38
0.379613901 -0.1403837257 0.84100002 7.451986123e-39
0.378669145 -0.1380847157 0.83300006 6.520697177e-39
0.378669145 -0.1396713657 0.83300006 5.695605634e-39
0.378432954 -0.1402751857 0.83100003 5.605199462e-39
0.378432954 -0.1418580157 0.83100003 5.514084234e-39
0.378196763 -0.1424503957 0.82900006 5.60699873e-39
0.378196763 -0.1440294757 0.82900006 5.702425754e-39
0.377960572 -0.1446104157 0.82700002 6.347430825e-39
0.377960572 -0.1461856457 0.82700002 6.988118496e-39
0.377960572 -0.1477608757 0.82700002 7.172139813e-39
0.377960572 -0.1493361057 0.82700002 7.356891207e-39
0.377960572 -0.1509113657 0.82700002 7.449808505e-39
0.377960572 -0.1524865957 0.82700002 7.63312637e-39
0.377960572 -0.1540618257 0.82700002 7.541297881e-39
0.377960572 -0.1556370957 0.82700002 7.542368473e-39
0.377960572 -0.1572123257 0.82700002 7.543799198e-39
0.377960572 -0.1587875557 0.82700002 7.636353561e-39
0.377960572 -0.1603627857 0.82700002 7.637072427e-39
0.377960572 -0.1619380457 0.82700002 7.728903719e-39
0.377960572 -0.1635132457 0.82700002 7.820735011e-39
0.381455806 -0.1381437257 0.84300005 1.530154164e-38
0.381455806 -0.1397494457 0.84300005 1.364234961e-38
0.381215806 -0.1403837257 0.84100002 1.198353172e-38
0.381215806 -0.1419856357 0.84100002 1.085994259e-38
0.380975806 -0.1426085257 0.83900005 9.644538976e-39
0.380495806 -0.1422408857 0.83500004 8.449943245e-39
0.380495806 -0.1438313757 0.83500004 7.347199826e-39
0.380015807 -0.1434408757 0.83100003 5.879984282e-39
0.380015807 -0.1450237357 0.83100003 4.507842635e-39
0.379775817 -0.1456085157 0.82900006 5.33437191e-39
0.379775817 -0.1471875357 0.82900006 6.161240298e-39
0.379775817 -0.1487666157 0.82900006 6.619331773e-39
0.379535811 -0.1493361057 0.82700002 7.169272756e-39
0.379775817 -0.1519247057 0.82900006 7.17071189e-39
0.379775817 -0.1535037557 0.82900006 7.172151023e-39
0.379775817 -0.1550827957 0.82900006 7.172874093e-39
0.379775817 -0.1566618757 0.82900006 7.082472126e-39
0.379775817 -0.1582408857 0.82900006 7.083548323e-39
0.379775817 -0.1598199357 0.82900006 7.084628724e-39
0.379775817 -0.1613990157 0.82900006 7.35906462e-39
0.379775817 -0.1629780257 0.82900006 7.542013944e-39
0.379775817 -0.1645570757 0.82900006 7.541292275e-39
0.383061526 -0.1381437257 0.84300005 1.539340376e-38
0.383061526 -0.1397494457 0.84300005 1.594511038e-38
0.382817706 -0.1403837257 0.84100002 1.658507078e-38
0.382817706 -0.1419856357 0.84100002 1.511317349e-38
0.382573906 -0.1426085257 0.83900005 1.371946026e-38
0.382573906 -0.1442065857 0.83900005 1.14077522e-38
0.382330096 -0.1448180157 0.83700001 9.193627754e-39
0.381842476 -0.1444313857 0.83300006 6.245179478e-39
0.381598666 -0.1450237357 0.83100003 3.39863923e-39
0.381842476 -0.1476047057 0.83300006 4.409191223e-39
0.381598666 -0.1481894657 0.83100003 5.421169738e-39
0.381598666 -0.1497722957 0.83100003 6.158001898e-39
0.381354866 -0.1503456557 0.82900006 6.986322032e-39
0.381598666 -0.1529380157 0.83100003 6.895569739e-39
0.381598666 -0.1545209057 0.83100003 6.80481044e-39
0.381598666 -0.1561037357 0.83100003 6.712617613e-39
0.381598666 -0.1576865957 0.83100003 6.71477281e-39
0.381598666 -0.1592694557 0.83100003 6.62186532e-39
0.381598666 -0.1608523157 0.83100003 6.62258839e-39
0.381598666 -0.1624351757 0.83100003 6.990653445e-39
0.381598666 -0.1640180157 0.83100003 7.449819715e-39
0.381598666 -0.1656009057 0.83100003 7.358333143e-39
0.384667236 -0.1413551657 0.84300005 1.594768176e-38
0.384667236 -0.1429608857 0.84300005 1.530483609e-38
0.384419616 -0.1435875657 0.84100002 1.475376566e-38
0.384419616 -0.1451894657 0.84100002 1.355231478e-38
0.384419616 -0.1467913457 0.84100002 1.244270079e-38
0.384172006 -0.1474027957 0.83900005 1.077023706e-38
0.383676766 -0.1470123257 0.83500004 9.189655073e-39
0.383429146 -0.1476047057 0.83300006 8.085112387e-39
0.383429146 -0.1491913557 0.83300006 7.072410803e-39
0.383429146 -0.1507780357 0.83300006 6.247326267e-39
0.383181526 -0.1513551857 0.83100003 5.51910929e-39
0.383181526 -0.1529380157 0.83100003 5.702790091e-39
0.383181526 -0.1545209057 0.83100003 5.794621384e-39
0.383181526 -0.1561037357 0.83100003 6.346349023e-39
0.383429146 -0.1587113757 0.83300006 6.806250975e-39
0.383181526 -0.1592694557 0.83100003 6.622229658e-39
0.383181526 -0.1608523157 0.83100003 6.34744624e-39
0.383181526 -0.1624351757 0.83100003 6.990660452e-39
0.383181526 -0.1640180157 0.83100003 7.54273281e-39
0.383181526 -0.1656009057 0.83100003 7.359046404e-39
0.386272956 -0.1413551657 0.84300005 1.539271993e-38
0.386524376 -0.1439361357 0.84500003 1.557747272e-38
0.386272956 -0.1445666057 0.84300005 1.576218768e-38
0.386272956 -0.1461723257 0.84300005 1.567139755e-38
0.386021516 -0.1467913457 0.84100002 1.566742067e-38
0.386272956 -0.1493837257 0.84300005 1.538829603e-38
0.386021516 -0.1499951557 0.84100002 1.510236248e-38
0.385518666 -0.1496008657 0.83700001 1.187769305e-38
0.385518666 -0.1511951457 0.83700001 8.739829858e-39
0.385267236 -0.1517837357 0.83500004 6.428844865e-39
0.385015806 -0.1523647057 0.83300006 4.132961665e-39
0.384764376 -0.1529380157 0.83100003 4.500667987e-39
0.385015806 -0.1555380257 0.83300006 4.870159563e-39
0.385015806 -0.1571247057 0.83300006 5.882501014e-39
0.385015806 -0.1587113757 0.83300006 6.986691974e-39
0.385015806 -0.1602980557 0.83300006 6.5296795e-39
0.385015806 -0.1618847057 0.83300006 6.16305498e-39
0.385015806 -0.1634713757 0.83300006 6.898813745e-39
0.385015806 -0.1650580257 0.83300006 7.724964669e-39
0.385015806 -0.1666447257 0.83300006 7.357611474e-39
0.388133896 -0.1439361357 0.84500003 1.539164933e-38
0.388133896 -0.1455456357 0.84500003 1.548455542e-38
0.388516766 -0.1486294657 0.84800005 1.576077377e-38
0.388516766 -0.1502447157 0.84800005 1.594551255e-38
0.387878666 -0.1493837257 0.84300005 1.566928019e-38
0.387623426 -0.1499951557 0.84100002 1.53930156e-38
0.387112956 -0.1496008657 0.83700001 1.38281842e-38
0.387112956 -0.1511951457 0.83700001 1.226368912e-38
0.387112956 -0.1527894457 0.83700001 1.105147066e-38
0.386857716 -0.1533742357 0.83500004 9.839313857e-39
0.386602476 -0.1539513857 0.83300006 9.282561161e-39
0.386857716 -0.1565551857 0.83500004 8.725808466e-39
0.386857716 -0.1581456457 0.83500004 7.347917291e-39
0.386857716 -0.1597361057 0.83500004 5.970401664e-39
0.386857716 -0.1613265957 0.83500004 5.606306488e-39
0.386602476 -0.1618847057 0.83300006 5.334020184e-39
0.386857716 -0.1645075457 0.83500004 5.977579115e-39
0.386857716 -0.1660980357 0.83500004 6.713333676e-39
0.386857716 -0.1676884957 0.83500004 6.714046937e-39
0.386857716 -0.1692789857 0.83500004 6.806595694e-39
0.389743426 -0.1455456357 0.84500003 1.529980683e-38
0.390131996 -0.1486294657 0.84800005 1.575934024e-38
0.390131996 -0.1502447157 0.84800005 1.631106928e-38
0.390131996 -0.1518599457 0.84800005 1.603627886e-38
0.389743426 -0.1519837457 0.84500003 1.576111289e-38
0.388707236 -0.1496008657 0.83700001 1.57614548e-38
0.388707236 -0.1511951457 0.83700001 1.575819398e-38
0.388707236 -0.1527894457 0.83700001 1.56634564e-38
0.388448186 -0.1533742357 0.83500004 1.55640721e-38
0.388189146 -0.1539513857 0.83300006 1.40875155e-38
0.388448186 -0.1565551857 0.83500004 1.269164147e-38
0.388448186 -0.1581456457 0.83500004 8.816569166e-39
