# .PCD v0.7 - Point Cloud Data file format
VERSION 0.7
FIELDS x y z rgb
SIZE 4 4 4 4
TYPE F F F F
COUNT 1 1 1 1
WIDTH 909
HEIGHT 1
VIEWPOINT 0 0 0 1 0 0 0
POINTS 909
DATA ascii
0.2819884343 0.15708953 0.6943802323 1.18683534e-38
0.2819884343 0.15708953 0.6928697623 1.177794022e-38
0.2819884343 0.15708953 0.6913592923 1.177829334e-38
0.2819884343 0.15708953 0.6898488223 1.141130589e-38
0.2839884143 0.15748571 0.6873974023 1.104575056e-38
0.2839884143 0.15748571 0.6858831123 1.14138044e-38
0.2839884143 0.15748571 0.6843688223 1.177864087e-38
0.2839884143 0.15748571 0.6828545423 1.168717111e-38
0.2839884143 0.15748571 0.6813402523 1.168538165e-38
0.2859884443 0.15788192 0.6788659523 1.186798065e-38
0.2859884443 0.15788192 0.6773478423 1.214384867e-38
0.2859884443 0.15788192 0.6758297423 1.205237471e-38
0.2859884443 0.15788192 0.6743116423 1.195982315e-38
0.2839884143 0.15748571 0.6737688223 1.195946582e-38
0.2859884443 0.15788192 0.6712754723 1.196089795e-38
0.2869884343 0.15808001 0.6692659623 1.177901782e-38
0.2889884043 0.1584762 0.6667593223 1.159319583e-38
0.2889884043 0.1584762 0.6652355023 1.195946442e-38
0.2909884443 0.1588724 0.6627173823 1.241685945e-38
0.2909884443 0.1588724 0.6611897723 1.223320107e-38
0.2909884443 0.1588724 0.6596621323 1.214206902e-38
0.2909884443 0.1588724 0.6581345323 1.214349134e-38
0.2909884443 0.1588724 0.6566068923 1.214350536e-38
0.2909884443 0.1588724 0.6550792823 1.195984978e-38
0.2929884143 0.15926857 0.6525345523 1.186763173e-38
0.2929884143 0.15926857 0.6510031023 1.20512789e-38
0.2929884143 0.15926857 0.6494716823 1.223568417e-38
0.2949884443 0.15966477 0.6469116623 1.214494169e-38
0.2949884443 0.15966477 0.6453764223 1.214314242e-38
0.2949884443 0.15966477 0.6438411823 1.214170188e-38
0.2949884443 0.15966477 0.6423059523 1.214241515e-38
0.2949884443 0.15966477 0.6407707123 1.251082912e-38
0.2869884343 0.1596 0.7771859523 9.109296211e-39
0.2869884343 0.1596 0.7756659423 9.016385919e-39
0.2869884343 0.1596 0.7741459423 8.832713526e-39
0.2869884343 0.1596 0.7726259323 8.741594093e-39
0.2869884343 0.1596 0.7711059223 8.65334452e-39
0.2869884343 0.1596 0.7695859423 8.283132676e-39
0.2889884043 0.16 0.7673307123 7.913279564e-39
0.2889884043 0.16 0.7658069223 8.001169004e-39
0.2869884343 0.1596 0.7650259523 8.180898144e-39
0.2869884343 0.1596 0.7635059423 7.540206269e-39
0.2869884343 0.1596 0.7619859323 6.898429789e-39
0.2889884043 0.16 0.7597116623 7.172855877e-39
0.2869884343 0.1596 0.7589459523 7.539848938e-39
0.2869884343 0.1596 0.7574259423 7.539860148e-39
0.2869884343 0.1596 0.7559059323 7.631692842e-39
0.2869884343 0.1596 0.7543859223 7.633842434e-39
0.2869884343 0.1596 0.7528659523 7.727471592e-39
0.2869884343 0.1596 0.7513459423 7.910426521e-39
0.2869884343 0.1596 0.7498259323 8.185577079e-39
0.2859884443 0.1594 0.7486983323 8.369252276e-39
0.2859884443 0.1594 0.7471802323 8.644760165e-39
0.2839884143 0.15899999 0.7464545423 8.644761567e-39
0.2839884143 0.15899999 0.7449402623 8.647624419e-39
0.2839884143 0.15899999 0.7434259723 8.647618814e-39
0.2839884143 0.15899999 0.7419116623 8.647976145e-39
0.2839884143 0.15899999 0.7403973723 8.832363201e-39
0.2839884143 0.15899999 0.7388830823 8.924558831e-39
0.2839884143 0.15899999 0.7373688023 9.01639713e-39
0.2839884143 0.15899999 0.7358545423 9.109310224e-39
0.2839884143 0.15899999 0.7343402623 9.292625287e-39
0.2839884143 0.15899999 0.7328259723 9.475944553e-39
0.2839884143 0.15899999 0.7313116823 9.567070993e-39
0.2839884143 0.15899999 0.7297973723 9.750027323e-39
0.2839884143 0.15899999 0.7282830823 9.934777315e-39
0.2839884143 0.15899999 0.7267688023 1.011987343e-38
0.2839884143 0.15899999 0.7252545123 1.021170052e-38
0.2839884143 0.15899999 0.7237402623 1.030353601e-38
0.2839884143 0.15899999 0.7222259723 1.048900067e-38
0.2839884143 0.15899999 0.7207116823 1.067269408e-38
0.2839884143 0.15899999 0.7191974023 1.06727179e-38
0.2839884143 0.15899999 0.7176831123 1.076453658e-38
0.2819884343 0.15860002 0.7170373623 1.076344357e-38
0.2819884343 0.15860002 0.7155268823 1.076236597e-38
0.2819884343 0.15860002 0.7140164123 1.0853484e-38
0.2799884043 0.1582 0.7133859523 1.094496637e-38
0.2799884043 0.1582 0.7118792923 1.11311555e-38
0.2799884043 0.1582 0.7103726023 1.122334692e-38
0.2799884043 0.1582 0.7088659523 1.140701511e-38
0.2799884043 0.1582 0.7073593223 1.149884781e-38
0.2819884343 0.15860002 0.7049535623 1.168323346e-38
0.2819884343 0.15860002 0.7034430923 1.186726178e-38
0.2839884143 0.15899999 0.7010259423 1.186762052e-38
0.2839884143 0.15899999 0.6995116823 1.186798205e-38
0.2819884343 0.15860002 0.6989116723 1.177686822e-38
0.2819884343 0.15860002 0.6974012023 1.177794582e-38
0.2819884343 0.15860002 0.6958907023 1.177758989e-38
0.2819884343 0.15860002 0.6943802323 1.168538726e-38
0.2819884343 0.15860002 0.6928697623 1.159354335e-38
0.2819884343 0.15860002 0.6913592923 1.159353775e-38
0.2819884343 0.15860002 0.6898488223 1.159460974e-38
0.2819884343 0.15860002 0.6883383223 1.168787736e-38
0.2839884143 0.15899999 0.6858831123 1.168751583e-38
0.2839884143 0.15899999 0.6843688223 1.168750882e-38
0.2839884143 0.15899999 0.6828545423 1.168606829e-38
0.2839884143 0.15899999 0.6813402523 1.168536343e-38
0.2859884443 0.1594 0.6788659523 1.186904704e-38
0.2859884443 0.1594 0.6773478423 1.214563393e-38
0.2859884443 0.1594 0.6758297423 1.196053361e-38
0.2859884443 0.1594 0.6743116423 1.186762612e-38
0.2859884443 0.1594 0.6727935723 1.177579623e-38
0.2869884343 0.1596 0.6707859423 1.177903043e-38
0.2869884343 0.1596 0.6692659623 1.17786787e-38
0.2889884043 0.16 0.6667593223 1.177830876e-38
0.2889884043 0.16 0.6652355023 1.214312981e-38
0.2889884043 0.16 0.6637116723 1.260125071e-38
0.2909884443 0.16040002 0.6611897723 1.232540651e-38
0.2909884443 0.16040002 0.6596621323 1.214208164e-38
0.2909884443 0.16040002 0.6581345323 1.214242916e-38
0.2909884443 0.16040002 0.6566068923 1.21428005e-38
0.2909884443 0.16040002 0.6550792823 1.205205522e-38
0.2909884443 0.16040002 0.6535516423 1.205273485e-38
0.2909884443 0.16040002 0.6520240423 1.223421701e-38
0.2909884443 0.16040002 0.6504964323 1.250975293e-38
0.2929884143 0.16080001 0.6479402523 1.232611276e-38
0.2929884143 0.16080001 0.6464088023 1.214243476e-38
0.2949884443 0.1612 0.6438411823 1.214207043e-38
0.2949884443 0.1612 0.6423059523 1.205022232e-38
0.2949884443 0.1612 0.6407707123 1.223459816e-38
0.2869884343 0.16112001 0.7741459423 9.200774377e-39
0.2869884343 0.16112001 0.7726259323 9.110016479e-39
0.2869884343 0.16112001 0.7711059223 9.110013676e-39
0.2869884343 0.16112001 0.7695859423 8.926341283e-39
0.2889884043 0.16152382 0.7673307123 8.834145653e-39
0.2889884043 0.16152382 0.7658069223 8.742310157e-39
0.2869884343 0.16112001 0.7650259523 8.739082966e-39
0.2869884343 0.16112001 0.7635059423 8.00153194e-39
0.2889884043 0.16152382 0.7612354823 7.265415844e-39
0.2909884443 0.16192764 0.7589573923 7.447654709e-39
0.2889884043 0.16152382 0.7581878723 7.630611039e-39
0.2889884043 0.16152382 0.7566640723 7.53662455e-39
0.2889884043 0.16152382 0.7551402523 7.448014843e-39
0.2889884043 0.16152382 0.7536164323 7.357610073e-39
0.2909884443 0.16192764 0.7513192723 7.265062717e-39
0.2889884043 0.16152382 0.7505688123 7.539857346e-39
0.2889884043 0.16152382 0.7490450223 7.817519031e-39
0.2859884443 0.1609181 0.7486983323 8.001910291e-39
0.2859884443 0.1609181 0.7471802323 8.277415378e-39
0.2859884443 0.1609181 0.7456621323 8.277413977e-39
0.2859884443 0.1609181 0.7441440323 8.371396262e-39
0.2859884443 0.1609181 0.7426259623 8.372109523e-39
0.2859884443 0.1609181 0.7411078623 8.372466854e-39
0.2859884443 0.1609181 0.7395897623 8.464661083e-39
0.2839884143 0.1605143 0.7388830823 8.556496579e-39
0.2839884143 0.1605143 0.7373688023 8.648692209e-39
0.2839884143 0.1605143 0.7358545423 8.739813043e-39
0.2839884143 0.1605143 0.7343402623 8.923128105e-39
0.2859884443 0.1609181 0.7319992823 9.199359065e-39
0.2859884443 0.1609181 0.7304811523 9.288330307e-39
0.2839884143 0.1605143 0.7297973723 9.382319599e-39
0.2859884443 0.1609181 0.7274449823 9.657826088e-39
0.2859884443 0.1609181 0.7259269123 9.934044436e-39
0.2839884143 0.1605143 0.7252545123 9.935115028e-39
0.2859884443 0.1609181 0.7228906823 9.935475161e-39
0.2839884143 0.1605143 0.7222259723 1.012094262e-38
0.2839884143 0.1605143 0.7207116823 1.039503239e-38
0.2839884143 0.1605143 0.7191974023 1.039397581e-38
0.2839884143 0.1605143 0.7176831123 1.048651476e-38
0.2839884143 0.1605143 0.7161688023 1.057941104e-38
0.2819884343 0.16011049 0.7155268823 1.06708864e-38
0.2819884343 0.16011049 0.7140164123 1.0670885e-38
0.2819884343 0.16011049 0.7125059423 1.07627247e-38
0.2799884043 0.15970667 0.7118792923 1.08545644e-38
0.2819884343 0.16011049 0.7094850023 1.094675863e-38
0.2819884343 0.16011049 0.7079745023 1.103895286e-38
0.2819884343 0.16011049 0.7064640323 1.122297978e-38
0.2839884143 0.1605143 0.7040545123 1.14080843e-38
0.2839884143 0.1605143 0.7025402223 1.159139096e-38
0.2839884143 0.1605143 0.7010259423 1.159102802e-38
0.2839884143 0.1605143 0.6995116823 1.159139096e-38
0.2839884143 0.1605143 0.6979974023 1.159390769e-38
0.2839884143 0.1605143 0.6964831123 1.159428044e-38
0.2819884343 0.16011049 0.6958907023 1.159501051e-38
0.2839884143 0.1605143 0.6934545423 1.159428044e-38
0.2819884343 0.16011049 0.6928697623 1.15020736e-38
0.2819884343 0.16011049 0.6913592923 1.140915209e-38
0.2839884143 0.1605143 0.6889116523 1.18676023e-38
0.2839884143 0.1605143 0.6873974023 1.232678118e-38
0.2839884143 0.1605143 0.6858831123 1.195979793e-38
0.2839884143 0.1605143 0.6843688223 1.168464737e-38
0.2839884143 0.1605143 0.6828545423 1.168536203e-38
0.2839884143 0.1605143 0.6813402523 1.177720454e-38
0.2859884443 0.1609181 0.6788659523 1.196088253e-38
0.2859884443 0.1609181 0.6773478423 1.214456474e-38
0.2859884443 0.1609181 0.6758297423 1.196090496e-38
0.2859884443 0.1609181 0.6743116423 1.177579483e-38
0.2859884443 0.1609181 0.6727935723 1.168431386e-38
0.2869884343 0.16112001 0.6707859423 1.15928399e-38
0.2869884343 0.16112001 0.6692659623 1.177723116e-38
0.2889884043 0.16152382 0.6667593223 1.196017488e-38
0.2889884043 0.16152382 0.6652355023 1.232714972e-38
0.2909884443 0.16192764 0.6627173823 1.278418882e-38
0.2909884443 0.16192764 0.6611897723 1.241686225e-38
0.2909884443 0.16192764 0.6596621323 1.214134736e-38
0.2909884443 0.16192764 0.6581345323 1.214134035e-38
0.2909884443 0.16192764 0.6566068923 1.214278369e-38
0.2909884443 0.16192764 0.6550792823 1.214422562e-38
0.2909884443 0.16192764 0.6535516423 1.223496811e-38
0.2909884443 0.16192764 0.6520240423 1.250938298e-38
0.2929884143 0.16233143 0.6494716823 1.278490769e-38
0.2929884143 0.16233143 0.6479402523 1.250941942e-38
0.2929884143 0.16233143 0.6464088023 1.223390452e-38
0.2929884143 0.16233143 0.6448773823 1.214313822e-38
0.2949884443 0.16273524 0.6423059523 1.205093838e-38
0.2949884443 0.16273524 0.6407707123 1.205093138e-38
0.2869884343 0.16264001 0.7635059423 9.108217212e-39
0.2909884443 0.16345525 0.7604850023 9.106792091e-39
0.2929884143 0.16386285 0.7582031023 8.550409338e-39
0.2889884043 0.16304761 0.7581878723 8.089072457e-39
0.2889884043 0.16304761 0.7566640723 7.906113324e-39
0.2909884443 0.16345525 0.7543745123 7.723514325e-39
0.2909884443 0.16345525 0.7528469023 7.539480396e-39
0.2909884443 0.16345525 0.7513192723 7.355460481e-39
0.2909884443 0.16345525 0.7497916923 7.448023251e-39
0.2909884443 0.16345525 0.7482640523 7.633131975e-39
0.2889884043 0.16304761 0.7475212023 7.724252809e-39
0.2869884343 0.16264001 0.7467859423 7.815365235e-39
0.2869884343 0.16264001 0.7452659423 7.910066387e-39
0.2859884443 0.1624362 0.7441440323 8.003332609e-39
0.2859884443 0.1624362 0.7426259623 8.002971074e-39
0.2859884443 0.1624362 0.7411078623 8.09480657e-39
0.2859884443 0.1624362 0.7395897623 8.186642066e-39
0.2859884443 0.1624362 0.7380716623 8.278836295e-39
0.2859884443 0.1624362 0.7365535623 8.278477562e-39
0.2859884443 0.1624362 0.7350354623 8.370315861e-39
0.2859884443 0.1624362 0.7335173823 8.647620216e-39
0.2859884443 0.1624362 0.7319992823 8.923130908e-39
0.2859884443 0.1624362 0.7304811523 9.014972009e-39
0.2859884443 0.1624362 0.7289630823 9.106806104e-39
0.2859884443 0.1624362 0.7274449823 9.290475695e-39
0.2859884443 0.1624362 0.7259269123 9.474143885e-39
0.2859884443 0.1624362 0.7244088123 9.567412909e-39
0.2859884443 0.1624362 0.7228906823 9.659251208e-39
0.2859884443 0.1624362 0.7213726123 9.841850207e-39
0.2839884143 0.16202858 0.7207116823 9.932983653e-39
0.2839884143 0.16202858 0.7191974023 1.002662823e-38
0.2839884143 0.16202858 0.7176831123 1.002769181e-38
0.2839884143 0.16202858 0.7161688023 1.011987343e-38
0.2839884143 0.16202858 0.7146545123 1.020955373e-38
0.2819884343 0.16162096 0.7140164123 1.030353881e-38
0.2819884343 0.16162096 0.7125059423 1.039465965e-38
0.2819884343 0.16162096 0.7109954723 1.048721541e-38
0.2839884143 0.16202858 0.7085974023 1.057869358e-38
0.2839884143 0.16202858 0.7070831123 1.076236737e-38
0.2839884143 0.16202858 0.7055688323 1.094603696e-38
0.2839884143 0.16202858 0.7040545123 1.113042542e-38
0.2839884143 0.16202858 0.7025402223 1.131480407e-38
0.2839884143 0.16202858 0.7010259423 1.131479426e-38
0.2839884143 0.16202858 0.6995116823 1.131516e-38
0.2839884143 0.16202858 0.6979974023 1.1315167e-38
0.2839884143 0.16202858 0.6964831123 1.140738506e-38
0.2819884343 0.16162096 0.6958907023 1.140776901e-38
0.2819884343 0.16162096 0.6943802323 1.140846966e-38
0.2819884343 0.16162096 0.6928697623 1.113294636e-38
0.2819884343 0.16162096 0.6913592923 1.085778319e-38
0.2839884143 0.16202858 0.6889116523 1.131658792e-38
0.2839884143 0.16202858 0.6873974023 1.177576961e-38
0.2839884143 0.16202858 0.6858831123 1.159210282e-38
0.2839884143 0.16202858 0.6843688223 1.140879056e-38
0.2839884143 0.16202858 0.6828545423 1.150170225e-38
0.2859884443 0.1624362 0.6803840523 1.159389788e-38
0.2859884443 0.1624362 0.6788659523 1.168537745e-38
0.2859884443 0.1624362 0.6773478423 1.186763033e-38
0.2859884443 0.1624362 0.6758297423 1.177581305e-38
0.2859884443 0.1624362 0.6743116423 1.168396354e-38
0.2859884443 0.1624362 0.6727935723 1.159283289e-38
0.2859884443 0.1624362 0.6712754723 1.159354896e-38
0.2889884043 0.16304761 0.6682830823 1.168466559e-38
0.2889884043 0.16304761 0.6667593223 1.186653591e-38
0.2889884043 0.16304761 0.6652355023 1.214131793e-38
0.2909884443 0.16345525 0.6627173823 1.232427986e-38
0.2909884443 0.16345525 0.6611897723 1.214133474e-38
0.2909884443 0.16345525 0.6596621323 1.195873715e-38
0.2909884443 0.16345525 0.6581345323 1.186725758e-38
0.2909884443 0.16345525 0.6566068923 1.186761771e-38
0.2909884443 0.16345525 0.6550792823 1.186869671e-38
0.2909884443 0.16345525 0.6535516423 1.195838402e-38
0.2909884443 0.16345525 0.6520240423 1.214170048e-38
0.2909884443 0.16345525 0.6504964323 1.232537708e-38
0.2909884443 0.16345525 0.6489687923 1.214135436e-38
0.2929884143 0.16386285 0.6464088023 1.204951046e-38
0.2929884143 0.16386285 0.6448773823 1.195910148e-38
0.2929884143 0.16386285 0.6433459623 1.195981895e-38
0.2929884143 0.16386285 0.6418145423 1.177578922e-38
0.2909884443 0.16498287 0.7604850023 1.094349781e-38
0.2929884143 0.16539429 0.7582031023 9.745335775e-39
0.2929884143 0.16539429 0.7566716723 8.643307019e-39
0.2909884443 0.16498287 0.7559021523 8.275962232e-39
0.2929884143 0.16539429 0.7536088023 7.999376743e-39
0.2929884143 0.16539429 0.7520773823 7.722792656e-39
0.2929884143 0.16539429 0.7505459523 7.539127269e-39
0.2929884143 0.16539429 0.7490145323 7.448373575e-39
0.2929884143 0.16539429 0.7474830823 7.448374977e-39
0.2909884443 0.16498287 0.7467364423 7.355464685e-39
0.2889884043 0.16457143 0.7459973823 7.356540882e-39
0.2889884043 0.16457143 0.7444735523 7.450886104e-39
0.2889884043 0.16457143 0.7429497923 7.633841032e-39
0.2869884343 0.16416001 0.7422259523 7.725319197e-39
0.2869884343 0.16416001 0.7407059423 7.909704852e-39
0.2869884343 0.16416001 0.7391859423 7.910420916e-39
0.2869884343 0.16416001 0.7376659323 8.002257813e-39
0.2869884343 0.16416001 0.7361459523 8.002260616e-39
0.2869884343 0.16416001 0.7346259423 8.094453443e-39
0.2869884343 0.16416001 0.7331059323 8.372110924e-39
0.2869884343 0.16416001 0.7315859323 8.647621617e-39
0.2869884343 0.16416001 0.7300659523 8.739462718e-39
0.2859884443 0.16395429 0.7289630823 8.923130908e-39
0.2859884443 0.16395429 0.7274449823 9.014963601e-39
0.2859884443 0.16395429 0.7259269123 9.107156429e-39
0.2859884443 0.16395429 0.7244088123 9.291900816e-39
0.2859884443 0.16395429 0.7228906823 9.475574611e-39
0.2859884443 0.16395429 0.7213726123 9.474143885e-39
0.2839884143 0.16354285 0.7207116823 9.566703852e-39
0.2839884143 0.16354285 0.7191974023 9.567428324e-39
0.2859884443 0.16395429 0.7168183423 9.66033301e-39
0.2859884443 0.16395429 0.7153002123 9.752521634e-39
0.2839884143 0.16354285 0.7146545123 9.844355729e-39
0.2839884143 0.16354285 0.7131402323 9.936191225e-39
0.2819884343 0.16313143 0.7125059423 1.002802952e-38
0.2799884043 0.16271999 0.7118792923 1.011986922e-38
0.2839884143 0.16354285 0.7085974023 1.021170332e-38
0.2839884143 0.16354285 0.7070831123 1.039573304e-38
0.2839884143 0.16354285 0.7055688323 1.067088921e-38
0.2839884143 0.16354285 0.7040545123 1.085421128e-38
0.2839884143 0.16354285 0.7025402223 1.113006248e-38
0.2839884143 0.16354285 0.7010259423 1.11304086e-38
0.2839884143 0.16354285 0.6995116823 1.113076874e-38
0.2839884143 0.16354285 0.6979974023 1.112897788e-38
0.2839884143 0.16354285 0.6964831123 1.122190499e-38
0.2819884343 0.16313143 0.6958907023 1.12229966e-38
0.2839884143 0.16354285 0.6934545423 1.122478466e-38
0.2839884143 0.16354285 0.6919402223 1.076667636e-38
0.2839884143 0.16354285 0.6904259423 1.030677021e-38
0.2839884143 0.16354285 0.6889116523 1.076593788e-38
0.2839884143 0.16354285 0.6873974023 1.131766832e-38
0.2839884143 0.16354285 0.6858831123 1.122655029e-38
0.2839884143 0.16354285 0.6843688223 1.11347176e-38
0.2859884443 0.16395429 0.6819021223 1.12265559e-38
0.2859884443 0.16395429 0.6803840523 1.141022829e-38
0.2859884443 0.16395429 0.6788659523 1.150206519e-38
0.2859884443 0.16395429 0.6773478423 1.159211543e-38
0.2859884443 0.16395429 0.6758297423 1.15928413e-38
0.2859884443 0.16395429 0.6743116423 1.159246996e-38
0.2859884443 0.16395429 0.6727935723 1.159353354e-38
0.2859884443 0.16395429 0.6712754723 1.159281748e-38
0.2869884343 0.16416001 0.6692659623 1.168429705e-38
0.2889884043 0.16457143 0.6667593223 1.186724777e-38
0.2889884043 0.16457143 0.6652355023 1.186545271e-38
0.2909884443 0.16498287 0.6627173823 1.195838122e-38
0.2909884443 0.16498287 0.6611897723 1.186799747e-38
0.2909884443 0.16498287 0.6596621323 1.177579063e-38
0.2909884443 0.16498287 0.6581345323 1.168394112e-38
0.2909884443 0.16498287 0.6566068923 1.159174268e-38
0.2909884443 0.16498287 0.6550792823 1.159353214e-38
0.2909884443 0.16498287 0.6535516423 1.168358519e-38
0.2929884143 0.16539429 0.6510031023 1.17743571e-38
0.2909884443 0.16498287 0.6504964323 1.186547653e-38
0.2909884443 0.16498287 0.6489687923 1.18651206e-38
0.2929884143 0.16539429 0.6464088023 1.195766796e-38
0.2929884143 0.16539429 0.6448773823 1.186690445e-38
0.2929884143 0.16539429 0.6433459623 1.186725898e-38
0.2929884143 0.16539429 0.6418145423 1.159246716e-38
0.2929884143 0.16692571 0.7566716723 8.649398463e-39
0.2909884443 0.16651049 0.7559021523 8.464651274e-39
0.2949884443 0.16734096 0.7528430923 8.18842732e-39
0.2969884243 0.1677562 0.7505383323 7.908976177e-39
0.2949884443 0.16734096 0.7497726123 7.629882364e-39
0.2949884443 0.16734096 0.7482373823 7.539124467e-39
0.2949884443 0.16734096 0.7467021423 7.540200664e-39
0.2949884443 0.16734096 0.7451669023 7.356531073e-39
0.2929884143 0.16692571 0.7444202423 7.265057112e-39
0.2929884143 0.16692571 0.7428888123 7.173225819e-39
0.2909884443 0.16651049 0.7421535623 7.173590157e-39
0.2909884443 0.16651049 0.7406259223 7.357266755e-39
0.2889884043 0.16609524 0.7399021423 7.541292275e-39
0.2909884443 0.16651049 0.7375706823 7.634559899e-39
0.2889884043 0.16609524 0.7368545323 7.727115662e-39
0.2909884443 0.16651049 0.7345154623 7.727119866e-39
0.2889884043 0.16609524 0.7338069123 7.727114261e-39
0.2889884043 0.16609524 0.7322830923 8.002973876e-39
0.2889884043 0.16609524 0.7307593023 8.370678797e-39
0.2869884343 0.16568001 0.7300659523 8.461801033e-39
0.2869884343 0.16568001 0.7285459423 8.55291486e-39
0.2869884343 0.16568001 0.7270259323 8.646541216e-39
0.2859884443 0.1654724 0.7259269123 8.740526304e-39
0.2859884443 0.1654724 0.7244088123 8.832360399e-39
0.2859884443 0.1654724 0.7228906823 8.92455743e-39
0.2859884443 0.1654724 0.7213726123 9.108231225e-39
0.2859884443 0.1654724 0.7198545123 9.200424052e-39
0.2859884443 0.1654724 0.7183364123 9.291540682e-39
0.2859884443 0.1654724 0.7168183423 9.476646604e-39
0.2859884443 0.1654724 0.7153002123 9.476646604e-39
0.2859884443 0.1654724 0.7137821423 9.568842234e-39
0.2859884443 0.1654724 0.7122640423 9.659602934e-39
0.2819884343 0.16464192 0.7125059423 9.750725169e-39
0.2819884343 0.16464192 0.7109954723 9.752164303e-39
0.2859884443 0.1654724 0.7077097423 9.84471306e-39
0.2839884143 0.16505714 0.7070831123 1.012021675e-38
0.2839884143 0.16505714 0.7055688323 1.039394779e-38
0.2839884143 0.16505714 0.7040545123 1.04858029e-38
0.2839884143 0.16505714 0.7025402223 1.066981581e-38
0.2839884143 0.16505714 0.7010259423 1.067087519e-38
0.2839884143 0.16505714 0.6995116823 1.067123112e-38
0.2839884143 0.16505714 0.6979974023 1.076163029e-38
0.2839884143 0.16505714 0.6964831123 1.085311266e-38
0.2839884143 0.16505714 0.6949688323 1.094710756e-38
0.2839884143 0.16505714 0.6934545423 1.104145838e-38
0.2839884143 0.16505714 0.6919402223 1.07659561e-38
0.2859884443 0.1654724 0.6894925923 1.04904426e-38
0.2839884143 0.16505714 0.6889116523 1.076594208e-38
0.2859884443 0.1654724 0.6864564223 1.10428793e-38
0.2859884443 0.1654724 0.6849383523 1.076701128e-38
0.2859884443 0.1654724 0.6834202223 1.049151039e-38
0.2859884443 0.1654724 0.6819021223 1.076666375e-38
0.2859884443 0.1654724 0.6803840523 1.113221208e-38
0.2859884443 0.1654724 0.6788659523 1.12244063e-38
0.2859884443 0.1654724 0.6773478423 1.131660053e-38
0.2859884443 0.1654724 0.6758297423 1.149991279e-38
0.2859884443 0.1654724 0.6743116423 1.168321244e-38
0.2859884443 0.1654724 0.6727935723 1.149952884e-38
0.2859884443 0.1654724 0.6712754723 1.140769895e-38
0.2869884343 0.16568001 0.6692659623 1.149989878e-38
0.2869884343 0.16568001 0.6677459523 1.168429004e-38
0.2889884043 0.16609524 0.6652355023 1.168393411e-38
0.2909884443 0.16651049 0.6627173823 1.168395933e-38
0.2909884443 0.16651049 0.6611897723 1.159215046e-38
0.2909884443 0.16651049 0.6596621323 1.159248537e-38
0.2909884443 0.16651049 0.6581345323 1.150026732e-38
0.2909884443 0.16651049 0.6566068923 1.140806188e-38
0.2909884443 0.16651049 0.6550792823 1.150060363e-38
0.2909884443 0.16651049 0.6535516423 1.150098198e-38
0.2909884443 0.16651049 0.6520240423 1.15906847e-38
0.2909884443 0.16651049 0.6504964323 1.158888824e-38
0.2909884443 0.16651049 0.6489687923 1.158996303e-38
0.2929884143 0.16692571 0.6464088023 1.168215586e-38
0.2929884143 0.16692571 0.6448773823 1.15896015e-38
0.2929884143 0.16692571 0.6433459623 1.158923576e-38
0.2929884143 0.16692571 0.6418145423 1.149775339e-38
0.2949884443 0.1688762 0.7528430923 8.464295344e-39
0.3009884343 0.17013335 0.7489993023 8.099102951e-39
0.2969884243 0.16929525 0.7489993023 7.72924984e-39
0.2969884243 0.16929525 0.7474602523 7.634904618e-39
0.2969884243 0.16929525 0.7459212023 7.633828421e-39
0.2969884243 0.16929525 0.7443821223 7.357604467e-39
0.2949884443 0.1688762 0.7436316723 7.172501348e-39
0.2949884443 0.1688762 0.7420964323 6.895564134e-39
0.2929884143 0.16845715 0.7413573623 6.712973543e-39
0.2929884143 0.16845715 0.7398259423 6.987409439e-39
0.2909884443 0.1680381 0.7390983223 7.26470959e-39
0.2909884443 0.1680381 0.7375706823 7.358696079e-39
0.2909884443 0.1680381 0.7360431023 7.45018125e-39
0.2909884443 0.1680381 0.7345154623 7.449829525e-39
0.2889884043 0.16761905 0.7338069123 7.449822518e-39
0.2889884043 0.16761905 0.7322830923 7.725679331e-39
0.2889884043 0.16761905 0.7307593023 8.09338145e-39
0.2889884043 0.16761905 0.7292354823 8.185575678e-39
0.2889884043 0.16761905 0.7277116823 8.277767104e-39
0.2869884343 0.16720001 0.7270259323 8.278124435e-39
0.2869884343 0.16720001 0.7255059523 8.371750791e-39
0.2869884343 0.16720001 0.7239859523 8.373184319e-39
0.2869884343 0.16720001 0.7224659423 8.465018414e-39
0.2869884343 0.16720001 0.7209459323 8.648688005e-39
0.2869884343 0.16720001 0.7194259523 8.924195895e-39
0.2869884343 0.16720001 0.7179059423 9.107868288e-39
0.2869884343 0.16720001 0.7163859423 9.291539281e-39
0.2869884343 0.16720001 0.7148659323 9.291540682e-39
0.2859884443 0.16699049 0.7137821423 9.383376178e-39
0.2859884443 0.16699049 0.7122640423 9.475213076e-39
0.2839884143 0.16657144 0.7116259723 9.567410107e-39
0.2839884143 0.16657144 0.7101116823 9.476296279e-39
0.2859884443 0.16699049 0.7077097423 9.476656413e-39
0.2859884443 0.16699049 0.7061916423 9.752881768e-39
0.2839884143 0.16657144 0.7055688323 1.011915736e-38
0.2839884143 0.16657144 0.7040545123 1.020992647e-38
0.2839884143 0.16657144 0.7025402223 1.030246962e-38
0.2839884143 0.16657144 0.7010259423 1.030317728e-38
0.2839884143 0.16657144 0.6995116823 1.030281574e-38
0.2839884143 0.16657144 0.6979974023 1.039464704e-38
0.2839884143 0.16657144 0.6964831123 1.057760477e-38
0.2839884143 0.16657144 0.6949688323 1.067159826e-38
0.2839884143 0.16657144 0.6934545423 1.085528047e-38
0.2839884143 0.16657144 0.6919402223 1.076381631e-38
0.2859884443 0.16699049 0.6894925923 1.06730444e-38
0.2839884143 0.16657144 0.6889116523 1.076630362e-38
0.2859884443 0.16699049 0.6864564223 1.085777198e-38
0.2839884143 0.16657144 0.6858831123 1.039822735e-38
0.2859884443 0.16699049 0.6834202223 9.939415613e-39
0.2859884443 0.16699049 0.6819021223 1.039895883e-38
0.2859884443 0.16699049 0.6803840523 1.085562519e-38
0.2859884443 0.16699049 0.6788659523 1.094674322e-38
0.2859884443 0.16699049 0.6773478423 1.113041701e-38
0.2859884443 0.16699049 0.6758297423 1.14977632e-38
0.2859884443 0.16699049 0.6743116423 1.186546112e-38
0.2859884443 0.16699049 0.6727935723 1.149847646e-38
0.2859884443 0.16699049 0.6712754723 1.122404197e-38
0.2869884343 0.16720001 0.6692659623 1.131551313e-38
0.2869884343 0.16720001 0.6677459523 1.149882398e-38
0.2889884043 0.16761905 0.6652355023 1.140698709e-38
0.2909884443 0.1680381 0.6627173823 1.140772557e-38
0.2909884443 0.1680381 0.6611897723 1.140846546e-38
0.2909884443 0.1680381 0.6596621323 1.140845004e-38
0.2909884443 0.1680381 0.6581345323 1.1317318e-38
0.2909884443 0.1680381 0.6566068923 1.131696067e-38
0.2909884443 0.1680381 0.6550792823 1.131696067e-38
0.2929884143 0.16845715 0.6525345523 1.14080843e-38
0.2929884143 0.16845715 0.6510031023 1.140737104e-38
0.2909884443 0.1680381 0.6504964323 1.140736263e-38
0.2909884443 0.1680381 0.6489687923 1.140735563e-38
0.2909884443 0.1680381 0.6474411823 1.140664097e-38
0.2929884143 0.16845715 0.6448773823 1.140628644e-38
0.2929884143 0.16845715 0.6433459623 1.140628504e-38
0.2929884143 0.16845715 0.6418145423 1.140664237e-38
0.3009884343 0.17168 0.7489993023 8.465010006e-39
0.2969884243 0.17083429 0.7489993023 8.18986225e-39
0.2989884543 0.17125715 0.7466831023 8.189503518e-39
0.2989884543 0.17125715 0.7451402023 8.189503518e-39
0.2969884243 0.17083429 0.7443821223 8.001886469e-39
0.2949884443 0.17041144 0.7436316723 7.811043631e-39
0.2949884443 0.17041144 0.7420964323 7.538768537e-39
0.2929884143 0.16998857 0.7413573623 7.265418647e-39
0.2929884143 0.16998857 0.7398259423 7.170001432e-39
0.2929884143 0.16998857 0.7382945523 7.168209171e-39
0.2929884143 0.16998857 0.7367631023 7.170364368e-39
0.2929884143 0.16998857 0.7352316723 7.172886705e-39
0.2929884143 0.16998857 0.7337002523 7.264376081e-39
0.2929884143 0.16998857 0.7321688323 7.356201768e-39
0.2909884443 0.16956572 0.7314602223 7.540580416e-39
0.2909884443 0.16956572 0.7299326123 7.72496607e-39
0.2889884043 0.16914286 0.7292354823 7.90863426e-39
0.2889884043 0.16914286 0.7277116823 8.000468355e-39
0.2889884043 0.16914286 0.7261878623 8.001901883e-39
0.2889884043 0.16914286 0.7246640423 8.003335411e-39
0.2869884343 0.16872001 0.7239859523 8.095886971e-39
0.2869884343 0.16872001 0.7224659423 8.096598831e-39
0.2889884043 0.16914286 0.7200926323 8.371023517e-39
0.2869884343 0.16872001 0.7194259523 8.645815343e-39
0.2889884043 0.16914286 0.7170450223 8.829131807e-39
0.2889884043 0.16914286 0.7155211923 9.012804201e-39
0.2889884043 0.16914286 0.7139973723 9.012805602e-39
0.2869884343 0.16872001 0.7133459523 9.012805602e-39
0.2869884343 0.16872001 0.7118259423 9.105358563e-39
0.2869884343 0.16872001 0.7103059423 9.198273059e-39
0.2859884443 0.16850857 0.7092278723 9.106440365e-39
0.2859884443 0.16850857 0.7077097423 9.106806104e-39
0.2859884443 0.16850857 0.7061916423 9.381602134e-39
0.2859884443 0.16850857 0.7046735623 9.65674989e-39
0.2859884443 0.16850857 0.7031554623 9.748944119e-39
0.2839884143 0.16808572 0.7025402223 9.932971041e-39
0.2859884443 0.16850857 0.7001192923 9.93296964e-39
0.2859884443 0.16850857 0.6986011623 9.933322767e-39
0.2839884143 0.16808572 0.6979974023 1.002730645e-38
0.2859884443 0.16850857 0.6955649923 1.021062152e-38
0.2859884443 0.16850857 0.6940468923 1.030281855e-38
0.2859884443 0.16850857 0.6925288223 1.048686789e-38
0.2859884443 0.16850857 0.6910106923 1.048653018e-38
0.2859884443 0.16850857 0.6894925923 1.057834746e-38
0.2859884443 0.16850857 0.6879745223 1.06708836e-38
0.2859884443 0.16850857 0.6864564223 1.085561818e-38
0.2859884443 0.16850857 0.6849383523 1.076377007e-38
0.2859884443 0.16850857 0.6834202223 1.067230031e-38
0.2859884443 0.16850857 0.6819021223 1.076342675e-38
0.2859884443 0.16850857 0.6803840523 1.076270929e-38
0.2859884443 0.16850857 0.6788659523 1.085454479e-38
0.2859884443 0.16850857 0.6773478423 1.085491052e-38
0.2859884443 0.16850857 0.6758297423 1.103822979e-38
0.2859884443 0.16850857 0.6743116423 1.122047426e-38
0.2859884443 0.16850857 0.6727935723 1.103896547e-38
0.2859884443 0.16850857 0.6712754723 1.0856714e-38
0.2869884343 0.16872001 0.6692659623 1.085705731e-38
0.2869884343 0.16872001 0.6677459523 1.094673481e-38
0.2869884343 0.16872001 0.6662259523 1.10385647e-38
0.2889884043 0.16914286 0.6637116723 1.122225251e-38
0.2889884043 0.16914286 0.6621878523 1.122406299e-38
0.2909884443 0.16956572 0.6596621323 1.122477485e-38
0.2909884443 0.16956572 0.6581345323 1.113293515e-38
0.2909884443 0.16956572 0.6566068923 1.113330649e-38
0.2909884443 0.16956572 0.6550792823 1.13159139e-38
0.2909884443 0.16956572 0.6535516423 1.149706395e-38
0.2909884443 0.16956572 0.6520240423 1.131338315e-38
0.2909884443 0.16956572 0.6504964323 1.103822138e-38
0.2909884443 0.16956572 0.6489687923 1.085346018e-38
0.2909884443 0.16956572 0.6474411823 1.06687214e-38
0.2929884143 0.16998857 0.6448773823 1.085276093e-38
0.2929884143 0.16998857 0.6433459623 1.112898769e-38
0.2929884143 0.16998857 0.6418145423 1.103894866e-38
0.2989884543 0.17280002 0.7466831023 8.741952826e-39
0.2989884543 0.17280002 0.7451402023 8.832351991e-39
0.2969884243 0.17237334 0.7443821223 8.646169872e-39
0.2949884443 0.17194667 0.7436316723 8.459989154e-39
0.2969884243 0.17237334 0.7413040523 8.090496176e-39
0.2949884443 0.17194667 0.7405611923 7.817502216e-39
0.2949884443 0.17194667 0.7390259623 7.444782048e-39
0.2949884443 0.17194667 0.7374907223 7.077441464e-39
0.2929884143 0.17152001 0.7367631023 6.985607369e-39
0.2909884443 0.17109334 0.7360431023 6.988125503e-39
0.2929884143 0.17152001 0.7337002523 7.08068547e-39
0.2909884443 0.17109334 0.7329878623 7.264350857e-39
0.2909884443 0.17109334 0.7314602223 7.356180748e-39
0.2909884443 0.17109334 0.7299326123 7.448019047e-39
0.2909884443 0.17109334 0.7284049723 7.631692842e-39
0.2909884443 0.17109334 0.7268773723 7.815719764e-39
0.2909884443 0.17109334 0.7253497623 7.725676529e-39
0.2909884443 0.17109334 0.7238221523 7.72675693e-39
0.2889884043 0.17066666 0.7231402523 7.728554796e-39
0.2909884443 0.17109334 0.7207669123 7.819302884e-39
0.2909884443 0.17109334 0.7192392723 8.093721965e-39
0.2889884043 0.17066666 0.7185688123 8.369239664e-39
0.2909884443 0.17109334 0.7161840323 8.552921867e-39
0.2889884043 0.17066666 0.7155211923 8.82842275e-39
0.2889884043 0.17066666 0.7139973723 8.736941782e-39
0.2889884043 0.17066666 0.7124735823 8.736224317e-39
0.2869884343 0.17024001 0.7118259423 8.735506853e-39
0.2869884343 0.17024001 0.7103059423 8.829496145e-39
0.2859884443 0.17002667 0.7092278723 8.831291208e-39
0.2869884343 0.17024001 0.7072659523 8.831296813e-39
0.2859884443 0.17002667 0.7061916423 9.014973411e-39
0.2859884443 0.17002667 0.7046735623 9.290119765e-39
0.2859884443 0.17002667 0.7031554623 9.381955261e-39
0.2859884443 0.17002667 0.7016373623 9.565261916e-39
0.2859884443 0.17002667 0.7001192923 9.567049973e-39
0.2859884443 0.17002667 0.6986011623 9.567051374e-39
0.2859884443 0.17002667 0.6970830923 9.751801366e-39
0.2869884343 0.17024001 0.6951059523 9.935113626e-39
0.2859884443 0.17002667 0.6940468923 1.002766659e-38
0.2859884443 0.17002667 0.6925288223 1.01195175e-38
0.2859884443 0.17002667 0.6910106923 1.03032039e-38
0.2859884443 0.17002667 0.6894925923 1.057798312e-38
0.2859884443 0.17002667 0.6879745223 1.066945147e-38
0.2859884443 0.17002667 0.6864564223 1.085383573e-38
0.2859884443 0.17002667 0.6849383523 1.113005688e-38
0.2859884443 0.17002667 0.6834202223 1.149668e-38
0.2859884443 0.17002667 0.6819021223 1.112897788e-38
0.2859884443 0.17002667 0.6803840523 1.076199463e-38
0.2859884443 0.17002667 0.6788659523 1.06708766e-38
0.2859884443 0.17002667 0.6773478423 1.06708822e-38
0.2859884443 0.17002667 0.6758297423 1.067052767e-38
0.2859884443 0.17002667 0.6743116423 1.066945848e-38
0.2869884343 0.17024001 0.6723059523 1.057942506e-38
0.2859884443 0.17002667 0.6712754723 1.048937341e-38
0.2869884343 0.17024001 0.6692659623 1.03986043e-38
0.2869884343 0.17024001 0.6677459523 1.039609178e-38
0.2889884043 0.17066666 0.6652355023 1.066944447e-38
0.2889884043 0.17066666 0.6637116723 1.103822839e-38
0.2889884043 0.17066666 0.6621878523 1.103966892e-38
0.2909884443 0.17109334 0.6596621323 1.103894866e-38
0.2909884443 0.17109334 0.6581345323 1.103822839e-38
0.2909884443 0.17109334 0.6566068923 1.103859273e-38
0.2909884443 0.17109334 0.6550792823 1.131482229e-38
0.2929884143 0.17152001 0.6525345523 1.168036781e-38
0.2929884143 0.17152001 0.6510031023 1.122190639e-38
0.2909884443 0.17109334 0.6504964323 1.076236737e-38
0.2909884443 0.17109334 0.6489687923 1.030282976e-38
0.2929884143 0.17152001 0.6464088023 9.935129041e-39
0.2929884143 0.17152001 0.6448773823 1.039394919e-38
0.2929884143 0.17152001 0.6433459623 1.085312947e-38
0.2929884143 0.17152001 0.6418145423 1.076309184e-38
0.2969884243 0.17391238 0.7443821223 8.923830156e-39
0.2949884443 0.17348191 0.7436316723 9.015305518e-39
0.2969884243 0.17391238 0.7413040523 8.554693108e-39
0.2969884243 0.17391238 0.7397649923 8.185916194e-39
0.2949884443 0.17348191 0.7390259623 7.725662516e-39
0.2949884443 0.17348191 0.7374907223 7.357603066e-39
0.2949884443 0.17348191 0.7359554823 7.172138412e-39
0.2929884143 0.17305143 0.7352316723 7.078870789e-39
0.2929884143 0.17305143 0.7337002523 7.080308521e-39
0.2929884143 0.17305143 0.7321688323 7.081381915e-39
0.2909884443 0.17262097 0.7314602223 6.621126836e-39
0.2929884143 0.17305143 0.7291059623 6.160881566e-39
0.2929884143 0.17305143 0.7275745323 6.805173376e-39
0.2909884443 0.17262097 0.7268773723 7.447660315e-39
0.2909884443 0.17262097 0.7253497623 7.448376378e-39
0.2909884443 0.17262097 0.7238221523 7.541296479e-39
0.2909884443 0.17262097 0.7222945223 7.542023753e-39
0.2909884443 0.17262097 0.7207669123 7.634559899e-39
0.2909884443 0.17262097 0.7192392723 7.72637998e-39
0.2909884443 0.17262097 0.7177116623 7.910427922e-39
0.2909884443 0.17262097 0.7161840323 8.092682202e-39
0.2909884443 0.17262097 0.7146564223 8.275624519e-39
0.2909884443 0.17262097 0.7131287823 8.278124435e-39
0.2889884043 0.17219047 0.7124735823 8.279918097e-39
0.2889884043 0.17219047 0.7109497823 8.278483168e-39
0.2869884343 0.17176001 0.7103059423 8.27740697e-39
0.2869884343 0.17176001 0.7087859623 8.371396262e-39
0.2869884343 0.17176001 0.7072659523 8.464310758e-39
0.2859884443 0.17154478 0.7061916423 8.646551025e-39
0.2859884443 0.17154478 0.7046735623 8.828426954e-39
0.2859884443 0.17154478 0.7031554623 8.921337246e-39
0.2859884443 0.17154478 0.7016373623 9.106074626e-39
0.2859884443 0.17154478 0.7001192923 9.107142416e-39
0.2859884443 0.17154478 0.6986011623 9.199703784e-39
0.2859884443 0.17154478 0.6970830923 9.291907822e-39
0.2869884343 0.17176001 0.6951059523 9.475934744e-39
0.2869884343 0.17176001 0.6935859423 9.659604335e-39
0.2859884443 0.17154478 0.6925288223 9.841132742e-39
0.2869884343 0.17176001 0.6905459523 9.932978048e-39
0.2869884343 0.17176001 0.6890259423 1.011700637e-38
0.2869884343 0.17176001 0.6875059423 1.02092006e-38
0.2869884343 0.17176001 0.6859859623 1.039359466e-38
0.2869884343 0.17176001 0.6844659523 1.048615463e-38
0.2859884443 0.17154478 0.6834202223 1.067017314e-38
0.2869884343 0.17176001 0.6814259323 1.048649094e-38
0.2869884343 0.17176001 0.6799059623 1.020954952e-38
0.2859884443 0.17154478 0.6788659523 1.030425628e-38
0.2859884443 0.17154478 0.6773478423 1.030425908e-38
0.2869884343 0.17176001 0.6753459323 1.021135019e-38
0.2869884343 0.17176001 0.6738259623 1.02102796e-38
0.2869884343 0.17176001 0.6723059523 1.01206021e-38
0.2869884343 0.17176001 0.6707859423 1.012203283e-38
0.2869884343 0.17176001 0.6692659623 9.754688041e-39
0.2869884343 0.17176001 0.6677459523 9.478108158e-39
0.2889884043 0.17219047 0.6652355023 9.934777315e-39
0.2909884443 0.17262097 0.6627173823 1.048686229e-38
0.2909884443 0.17262097 0.6611897723 1.057976977e-38
0.2909884443 0.17262097 0.6596621323 1.066873401e-38
0.2909884443 0.17262097 0.6581345323 1.057689851e-38
0.2909884443 0.17262097 0.6566068923 1.048541895e-38
0.2929884143 0.17305143 0.6540659723 1.076128277e-38
0.2929884143 0.17305143 0.6525345523 1.103715359e-38
0.2929884143 0.17305143 0.6510031023 1.076165271e-38
0.2909884443 0.17262097 0.6504964323 1.057799153e-38
0.2929884143 0.17305143 0.6479402523 1.039468908e-38
0.2929884143 0.17305143 0.6464088023 1.021208727e-38
0.2929884143 0.17305143 0.6448773823 1.057691113e-38
0.2949884443 0.17348191 0.6423059523 1.094497338e-38
0.2949884443 0.17348191 0.6407707123 1.085350082e-38
0.2969884243 0.17545143 0.7413040523 9.108222817e-39
0.2989884543 0.17588572 0.7389688023 8.556849706e-39
0.2969884243 0.17545143 0.7382259423 8.097672225e-39
0.2969884243 0.17545143 0.7366868923 7.727100248e-39
0.2949884443 0.17501715 0.7359554823 7.449082632e-39
0.2949884443 0.17501715 0.7344202523 7.172499947e-39
0.2929884143 0.17458287 0.7337002523 7.079946986e-39
0.2929884143 0.17458287 0.7321688323 6.989545018e-39
0.2929884143 0.17458287 0.7306373823 5.883571606e-39
0.2929884143 0.17458287 0.7291059623 4.876258014e-39
0.2929884143 0.17458287 0.7275745323 5.978648306e-39
0.2949884443 0.17501715 0.7252088023 7.080312725e-39
0.2929884143 0.17458287 0.7245116623 7.263980914e-39
0.2929884143 0.17458287 0.7229802423 7.447658913e-39
0.2929884143 0.17458287 0.7214488123 7.448024652e-39
0.2929884143 0.17458287 0.7199173923 7.449807104e-39
0.2929884143 0.17458287 0.7183859423 7.45051476e-39
0.2909884443 0.17414859 0.7177116623 7.543078931e-39
0.2909884443 0.17414859 0.7161840323 7.632774644e-39
0.2909884443 0.17414859 0.7146564223 7.72388707e-39
0.2909884443 0.17414859 0.7131287823 7.819305687e-39
0.2909884443 0.17414859 0.7116012023 7.911502718e-39
0.2889884043 0.1737143 0.7109497823 7.820028757e-39
0.2889884043 0.1737143 0.7094259623 7.819668623e-39
0.2889884043 0.1737143 0.7079021423 8.003339615e-39
0.2889884043 0.1737143 0.7063783223 8.186653277e-39
0.2869884343 0.17328002 0.7057459423 8.278132843e-39
0.2869884343 0.17328002 0.7042259323 8.369255078e-39
0.2869884343 0.17328002 0.7027059623 8.460737447e-39
0.2869884343 0.17328002 0.7011859523 8.646911158e-39
0.2869884343 0.17328002 0.6996659423 8.73945431e-39
0.2869884343 0.17328002 0.6981459323 8.830943686e-39
0.2859884443 0.17306288 0.6970830923 8.922791794e-39
0.2889884043 0.1737143 0.6941878623 9.107171843e-39
0.2869884343 0.17328002 0.6935859423 9.383747522e-39
0.2869884343 0.17328002 0.6920659323 9.65710582e-39
0.2869884343 0.17328002 0.6905459523 9.656752693e-39
0.2889884043 0.1737143 0.6880926323 9.656751292e-39
0.2889884043 0.1737143 0.6865688023 9.748586788e-39
0.2869884343 0.17328002 0.6859859623 9.933335379e-39
0.2869884343 0.17328002 0.6844659523 9.935130442e-39
0.2869884343 0.17328002 0.6829459423 9.935123435e-39
0.2869884343 0.17328002 0.6814259323 9.84435713e-39
0.2869884343 0.17328002 0.6799059623 9.750729373e-39
0.2869884343 0.17328002 0.6783859523 9.846153595e-39
0.2869884343 0.17328002 0.6768659423 1.002875399e-38
0.2869884343 0.17328002 0.6753459323 9.844372544e-39
0.2869884343 0.17328002 0.6738259623 9.752895781e-39
0.2869884343 0.17328002 0.6723059523 9.753613245e-39
0.2869884343 0.17328002 0.6707859423 9.753973379e-39
0.2869884343 0.17328002 0.6692659623 9.203679268e-39
0.2889884043 0.1737143 0.6667593223 8.650155164e-39
0.2909884443 0.17414859 0.6642449923 9.292287574e-39
0.2909884443 0.17414859 0.6627173823 9.935849308e-39
0.2909884443 0.17414859 0.6611897723 1.012023496e-38
0.2909884443 0.17414859 0.6596621323 1.030103329e-38
0.2909884443 0.17414859 0.6581345323 1.01184371e-38
0.2929884143 0.17458287 0.6555973623 9.934763302e-39
0.2929884143 0.17458287 0.6540659723 1.021026699e-38
0.2929884143 0.17458287 0.6525345523 1.048541895e-38
0.2929884143 0.17458287 0.6510031023 1.039358625e-38
0.2929884143 0.17458287 0.6494716823 1.039395059e-38
0.2929884143 0.17458287 0.6479402523 1.048650916e-38
0.2929884143 0.17458287 0.6464088023 1.057726846e-38
0.2929884143 0.17458287 0.6448773823 1.085205748e-38
0.2949884443 0.17501715 0.6423059523 1.112792691e-38
0.2949884443 0.17501715 0.6407707123 1.085278475e-38
0.2989884543 0.17742859 0.7389688023 8.649408272e-39
0.2969884243 0.17699048 0.7382259423 8.464659682e-39
0.2969884243 0.17699048 0.7366868923 8.188434327e-39
0.2989884543 0.17742859 0.7343402323 8.003328405e-39
0.2989884543 0.17742859 0.7327973623 7.726384184e-39
0.2929884143 0.17611428 0.7337002523 7.725305184e-39
0.2929884143 0.17611428 0.7321688323 7.63239209e-39
0.2929884143 0.17611428 0.7306373823 6.897708121e-39
0.2929884143 0.17611428 0.7291059623 6.254863851e-39
0.2969884243 0.17699048 0.7259135623 6.712969339e-39
0.2969884243 0.17699048 0.7243745123 7.170707686e-39
0.2949884443 0.17655239 0.7236735623 7.355450672e-39
0.2929884143 0.17611428 0.7229802423 7.630961364e-39
0.2949884443 0.17655239 0.7206030823 7.448013442e-39
0.2929884143 0.17611428 0.7199173923 7.356889805e-39
0.2929884143 0.17611428 0.7183859423 7.266126302e-39
0.2929884143 0.17611428 0.7168545223 7.267566837e-39
0.2929884143 0.17611428 0.7153231023 7.356896812e-39
0.2929884143 0.17611428 0.7137916423 7.448016244e-39
0.2929884143 0.17611428 0.7122602223 7.631688638e-39
0.2909884443 0.1756762 0.7116012023 7.815723968e-39
0.2909884443 0.1756762 0.7100735723 7.632417313e-39
0.2909884443 0.1756762 0.7085459623 7.541297881e-39
0.2889884043 0.17523809 0.7079021423 7.816802968e-39
0.2909884443 0.1756762 0.7054907123 8.00047396e-39
0.2889884043 0.17523809 0.7048545523 8.092309456e-39
0.2889884043 0.17523809 0.7033307323 8.184156163e-39
0.2889884043 0.17523809 0.7018069123 8.277080468e-39
0.2889884043 0.17523809 0.7002830923 8.371417282e-39
0.2869884343 0.17480001 0.6996659423 8.369973944e-39
0.2889884043 0.17523809 0.6972355023 8.460748658e-39
0.2889884043 0.17523809 0.6957116823 8.645512663e-39
0.2889884043 0.17523809 0.6941878623 8.830604572e-39
0.2889884043 0.17523809 0.6926640323 9.013902819e-39
0.2889884043 0.17523809 0.6911402423 9.197573811e-39
0.2889884043 0.17523809 0.6896164523 9.197573811e-39
0.2889884043 0.17523809 0.6880926323 9.196854945e-39
0.2909884443 0.1756762 0.6856316723 9.289049173e-39
0.2889884043 0.17523809 0.6850450123 9.38159793e-39
0.2889884043 0.17523809 0.6835211923 9.383030057e-39
0.2869884343 0.17480001 0.6829459423 9.384103452e-39
0.2869884343 0.17480001 0.6814259323 9.384100649e-39
0.2889884043 0.17523809 0.6789497823 9.292267956e-39
0.2889884043 0.17523809 0.6774259623 9.291912026e-39
0.2869884343 0.17480001 0.6768659423 9.291561701e-39
0.2869884343 0.17480001 0.6753459323 9.292647708e-39
0.2869884343 0.17480001 0.6738259623 9.385553796e-39
0.2889884043 0.17523809 0.6713307323 9.385189458e-39
0.2869884343 0.17480001 0.6707859423 9.385196465e-39
0.2889884043 0.17523809 0.6682830823 9.200815014e-39
0.2889884043 0.17523809 0.6667593223 9.016423754e-39
0.2909884443 0.1756762 0.6642449923 9.383764338e-39
0.2909884443 0.1756762 0.6627173823 9.750027323e-39
0.2909884443 0.1756762 0.6611897723 9.841860016e-39
0.2929884143 0.17611428 0.6586602423 1.00255268e-38
0.2929884143 0.17611428 0.6571287923 9.568140183e-39
0.2929884143 0.17611428 0.6555973623 9.109677365e-39
0.2929884143 0.17611428 0.6540659723 9.568134578e-39
0.2929884143 0.17611428 0.6525345523 1.002623726e-38
0.2929884143 0.17611428 0.6510031023 1.011807416e-38
0.2929884143 0.17611428 0.6494716823 1.011843289e-38
0.2929884143 0.17611428 0.6479402523 1.030102909e-38
0.2949884443 0.17655239 0.6453764223 1.039215413e-38
0.2949884443 0.17655239 0.6438411823 1.057583353e-38
0.2949884443 0.17655239 0.6423059523 1.085134562e-38
0.2949884443 0.17655239 0.6407707123 1.057620347e-38
0.2969884243 0.17852953 0.7366868923 8.739444501e-39
0.3009884343 0.17941333 0.7335326123 8.555773509e-39
0.2989884543 0.17897144 0.7327973623 8.371742383e-39
0.2929884143 0.17764571 0.7337002523 8.371382249e-39
0.2929884143 0.17764571 0.7321688323 8.370307453e-39
0.2929884143 0.17764571 0.7306373823 8.001890673e-39
0.2989884543 0.17897144 0.7266259323 7.633116561e-39
0.3009884343 0.17941333 0.7242526223 7.447295977e-39
0.2969884243 0.17852953 0.7243745123 7.263623583e-39
0.2949884443 0.17808764 0.7236735623 7.539130072e-39
0.2929884143 0.17764571 0.7229802423 7.905394458e-39
0.2949884443 0.17808764 0.7206030823 7.537335008e-39
0.2949884443 0.17808764 0.7190678523 7.26541164e-39
0.2929884143 0.17764571 0.7183859423 7.082096578e-39
0.2929884143 0.17764571 0.7168545223 6.989906553e-39
0.2929884143 0.17764571 0.7153231023 7.081387521e-39
0.2909884443 0.17720382 0.7146564223 7.172505552e-39
0.2929884143 0.17764571 0.7122602223 7.448370773e-39
0.2909884443 0.17720382 0.7116012023 7.723524134e-39
0.2909884443 0.17720382 0.7100735723 7.539500015e-39
0.2909884443 0.17720382 0.7085459623 7.356545086e-39
0.2909884443 0.17720382 0.7070183223 7.633127771e-39
0.2929884143 0.17764571 0.7046031123 7.907919598e-39
0.2909884443 0.17720382 0.7039630823 7.907563668e-39
0.2909884443 0.17720382 0.7024354723 7.999403368e-39
0.2909884443 0.17720382 0.7009078623 8.0019201e-39
0.2889884043 0.17676191 0.7002830923 8.093033927e-39
0.2889884043 0.17676191 0.6987592923 8.09231366e-39
0.2889884043 0.17676191 0.6972355023 8.092679399e-39
0.2889884043 0.17676191 0.6957116823 8.368553028e-39
0.2909884443 0.17720382 0.6932697423 8.644411242e-39
0.2889884043 0.17676191 0.6926640323 8.644762968e-39
0.2889884043 0.17676191 0.6911402423 8.73731733e-39
0.2909884443 0.17720382 0.6886868823 8.738394929e-39
0.2909884443 0.17720382 0.6871592823 8.737676063e-39
0.2909884443 0.17720382 0.6856316723 8.828794094e-39
0.2909884443 0.17720382 0.6841040323 8.921698781e-39
0.2909884443 0.17720382 0.6825764223 8.923128105e-39
0.2889884043 0.17676191 0.6819973923 8.923486838e-39
0.2889884043 0.17676191 0.6804735723 8.92384557e-39
0.2889884043 0.17676191 0.6789497823 8.923492443e-39
0.2889884043 0.17676191 0.6774259623 8.739469725e-39
0.2889884043 0.17676191 0.6759021323 8.648354496e-39
0.2869884343 0.17632 0.6753459323 8.833104488e-39
0.2889884043 0.17676191 0.6728545523 9.01748734e-39
0.2909884443 0.17720382 0.6703554723 9.0181992e-39
0.2889884043 0.17676191 0.6698069023 9.109321435e-39
0.2909884443 0.17720382 0.6673002323 9.200445071e-39
0.2909884443 0.17720382 0.6657725923 9.38375593e-39
0.2909884443 0.17720382 0.6642449923 9.475231292e-39
