# .PCD v0.7 - Point Cloud Data file format
VERSION 0.7
FIELDS x y z rgb
SIZE 4 4 4 4
TYPE F F F F
COUNT 1 1 1 1
WIDTH 893
HEIGHT 1
VIEWPOINT 0 0 0 1 0 0 0
POINTS 893
DATA ascii
0.2575977818 0.1595679989 0.76800001 1.50008356e-38
0.2575977818 0.1581051489 0.76800001 1.509304104e-38
0.2575977818 0.1566422889 0.76800001 1.500157549e-38
0.2574911188 0.1554556189 0.76700002 1.490972598e-38
0.2574911188 0.1539946689 0.76700002 1.490971337e-38
0.2574911188 0.1525337089 0.76700002 1.500117331e-38
0.2574911188 0.1510727589 0.76700002 1.500079777e-38
0.2574911188 0.1496118089 0.76700002 1.500045445e-38
0.2574911188 0.1481508689 0.76700002 1.490863437e-38
0.2575977818 0.1464022889 0.76800001 1.481643033e-38
0.2578111218 0.1443603689 0.77000004 1.472566122e-38
0.2578111218 0.1428937089 0.77000004 1.472422769e-38
0.2578111218 0.1414270389 0.77000004 1.463167753e-38
0.2578111218 0.1399603789 0.77000004 1.453946509e-38
0.2578111218 0.1384937189 0.77000004 1.444761278e-38
0.2578111218 0.1370270389 0.77000004 1.444726385e-38
0.2578111218 0.1355603789 0.77000004 1.463166212e-38
0.2578111218 0.1340937089 0.77000004 1.481533031e-38
0.2575977818 0.1332365789 0.76800001 1.50908354e-38
0.2575977818 0.1317737089 0.76800001 1.545781304e-38
0.2575977818 0.1303108689 0.76800001 1.509046545e-38
0.2575977818 0.1288480089 0.76800001 1.481532751e-38
0.2575977818 0.1273851389 0.76800001 1.472386055e-38
0.2575977818 0.1259222989 0.76800001 1.463166072e-38
0.2575977818 0.1244594389 0.76800001 1.444798412e-38
0.2578111218 0.1223603689 0.77000004 1.435615703e-38
0.2578111218 0.1208937189 0.77000004 1.408065895e-38
0.2578111218 0.1194270389 0.77000004 1.389734529e-38
0.2578111218 0.1179603689 0.77000004 1.35310795e-38
0.2578111218 0.1164937089 0.77000004 1.316373191e-38
0.2578111218 0.1150270389 0.77000004 1.371473928e-38
0.2578111218 0.1135603789 0.77000004 1.435759617e-38
0.2578111218 0.1120936889 0.77000004 1.454127697e-38
0.2578111218 0.1106270589 0.77000004 1.481569745e-38
0.2578111218 0.1091603689 0.77000004 1.463201805e-38
0.2578111218 0.1076937089 0.77000004 1.444907573e-38
0.2578111218 0.1062270389 0.77000004 1.444765201e-38
0.2578111218 0.1047603789 0.77000004 1.444729048e-38
0.2578111218 0.1032937189 0.77000004 1.435509485e-38
0.2578111218 0.1018270289 0.77000004 1.426469008e-38
0.2578111218 0.1003603689 0.77000004 1.408137361e-38
0.2578111218 0.09889370886 0.77000004 1.389734109e-38
0.2578111218 0.09742703886 0.77000004 1.408065054e-38
0.2578111218 0.09596034886 0.77000004 1.426469568e-38
0.2578111218 0.09449371886 0.77000004 1.42647125e-38
0.2578111218 0.09302705886 0.77000004 1.426398943e-38
0.2578111218 0.09156036886 0.77000004 1.435582072e-38
0.2578111218 0.09009370886 0.77000004 1.453949171e-38
0.2578111218 0.08862703886 0.77000004 1.463132581e-38
0.2578111218 0.08716037886 0.77000004 1.481533732e-38
0.2578111218 0.08569368886 0.77000004 1.490715319e-38
0.2580244538 0.08349180886 0.77200001 1.508904314e-38
0.2580244538 0.08202132886 0.77200001 1.490681968e-38
0.2580244538 0.08055084886 0.77200001 1.47242319e-38
0.2580244538 0.07908040886 0.77200001 1.417286859e-38
0.2580244538 0.07760989886 0.77200001 1.371331837e-38
0.2580244538 0.07613941886 0.77200001 1.417248324e-38
0.2580244538 0.07466894886 0.77200001 1.472387036e-38
0.2580244538 0.07319846886 0.77200001 1.472460464e-38
0.2580244538 0.07172802886 0.77200001 1.472458362e-38
0.2580244538 0.07025751886 0.77200001 1.435686189e-38
0.2580244538 0.06878703886 0.77200001 1.40813638e-38
0.2580244538 0.06731656886 0.77200001 1.43568787e-38
0.2580244538 0.06584608886 0.77200001 1.472387456e-38
0.2581311168 0.06398323886 0.77300006 1.472388858e-38
0.2581311168 0.06251081886 0.77300006 1.472387176e-38
0.2583444488 0.06024607886 0.77500004 1.472421508e-38
0.2583444488 0.05876991886 0.77500004 1.481532751e-38
0.2585577818 0.05649372886 0.77700001 1.463093344e-38
0.2585577818 0.05501371886 0.77700001 1.444617925e-38
0.2585577818 0.05353373886 0.77700001 1.453657281e-38
0.2585577818 0.05205371886 0.77700001 1.472170115e-38
0.2585577818 0.05057370886 0.77700001 1.453876864e-38
0.2587711138 0.04827463886 0.77900004 1.444548841e-38
0.2587711138 0.04679083886 0.77900004 1.453588057e-38
0.2588777838 0.04489371886 0.78000003 1.471776771e-38
0.2588777838 0.04340797886 0.78000003 1.444334722e-38
0.2588777838 0.04192227886 0.78000003 1.425894195e-38
0.2590911238 0.03959846886 0.78200006 1.416852597e-38
0.2590911238 0.03810891886 0.78200006 1.416746238e-38
0.2593044568 0.03577372886 0.78400004 1.40745647e-38
0.2593044568 0.03428035886 0.78400004 1.398307533e-38
0.2593044568 0.03278702886 0.78400004 1.380011059e-38
0.2593044568 0.03129368886 0.78400004 1.370864644e-38
0.2595177818 0.02893942886 0.78600001 1.380085468e-38
0.2595177818 0.02744230886 0.78600001 1.398414732e-38
0.2597311218 0.02507653886 0.78800005 1.370862122e-38
0.2598377838 0.02313941886 0.78900003 1.352351109e-38
0.2598377838 0.02163657886 0.78900003 1.333911843e-38
0.2598377838 0.02013370886 0.78900003 1.315402932e-38
0.2600511168 0.01774704886 0.79100001 1.306149458e-38
0.2600511168 0.01624035886 0.79100001 1.306147496e-38
0.2600511168 0.01473370886 0.79100001 1.269303856e-38
0.2600511168 0.01322707886 0.79100001 1.241683282e-38
0.2602644488 0.01082131886 0.79300004 1.223246258e-38
0.2602644488 0.009310848855 0.79300004 1.214132634e-38
0.2604777818 0.006893698855 0.79500002 1.214202558e-38
0.2606911208 0.004468918855 0.79700005 1.214094799e-38
0.2607977908 0.002493708855 0.79800004 1.18643639e-38
0.2607977908 0.0009737088551 0.79800004 1.158706515e-38
0.2607977908 -0.0005463011449 0.79800004 1.14026795e-38
0.2610111158 -0.002992001145 0.80000001 1.13108454e-38
0.2612244558 -0.005445361145 0.80200005 1.085166932e-38
0.2612244558 -0.006972961145 0.80200005 1.039213311e-38
0.2616511208 -0.01037487114 0.80600005 1.002658478e-38
0.2618644538 -0.01285105114 0.80800003 9.659237195e-39
0.2620777938 -0.01533490114 0.81000006 9.568113559e-39
0.2620777938 -0.01687774114 0.81000006 9.475210273e-39
0.2625044508 -0.02032533114 0.81400001 9.291188956e-39
0.2625044508 -0.02187579114 0.81400001 9.106796295e-39
0.2626111208 -0.02390632114 0.81500006 9.106074626e-39
0.2630377858 -0.02738630114 0.81900007 9.1057229e-39
0.2630377858 -0.02894631114 0.81900007 8.922058915e-39
0.2632511188 -0.03147772114 0.82100004 8.738394929e-39
0.2632511188 -0.03304153114 0.82100004 8.646925171e-39
0.2632511188 -0.03460535114 0.82100004 8.646553827e-39
0.2634644508 -0.03715199114 0.82300001 8.554707121e-39
0.2636777908 -0.03970632114 0.82500005 8.555061649e-39
0.2638911158 -0.04226818114 0.82700002 7.82073361e-39
0.2641044558 -0.04483774114 0.82900006 7.083895845e-39
0.2641044558 -0.04641678114 0.82900006 6.531089206e-39
0.2641044558 -0.04799580114 0.82900006 6.066557364e-39
0.2641044558 -0.04957488114 0.82900006 5.418713262e-39
0.2641044558 -0.05115392114 0.82900006 4.78376671e-39
0.2645311208 -0.05475965114 0.83300006 7.730763242e-39
0.2645311208 -0.05634629114 0.83300006 1.07753476e-38
0.2645311208 -0.05793297114 0.83300006 1.299377263e-38
0.2645311208 -0.05951964114 0.83300006 1.530297797e-38
0.2562377898 0.2316137189 0.74200004 1.481899751e-38
0.2560206428 0.2305699189 0.74000001 1.573051133e-38
0.2562377898 0.2287870489 0.74200004 1.536457905e-38
0.2560206428 0.2277508589 0.74000001 1.499867059e-38
0.2560206428 0.2263413389 0.74000001 1.490934623e-38
0.2562377898 0.2245470489 0.74200004 1.491042943e-38
0.2562377898 0.2231337189 0.74200004 1.472676684e-38
0.2563463598 0.2215241789 0.74300003 1.463527747e-38
0.2565635068 0.2197127689 0.74500006 1.426505301e-38
0.2567806468 0.2178937089 0.74700004 1.380300707e-38
0.2567806468 0.2164708589 0.74700004 1.389376778e-38
0.2567806468 0.2150479989 0.74700004 1.40767143e-38
0.2568892168 0.2134194289 0.74800003 1.398415573e-38
0.2568892168 0.2119946689 0.74800003 1.38919573e-38
0.2568892168 0.2105698889 0.74800003 1.38001176e-38
0.2571063638 0.2087222789 0.75000006 1.370829051e-38
0.2571063638 0.2072937089 0.75000006 1.380013441e-38
0.2568892168 0.2062956289 0.74800003 1.389232864e-38
0.2573235038 0.2040022789 0.75200003 1.45405595e-38
0.2574320738 0.2023508589 0.75300002 1.518342059e-38
0.2573235038 0.2011375289 0.75200003 1.518307447e-38
0.2574320738 0.1994822789 0.75300002 1.527490716e-38
0.2574320738 0.1980479989 0.75300002 1.499903914e-38
0.2574320738 0.1966137189 0.75300002 1.481500661e-38
0.2576492208 0.1947222789 0.75500005 1.453985605e-38
0.2576492208 0.1932841889 0.75500005 1.426506142e-38
0.2576492208 0.1918460889 0.75500005 1.417322032e-38
0.2577577908 0.1901736989 0.75600004 1.417322312e-38
0.2577577908 0.1887337189 0.75600004 1.398883887e-38
0.2577577908 0.1872937089 0.75600004 1.389664464e-38
0.2577577908 0.1858537089 0.75600004 1.343387984e-38
0.2579749298 0.1839299089 0.75800002 1.306295053e-38
0.2581920768 0.1819984689 0.76000005 1.343746856e-38
0.2583006468 0.1803051389 0.76100004 1.380480914e-38
0.2583006468 0.1788556189 0.76100004 1.408139183e-38
0.2583006468 0.1774060889 0.76100004 1.445196101e-38
0.2583006468 0.1759565689 0.76100004 1.45437965e-38
0.2583006468 0.1745070389 0.76100004 1.47274689e-38
0.2583006468 0.1730575189 0.76100004 1.454415944e-38
0.2583006468 0.1716079889 0.76100004 1.444802896e-38
0.2583006468 0.1701584789 0.76100004 1.472390539e-38
0.2583006468 0.1687089489 0.76100004 1.509160191e-38
0.2585177868 0.1667337289 0.76300001 1.500012234e-38
0.2585177868 0.1652803889 0.76300001 1.490863997e-38
0.2587349338 0.1632937089 0.76500005 1.49089931e-38
0.2587349338 0.1618365689 0.76500005 1.490935043e-38
0.2589520738 0.1598384889 0.76700002 1.48171548e-38
0.2589520738 0.1583775289 0.76700002 1.481608981e-38
0.2589520738 0.1569165589 0.76700002 1.472605919e-38
0.2589520738 0.1554556189 0.76700002 1.472748851e-38
0.2589520738 0.1539946689 0.76700002 1.490971897e-38
0.2589520738 0.1525337089 0.76700002 1.518342199e-38
0.2589520738 0.1510727589 0.76700002 1.500045865e-38
0.2589520738 0.1496118089 0.76700002 1.490862456e-38
0.2589520738 0.1481508689 0.76700002 1.490826723e-38
0.2589520738 0.1466899089 0.76700002 1.490825461e-38
0.2592777908 0.1443603689 0.77000004 1.500043623e-38
0.2592777908 0.1428937089 0.77000004 1.509262906e-38
0.2592777908 0.1414270389 0.77000004 1.481497018e-38
0.2592777908 0.1399603789 0.77000004 1.4538728e-38
0.2592777908 0.1384937189 0.77000004 1.453835246e-38
0.2592777908 0.1370270389 0.77000004 1.453837067e-38
0.2592777908 0.1355603789 0.77000004 1.463022579e-38
0.2592777908 0.1340937089 0.77000004 1.481425972e-38
0.2590606438 0.1332365789 0.76800001 1.499793631e-38
0.2590606438 0.1317737089 0.76800001 1.52734372e-38
0.2590606438 0.1303108689 0.76800001 1.499792651e-38
0.2590606438 0.1288480089 0.76800001 1.481425551e-38
0.2590606438 0.1273851389 0.76800001 1.472385495e-38
0.2590606438 0.1259222989 0.76800001 1.472384514e-38
0.2590606438 0.1244594389 0.76800001 1.454016574e-38
0.2590606438 0.1229965889 0.76800001 1.444906172e-38
0.2590606438 0.1215337089 0.76800001 1.426432994e-38
0.2592777908 0.1194270389 0.77000004 1.398918079e-38
0.2592777908 0.1179603689 0.77000004 1.380586853e-38
0.2592777908 0.1164937089 0.77000004 1.362290659e-38
0.2592777908 0.1150270389 0.77000004 1.398988284e-38
0.2592777908 0.1135603789 0.77000004 1.435723603e-38
0.2592777908 0.1120936889 0.77000004 1.444836667e-38
0.2592777908 0.1106270589 0.77000004 1.463130199e-38
0.2592777908 0.1091603689 0.77000004 1.444833024e-38
0.2592777908 0.1076937089 0.77000004 1.435759056e-38
0.2592777908 0.1062270389 0.77000004 1.444765341e-38
0.2592777908 0.1047603789 0.77000004 1.463132441e-38
0.2592777908 0.1032937189 0.77000004 1.444765482e-38
0.2592777908 0.1018270289 0.77000004 1.435617245e-38
0.2592777908 0.1003603689 0.77000004 1.426433134e-38
0.2592777908 0.09889370886 0.77000004 1.417285738e-38
0.2592777908 0.09742703886 0.77000004 1.426433835e-38
0.2592777908 0.09596034886 0.77000004 1.435653678e-38
0.2592777908 0.09449371886 0.77000004 1.444837648e-38
0.2592777908 0.09302705886 0.77000004 1.463130759e-38
0.2592777908 0.09156036886 0.77000004 1.463128657e-38
0.2590606438 0.09081369886 0.76800001 1.462951113e-38
0.2590606438 0.08935087886 0.76800001 1.472280117e-38
0.2590606438 0.08788800886 0.76800001 1.490754275e-38
0.2592777908 0.08569368886 0.77000004 1.518161011e-38
0.2592777908 0.08422705886 0.77000004 1.545640334e-38
0.2592777908 0.08276036886 0.77000004 1.518233738e-38
0.2592777908 0.08129370886 0.77000004 1.49079141e-38
0.2594949308 0.07908040886 0.77200001 1.463241462e-38
0.2594949308 0.07760989886 0.77200001 1.435725145e-38
0.2594949308 0.07613941886 0.77200001 1.463202506e-38
0.2594949308 0.07466894886 0.77200001 1.481642052e-38
0.2594949308 0.07319846886 0.77200001 1.481642753e-38
0.2594949308 0.07172802886 0.77200001 1.481642472e-38
0.2594949308 0.07025751886 0.77200001 1.463275233e-38
0.2594949308 0.06878703886 0.77200001 1.444908134e-38
0.2592777908 0.06809371886 0.77000004 1.454019937e-38
0.2592777908 0.06662702886 0.77000004 1.472351583e-38
0.2596035078 0.06398323886 0.77300006 1.472387877e-38
0.2596035078 0.06251081886 0.77300006 1.472494376e-38
0.2598206478 0.06024607886 0.77500004 1.481676804e-38
0.2598206478 0.05876991886 0.77500004 1.490859373e-38
0.2600377868 0.05649372886 0.77700001 1.472276053e-38
0.2600377868 0.05501371886 0.77700001 1.453800213e-38
0.2600377868 0.05353373886 0.77700001 1.444615543e-38
0.2600377868 0.05205371886 0.77700001 1.444655199e-38
0.2600377868 0.05057370886 0.77700001 1.417108474e-38
0.2602549348 0.04827463886 0.77900004 1.38941209e-38
0.2602549348 0.04679083886 0.77900004 1.444403666e-38
0.2602549348 0.04530700886 0.77900004 1.508509848e-38
0.2602549348 0.04382324886 0.77900004 1.462628814e-38
0.2603635048 0.04192227886 0.78000003 1.416744977e-38
0.2603635048 0.04043656886 0.78000003 1.398375916e-38
0.2605806518 0.03810891886 0.78200006 1.389121881e-38
0.2605806518 0.03661939886 0.78200006 1.379939593e-38
0.2605806518 0.03512987886 0.78200006 1.370755903e-38
0.2607977908 0.03278702886 0.78400004 1.370684157e-38
0.2607977908 0.03129368886 0.78400004 1.361395229e-38
0.2610149308 0.02893942886 0.78600001 1.389199233e-38
0.2610149308 0.02744230886 0.78600001 1.407491783e-38
0.2612320778 0.02507653886 0.78800005 1.370718909e-38
0.2613406478 0.02313941886 0.78900003 1.333948277e-38
0.2613406478 0.02163657886 0.78900003 1.315544884e-38
0.2613406478 0.02013370886 0.78900003 1.297144714e-38
0.2615577878 0.01774704886 0.79100001 1.278636924e-38
0.2615577878 0.01624035886 0.79100001 1.260266322e-38
0.2615577878 0.01473370886 0.79100001 1.241859986e-38
0.2615577878 0.01322707886 0.79100001 1.223459676e-38
0.2617749348 0.01082131886 0.79300004 1.205131253e-38
0.2617749348 0.009310848855 0.79300004 1.195981054e-38
0.2619920748 0.006893698855 0.79500002 1.186543869e-38
0.2622092218 0.004468918855 0.79700005 1.17714508e-38
0.2622092218 0.002950848855 0.79700005 1.149522685e-38
0.2623177918 0.0009737088551 0.79800004 1.121936724e-38
0.2623177918 -0.0005463011449 0.79800004 1.103534312e-38
0.2625349318 -0.002992001145 0.80000001 1.085023719e-38
0.2627520788 -0.005445361145 0.80200005 1.039177858e-38
0.2627520788 -0.006972961145 0.80200005 9.932964035e-39
0.2629692178 -0.009437741145 0.80400002 9.566702451e-39
0.2634034978 -0.01285105114 0.80800003 9.291543485e-39
0.2638377848 -0.01627963114 0.81200004 9.107862683e-39
0.2638377848 -0.01782628114 0.81200004 9.016391525e-39
0.2640549238 -0.02032533114 0.81400001 8.738379514e-39
0.2641635018 -0.02235394114 0.81500006 8.551481332e-39
0.2641635018 -0.02390632114 0.81500006 8.644395828e-39
0.2648149278 -0.02835011114 0.82100004 8.737313126e-39
0.2645977888 -0.02894631114 0.81900007 8.368901951e-39
0.2648149278 -0.03147772114 0.82100004 8.000842502e-39
0.2650320678 -0.03401675114 0.82300001 7.909365738e-39
0.2652492148 -0.03656342114 0.82500005 7.818233693e-39
0.2652492148 -0.03813487114 0.82500005 7.816068687e-39
0.2654663548 -0.04069295114 0.82700002 7.722077994e-39
0.2656835018 -0.04325866114 0.82900006 7.629522231e-39
0.2656835018 -0.04483774114 0.82900006 7.629163498e-39
0.2656835018 -0.04641678114 0.82900006 8.545007333e-39
0.2656835018 -0.04799580114 0.82900006 9.460910022e-39
0.2656835018 -0.04957488114 0.82900006 1.003278973e-38
0.2656835018 -0.05115392114 0.82900006 1.060462741e-38
0.2576511208 0.2316137189 0.74200004 1.416856661e-38
0.2574301658 0.2305699189 0.74000001 1.490181284e-38
0.2573196888 0.2293470389 0.73900002 1.480854102e-38
0.2574301658 0.2277508589 0.74000001 1.481212974e-38
0.2574301658 0.2263413389 0.74000001 1.472567663e-38
0.2574301658 0.2249318289 0.74000001 1.472603677e-38
0.2574301658 0.2235222789 0.74000001 1.47263969e-38
0.2576511208 0.2217203889 0.74200004 1.472602696e-38
0.2576511208 0.2203070389 0.74200004 1.435831503e-38
0.2579825518 0.2182937189 0.74500006 1.398738572e-38
0.2582035068 0.2164708589 0.74700004 1.389447543e-38
0.2582035068 0.2150479989 0.74700004 1.389160277e-38
0.2582035068 0.2136251489 0.74700004 1.361573615e-38
0.2583139758 0.2119946689 0.74800003 1.334094432e-38
0.2583139758 0.2105698889 0.74800003 1.325018362e-38
0.2583139758 0.2091451489 0.74800003 1.325018782e-38
0.2583139758 0.2077203889 0.74800003 1.288285144e-38
0.2583139758 0.2062956289 0.74800003 1.251407733e-38
0.2585349308 0.2044365589 0.75000006 1.362256327e-38
0.2587558778 0.2025699089 0.75200003 1.481571707e-38
0.2587558778 0.2011375289 0.75200003 1.481572828e-38
0.2588663548 0.1994822789 0.75300002 1.490720644e-38
0.2588663548 0.1980479989 0.75300002 1.472353545e-38
0.2588663548 0.1966137189 0.75300002 1.463169435e-38
0.2590873168 0.1947222789 0.75500005 1.426506563e-38
0.2590873168 0.1932841889 0.75500005 1.398954933e-38
0.2590873168 0.1918460889 0.75500005 1.389842289e-38
0.2590873168 0.1904079989 0.75500005 1.389698796e-38
0.2590873168 0.1889698989 0.75500005 1.37126009e-38
0.2591977868 0.1872937089 0.75600004 1.361861441e-38
0.2591977868 0.1858537089 0.75600004 1.352319299e-38
0.2594187338 0.1839299089 0.75800002 1.343064003e-38
0.2596396878 0.1819984689 0.76000005 1.343566369e-38
0.2596396878 0.1805508489 0.76000005 1.352929565e-38
0.2596396878 0.1791032389 0.76000005 1.380695734e-38
0.2597501648 0.1774060889 0.76100004 1.408246523e-38
0.2597501648 0.1759565689 0.76100004 1.417430352e-38
0.2597501648 0.1745070389 0.76100004 1.426649775e-38
0.2597501648 0.1730575189 0.76100004 1.426721522e-38
0.2597501648 0.1716079889 0.76100004 1.435618646e-38
0.2597501648 0.1701584789 0.76100004 1.444910516e-38
0.2597501648 0.1687089489 0.76100004 1.463241602e-38
0.2597501648 0.1672594289 0.76100004 1.472532771e-38
0.2599711198 0.1652803889 0.76300001 1.481751633e-38
0.2599711198 0.1638270489 0.76300001 1.481786946e-38
0.2601920738 0.1618365689 0.76500005 1.481750372e-38
0.2601920738 0.1603794289 0.76500005 1.463382713e-38
0.2601920738 0.1589222889 0.76500005 1.454199864e-38
0.2601920738 0.1574651489 0.76500005 1.454236437e-38
0.2601920738 0.1560079889 0.76500005 1.463419847e-38
0.2601920738 0.1545508389 0.76500005 1.500153905e-38
0.2601920738 0.1530936989 0.76500005 1.53674419e-38
0.2604130208 0.1510727589 0.76700002 1.509228854e-38
0.2604130208 0.1496118089 0.76700002 1.48171548e-38
0.2604130208 0.1481508689 0.76700002 1.490972037e-38
0.2604130208 0.1466899089 0.76700002 1.509121935e-38
0.2605234978 0.1449394389 0.76800001 1.527522806e-38
0.2607444598 0.1428937089 0.77000004 1.555001428e-38
0.2605234978 0.1420137189 0.76800001 1.509047526e-38
0.2607444598 0.1399603789 0.77000004 1.462985585e-38
0.2605234978 0.1390880089 0.76800001 1.462841391e-38
0.2607444598 0.1370270389 0.77000004 1.472169835e-38
0.2607444598 0.1355603789 0.77000004 1.472207109e-38
0.2605234978 0.1346994389 0.76800001 1.481391079e-38
0.2605234978 0.1332365789 0.76800001 1.499758459e-38
0.2605234978 0.1317737089 0.76800001 1.518161852e-38
0.2605234978 0.1303108689 0.76800001 1.499831046e-38
0.2605234978 0.1288480089 0.76800001 1.481498839e-38
0.2605234978 0.1273851389 0.76800001 1.481569745e-38
0.2605234978 0.1259222989 0.76800001 1.481570025e-38
0.2605234978 0.1244594389 0.76800001 1.472422629e-38
0.2605234978 0.1229965889 0.76800001 1.46323922e-38
0.2605234978 0.1215337089 0.76800001 1.435616964e-38
0.2605234978 0.1200708489 0.76800001 1.417250145e-38
0.2605234978 0.1186080189 0.76800001 1.417250566e-38
0.2605234978 0.1171451589 0.76800001 1.417249585e-38
0.2605234978 0.1156822789 0.76800001 1.426468027e-38
0.2607444598 0.1135603789 0.77000004 1.435689552e-38
0.2607444598 0.1120936889 0.77000004 1.435548301e-38
0.2607444598 0.1106270589 0.77000004 1.444657862e-38
0.2607444598 0.1091603689 0.77000004 1.435436337e-38
0.2607444598 0.1076937089 0.77000004 1.426326496e-38
0.2607444598 0.1062270389 0.77000004 1.453986866e-38
0.2607444598 0.1047603789 0.77000004 1.481500521e-38
0.2607444598 0.1032937189 0.77000004 1.46313216e-38
0.2607444598 0.1018270289 0.77000004 1.444764921e-38
0.2607444598 0.1003603689 0.77000004 1.444800794e-38
0.2607444598 0.09889370886 0.77000004 1.453984624e-38
0.2607444598 0.09742703886 0.77000004 1.444801355e-38
0.2607444598 0.09596034886 0.77000004 1.444838069e-38
0.2607444598 0.09449371886 0.77000004 1.472425432e-38
0.2605234978 0.09373944886 0.76800001 1.509086202e-38
0.2605234978 0.09227657886 0.76800001 1.490681408e-38
0.2605234978 0.09081369886 0.76800001 1.472279977e-38
0.2605234978 0.08935087886 0.76800001 1.481429055e-38
0.2605234978 0.08788800886 0.76800001 1.499723426e-38
0.2605234978 0.08642515886 0.76800001 1.536420631e-38
0.2607444598 0.08422705886 0.77000004 1.582446138e-38
0.2607444598 0.08276036886 0.77000004 1.54581956e-38
0.2607444598 0.08129370886 0.77000004 1.509049768e-38
0.2609654068 0.07908040886 0.77200001 1.509050189e-38
0.2607444598 0.07836037886 0.77000004 1.509049628e-38
0.2609654068 0.07613941886 0.77200001 1.499901391e-38
0.2607444598 0.07542702886 0.77000004 1.499901672e-38
0.2607444598 0.07396036886 0.77000004 1.499901952e-38
0.2607444598 0.07249370886 0.77000004 1.499902092e-38
0.2607444598 0.07102704886 0.77000004 1.490718823e-38
0.2607444598 0.06956034886 0.77000004 1.481642192e-38
0.2607444598 0.06809371886 0.77000004 1.472278716e-38
0.2607444598 0.06662702886 0.77000004 1.47231557e-38
0.2609654068 0.06437563886 0.77200001 1.472388437e-38
0.2607444598 0.06369370886 0.77000004 1.472387456e-38
0.2610758838 0.06103846886 0.77300006 1.481570165e-38
0.2612968308 0.05876991886 0.77500004 1.499865658e-38
0.2612968308 0.05729371886 0.77500004 1.481462826e-38
0.2612968308 0.05581751886 0.77500004 1.463058032e-38
0.2615177858 0.05353373886 0.77700001 1.435469828e-38
0.2615177858 0.05205371886 0.77700001 1.417104691e-38
0.2615177858 0.05057370886 0.77700001 1.371188904e-38
0.2615177858 0.04909369886 0.77700001 1.334309111e-38
0.2617387398 0.04679083886 0.77900004 1.444402125e-38
0.2617387398 0.04530700886 0.77900004 1.554535356e-38
0.2617387398 0.04382324886 0.77900004 1.480997595e-38
0.2618492168 0.04192227886 0.78000003 1.407563249e-38
0.2618492168 0.04043656886 0.78000003 1.389230342e-38
0.2620701718 0.03810891886 0.78200006 1.37082793e-38
0.2620701718 0.03661939886 0.78200006 1.361644941e-38
0.2620701718 0.03512987886 0.78200006 1.352317618e-38
0.2622911258 0.03278702886 0.78400004 1.352281464e-38
0.2622911258 0.03129368886 0.78400004 1.361430822e-38
0.2625120728 0.02893942886 0.78600001 1.389126646e-38
0.2625120728 0.02744230886 0.78600001 1.425715109e-38
0.2627330278 0.02507653886 0.78800005 1.37050395e-38
0.2627330278 0.02357560886 0.78800005 1.315402232e-38
0.2628434968 0.02163657886 0.78900003 1.297034712e-38
0.2628434968 0.02013370886 0.78900003 1.278668874e-38
0.2630644518 0.01774704886 0.79100001 1.2511555e-38
0.2630644518 0.01624035886 0.79100001 1.223567016e-38
0.2630644518 0.01473370886 0.79100001 1.214381644e-38
0.2630644518 0.01322707886 0.79100001 1.205056283e-38
0.2632854058 0.01082131886 0.79300004 1.186619119e-38
0.2632854058 0.009310848855 0.79300004 1.177434028e-38
0.2635063528 0.006893698855 0.79500002 1.159675092e-38
0.2637273078 0.004468918855 0.79700005 1.140411302e-38
0.2638377848 0.002493708855 0.79800004 1.112609681e-38
0.2638377848 0.0009737088551 0.79800004 1.085131759e-38
0.2640587388 -0.001468211145 0.80000001 1.057653978e-38
0.2640587388 -0.002992001145 0.80000001 1.039142685e-38
0.2642796938 -0.005445361145 0.80200005 9.932242366e-39
0.2645006408 -0.007906281145 0.80400002 9.47343763e-39
0.2647216018 -0.01037487114 0.80600005 9.199021352e-39
0.2649425488 -0.01285105114 0.80800003 8.923858182e-39
0.2651635038 -0.01533490114 0.81000006 8.740530508e-39
0.2656054048 -0.01877486114 0.81400001 8.648697814e-39
0.2657158898 -0.02080154114 0.81500006 8.277772709e-39
0.2657158898 -0.02235394114 0.81500006 8.001543151e-39
0.2659368368 -0.02486628114 0.81700003 8.184492474e-39
0.2665996928 -0.02931392114 0.82300001 8.458209505e-39
0.2665996928 -0.03088152114 0.82300001 7.90540707e-39
0.2665996928 -0.03244915114 0.82300001 7.353316494e-39
0.2668206468 -0.03499200114 0.82500005 7.168925234e-39
0.2668206468 -0.03656342114 0.82500005 7.08248754e-39
0.2668206468 -0.03813487114 0.82500005 6.98026562e-39
0.2670415938 -0.04069295114 0.82700002 6.9799209e-39
0.2670415938 -0.04226818114 0.82700002 7.530949291e-39
0.2672625558 -0.04483774114 0.82900006 8.19138406e-39
0.2672625558 -0.04641678114 0.82900006 1.059669466e-38
0.2672625558 -0.04799580114 0.82900006 1.299594464e-38
0.2588396888 0.2319794289 0.74000001 1.288030949e-38
0.2588396888 0.2305699189 0.74000001 1.306149037e-38
0.2588396888 0.2291603689 0.74000001 1.379942395e-38
0.2588396888 0.2277508589 0.74000001 1.462558889e-38
0.2587273118 0.2265318089 0.73900002 1.44440745e-38
0.2588396888 0.2249318289 0.74000001 1.435474452e-38
0.2588396888 0.2235222789 0.74000001 1.426684948e-38
0.2590644588 0.2217203889 0.74200004 1.417428671e-38
0.2591768358 0.2201089589 0.74300003 1.398917098e-38
0.2591768358 0.2186937189 0.74300003 1.371258829e-38
0.2594016048 0.2168746589 0.74500006 1.361644941e-38
0.2596263588 0.2150479989 0.74700004 1.343098615e-38
0.2596263588 0.2136251489 0.74700004 1.324695783e-38
0.2596263588 0.2122022889 0.74700004 1.306221064e-38
0.2596263588 0.2107794189 0.74700004 1.297181148e-38
0.2597387358 0.2091451489 0.74800003 1.288141091e-38
0.2597387358 0.2077203889 0.74800003 1.269738259e-38
0.2597387358 0.2062956289 0.74800003 1.25137158e-38
0.2599635048 0.2044365589 0.75000006 1.334526312e-38
0.2599635048 0.2030079889 0.75000006 1.417250846e-38
0.2601882668 0.2011375289 0.75200003 1.435654799e-38
0.2601882668 0.1997051389 0.75200003 1.453950573e-38
0.2601882668 0.1982727489 0.75200003 1.435583894e-38
0.2603006438 0.1966137189 0.75300002 1.42647125e-38
0.2605254058 0.1947222789 0.75500005 1.3989199e-38
0.2605254058 0.1932841889 0.75500005 1.371332117e-38
0.2605254058 0.1918460889 0.75500005 1.371259109e-38
0.2605254058 0.1904079989 0.75500005 1.362003673e-38
0.2605254058 0.1889698989 0.75500005 1.352819983e-38
0.2605254058 0.1875317989 0.75500005 1.343277842e-38
0.2606377898 0.1858537089 0.75600004 1.324839276e-38
0.2608625438 0.1839299089 0.75800002 1.306364697e-38
0.2610873138 0.1819984689 0.76000005 1.278850062e-38
0.2610873138 0.1805508489 0.76000005 1.251335847e-38
0.2610873138 0.1791032389 0.76000005 1.297792254e-38
0.2610873138 0.1776556089 0.76000005 1.352893972e-38
0.2610873138 0.1762079889 0.76000005 1.371297505e-38
0.2611996908 0.1745070389 0.76100004 1.398883747e-38
0.2611996908 0.1730575189 0.76100004 1.408067156e-38
0.2610873138 0.1718651389 0.76000005 1.417250846e-38
0.2611996908 0.1701584789 0.76100004 1.426434676e-38
0.2611996908 0.1687089489 0.76100004 1.435618366e-38
0.2611996908 0.1672594289 0.76100004 1.435618646e-38
0.2611996908 0.1658098989 0.76100004 1.444155917e-38
0.2614244518 0.1638270489 0.76300001 1.444801075e-38
0.2614244518 0.1623737289 0.76300001 1.454378109e-38
0.2614244518 0.1609203889 0.76300001 1.435938142e-38
0.2616492138 0.1589222889 0.76500005 1.426683126e-38
0.2616492138 0.1574651489 0.76500005 1.426683406e-38
0.2616492138 0.1560079889 0.76500005 1.43590311e-38
0.2616492138 0.1545508389 0.76500005 1.454198883e-38
0.2616492138 0.1530936989 0.76500005 1.481677785e-38
0.2616492138 0.1516365589 0.76500005 1.463167193e-38
0.2616492138 0.1501794189 0.76500005 1.453878546e-38
0.2616492138 0.1487222789 0.76500005 1.463100491e-38
0.2616492138 0.1472651389 0.76500005 1.472317111e-38
0.2618739758 0.1452289589 0.76700002 1.481318492e-38
0.2619863528 0.1434765789 0.76800001 1.490322115e-38
0.2619863528 0.1420137189 0.76800001 1.462842652e-38
0.2619863528 0.1405508589 0.76800001 1.43536403e-38
0.2619863528 0.1390880089 0.76800001 1.444548e-38
0.2619863528 0.1376251489 0.76800001 1.444584854e-38
0.2619863528 0.1361622889 0.76800001 1.453805258e-38
0.2619863528 0.1346994389 0.76800001 1.453841271e-38
0.2619863528 0.1332365789 0.76800001 1.463060974e-38
0.2619863528 0.1317737089 0.76800001 1.472389278e-38
0.2619863528 0.1303108689 0.76800001 1.463242863e-38
0.2619863528 0.1288480089 0.76800001 1.463312788e-38
0.2619863528 0.1273851389 0.76800001 1.481606459e-38
0.2619863528 0.1259222989 0.76800001 1.499903213e-38
0.2619863528 0.1244594389 0.76800001 1.472497599e-38
0.2619863528 0.1229965889 0.76800001 1.454165111e-38
0.2619863528 0.1215337089 0.76800001 1.444800934e-38
0.2619863528 0.1200708489 0.76800001 1.426506282e-38
0.2619863528 0.1186080189 0.76800001 1.426507123e-38
0.2619863528 0.1171451589 0.76800001 1.435474312e-38
0.2619863528 0.1156822789 0.76800001 1.426469008e-38
0.2619863528 0.1142194289 0.76800001 1.426472091e-38
0.2619863528 0.1127565789 0.76800001 1.4264393e-38
0.2622111218 0.1106270589 0.77000004 1.426221538e-38
0.2622111218 0.1091603689 0.77000004 1.426219016e-38
0.2622111218 0.1076937089 0.77000004 1.416965822e-38
0.2622111218 0.1062270389 0.77000004 1.453881489e-38
0.2622111218 0.1047603789 0.77000004 1.499904334e-38
0.2622111218 0.1032937189 0.77000004 1.47231543e-38
0.2622111218 0.1018270289 0.77000004 1.444729188e-38
0.2622111218 0.1003603689 0.77000004 1.463168454e-38
0.2622111218 0.09889370886 0.77000004 1.490755256e-38
0.2622111218 0.09742703886 0.77000004 1.444801915e-38
0.2619863528 0.09666514886 0.76800001 1.398957175e-38
0.2619863528 0.09520226886 0.76800001 1.435692634e-38
0.2619863528 0.09373944886 0.76800001 1.472425432e-38
0.2619863528 0.09227657886 0.76800001 1.463168874e-38
0.2618739758 0.09117370886 0.76700002 1.463133982e-38
0.2619863528 0.08935087886 0.76800001 1.481466329e-38
0.2619863528 0.08788800886 0.76800001 1.499795874e-38
0.2619863528 0.08642515886 0.76800001 1.490646656e-38
0.2619863528 0.08496227886 0.76800001 1.481498559e-38
0.2619863528 0.08349943886 0.76800001 1.490681828e-38
0.2619863528 0.08203658886 0.76800001 1.508977041e-38
0.2622111218 0.07982703886 0.77000004 1.518160591e-38
0.2622111218 0.07836037886 0.77000004 1.527380434e-38
0.2622111218 0.07689371886 0.77000004 1.508978022e-38
0.2622111218 0.07542702886 0.77000004 1.499794332e-38
0.2622111218 0.07396036886 0.77000004 1.508977742e-38
0.2622111218 0.07249370886 0.77000004 1.518197725e-38
0.2622111218 0.07102704886 0.77000004 1.499938806e-38
0.2622111218 0.06956034886 0.77000004 1.472458642e-38
0.2622111218 0.06809371886 0.77000004 1.463345578e-38
0.2622111218 0.06662702886 0.77000004 1.44508778e-38
0.2624358758 0.06437563886 0.77200001 1.454021899e-38
0.2624358758 0.06290513886 0.77200001 1.472029565e-38
0.2625482608 0.06103846886 0.77300006 1.49046785e-38
0.2627730218 0.05876991886 0.77500004 1.518091366e-38
0.2627730218 0.05729371886 0.77500004 1.490613725e-38
0.2629977838 0.05501371886 0.77700001 1.453913018e-38
0.2629977838 0.05353373886 0.77700001 1.435507663e-38
0.2629977838 0.05205371886 0.77700001 1.408028761e-38
0.2629977838 0.05057370886 0.77700001 1.389661802e-38
0.2632225528 0.04827463886 0.77900004 1.362145064e-38
0.2632225528 0.04679083886 0.77900004 1.426176977e-38
0.2632225528 0.04530700886 0.77900004 1.481174579e-38
0.2632225528 0.04382324886 0.77900004 1.444336824e-38
0.2633349298 0.04192227886 0.78000003 1.398381662e-38
0.2633349298 0.04043656886 0.78000003 1.380013161e-38
0.2635596988 0.03810891886 0.78200006 1.361645782e-38
0.2635596988 0.03661939886 0.78200006 1.352390345e-38
0.2635596988 0.03512987886 0.78200006 1.343098756e-38
0.2637844528 0.03278702886 0.78400004 1.342990715e-38
0.2637844528 0.03129368886 0.78400004 1.34291995e-38
0.2640092148 0.02893942886 0.78600001 1.351961128e-38
0.2640092148 0.02744230886 0.78600001 1.370183052e-38
0.2640092148 0.02594512886 0.78600001 1.333518919e-38
0.2640092148 0.02444800886 0.78600001 1.28770851e-38
0.2642339838 0.02207466886 0.78800005 1.269341131e-38
0.2643463608 0.02013370886 0.78900003 1.250973751e-38
0.2645711158 0.01774704886 0.79100001 1.223566455e-38
0.2645711158 0.01624035886 0.79100001 1.205198936e-38
0.2645711158 0.01473370886 0.79100001 1.195943359e-38
0.2645711158 0.01322707886 0.79100001 1.186688764e-38
0.2647958848 0.01082131886 0.79300004 1.168178872e-38
0.2647958848 0.009310848855 0.79300004 1.158922875e-38
0.2650206458 0.006893698855 0.79500002 1.12211623e-38
0.2652454078 0.004468918855 0.79700005 1.094529848e-38
0.2652454078 0.002950848855 0.79700005 1.057544817e-38
0.2653577848 0.0009737088551 0.79800004 1.02988809e-38
0.2653577848 -0.0005463011449 0.79800004 1.002374856e-38
0.2655825468 -0.002992001145 0.80000001 9.840781016e-39
0.2658073078 -0.005445361145 0.80200005 9.473066286e-39
0.2660320698 -0.007906281145 0.80400002 9.197582219e-39
0.2662568388 -0.01037487114 0.80600005 9.014652513e-39
0.2664815928 -0.01285105114 0.80800003 8.922437265e-39
0.2664815928 -0.01439008114 0.80800003 8.463957631e-39
0.2671558778 -0.01877486114 0.81400001 8.005499016e-39
0.2671558778 -0.02032533114 0.81400001 7.542018148e-39
0.2677177858 -0.02426630114 0.81900007 7.170717495e-39
0.2679425478 -0.02678629114 0.82100004 7.354018545e-39
0.2681673018 -0.02931392114 0.82300001 7.53769234e-39
0.2681673018 -0.03088152114 0.82300001 8.268791787e-39
0.2683920708 -0.03342059114 0.82500005 9.000242961e-39
0.2690663638 -0.03791773114 0.83100003 9.556273988e-39
0.2690663638 -0.03950056114 0.83100003 1.020419096e-38
0.2690663638 -0.04108345114 0.83100003 1.095076074e-38
0.2686168328 -0.04069295114 0.82700002 1.17891492e-38
0.2686168328 -0.04226818114 0.82700002 1.253534484e-38
0.2688416018 -0.04483774114 0.82900006 1.31900497e-38
0.2688416018 -0.04641678114 0.82900006 1.429783359e-38
0.2602492128 0.2319794289 0.74000001 1.158170799e-38
0.2602492128 0.2305699189 0.74000001 1.122334692e-38
0.2602492128 0.2291603689 0.74000001 1.279066142e-38
0.2602492128 0.2277508589 0.74000001 1.444119063e-38
0.2602492128 0.2263413389 0.74000001 1.425859863e-38
0.2602492128 0.2249318289 0.74000001 1.407528357e-38
0.2602492128 0.2235222789 0.74000001 1.389950329e-38
0.2604777888 0.2217203889 0.74200004 1.371331276e-38
0.2604777888 0.2203070389 0.74200004 1.361895913e-38
0.2605920728 0.2186937189 0.74300003 1.352461111e-38
0.2605920728 0.2172784689 0.74300003 1.324695223e-38
0.2608206498 0.2154556289 0.74500006 1.306327563e-38
0.2610492188 0.2136251489 0.74700004 1.287959903e-38
0.2610492188 0.2122022889 0.74700004 1.278668874e-38
0.2610492188 0.2107794189 0.74700004 1.269449731e-38
0.2611634958 0.2091451489 0.74800003 1.260302615e-38
0.2611634958 0.2077203889 0.74800003 1.251191373e-38
0.2611634958 0.2062956289 0.74800003 1.251299413e-38
0.2613920798 0.2044365589 0.75000006 1.297612187e-38
0.2613920798 0.2030079889 0.75000006 1.352857398e-38
0.2616206478 0.2011375289 0.75200003 1.3805521e-38
0.2616206478 0.1997051389 0.75200003 1.417214973e-38
0.2616206478 0.1982727489 0.75200003 1.408031984e-38
0.2617349248 0.1966137189 0.75300002 1.398954933e-38
0.2617349248 0.1951794389 0.75300002 1.371439036e-38
0.2617349248 0.1937451589 0.75300002 1.352856277e-38
0.2619635018 0.1918460889 0.75500005 1.343636574e-38
0.2619635018 0.1904079989 0.75500005 1.3436e-38
0.2619635018 0.1889698989 0.75500005 1.33441589e-38
0.2619635018 0.1875317989 0.75500005 1.324981087e-38
0.2619635018 0.1860937089 0.75500005 1.297358552e-38
0.2620777858 0.1844137089 0.75600004 1.278883693e-38
0.2623063548 0.1824860889 0.75800002 1.214562832e-38
0.2625349318 0.1805508489 0.76000005 1.150422599e-38
0.2625349318 0.1791032389 0.76000005 1.224107496e-38
0.2625349318 0.1776556089 0.76000005 1.30683161e-38
0.2625349318 0.1762079889 0.76000005 1.334490299e-38
0.2625349318 0.1747603789 0.76000005 1.371224217e-38
0.2626492158 0.1730575189 0.76100004 1.389591036e-38
0.2625349318 0.1718651389 0.76000005 1.407921842e-38
0.2626492158 0.1701584789 0.76100004 1.407921421e-38
0.2626492158 0.1687089489 0.76100004 1.417069098e-38
0.2626492158 0.1672594289 0.76100004 1.407885548e-38
0.2626492158 0.1658098989 0.76100004 1.407849675e-38
0.2628777768 0.1638270489 0.76300001 1.416997491e-38
0.2628777768 0.1623737289 0.76300001 1.43547193e-38
0.2628777768 0.1609203889 0.76300001 1.417248043e-38
0.2628777768 0.1594670489 0.76300001 1.398665845e-38
0.2628777768 0.1580137189 0.76300001 1.398486619e-38
0.2628777768 0.1565603789 0.76300001 1.407598702e-38
0.2628777768 0.1551070589 0.76300001 1.416710786e-38
0.2628777768 0.1536537189 0.76300001 1.425966502e-38
0.2631063538 0.1516365589 0.76500005 1.426074542e-38
0.2631063538 0.1501794189 0.76500005 1.426183423e-38
0.2631063538 0.1487222789 0.76500005 1.426328317e-38
0.2631063538 0.1472651389 0.76500005 1.435294666e-38
0.2633349298 0.1452289589 0.76700002 1.435041731e-38
0.2634492148 0.1434765789 0.76800001 1.435112357e-38
0.2634492148 0.1420137189 0.76800001 1.425999573e-38
0.2634492148 0.1405508589 0.76800001 1.416781551e-38
0.2634492148 0.1390880089 0.76800001 1.416747079e-38
0.2634492148 0.1376251489 0.76800001 1.426075383e-38
0.2634492148 0.1361622889 0.76800001 1.42625601e-38
0.2634492148 0.1346994389 0.76800001 1.435437738e-38
0.2634492148 0.1332365789 0.76800001 1.426360127e-38
0.2634492148 0.1317737089 0.76800001 1.426361808e-38
0.2634492148 0.1303108689 0.76800001 1.435762279e-38
0.2634492148 0.1288480089 0.76800001 1.454091964e-38
0.2634492148 0.1273851389 0.76800001 1.481641211e-38
0.2634492148 0.1259222989 0.76800001 1.518412404e-38
0.2634492148 0.1244594389 0.76800001 1.481751073e-38
0.2634492148 0.1229965889 0.76800001 1.45405553e-38
0.2634492148 0.1215337089 0.76800001 1.444798692e-38
0.2634492148 0.1200708489 0.76800001 1.444835827e-38
0.2634492148 0.1186080189 0.76800001 1.444944708e-38
0.2634492148 0.1171451589 0.76800001 1.454054969e-38
0.2634492148 0.1156822789 0.76800001 1.435650315e-38
0.2634492148 0.1142194289 0.76800001 1.426469428e-38
0.2634492148 0.1127565789 0.76800001 1.417324554e-38
0.2634492148 0.1112937389 0.76800001 1.41717952e-38
0.2634492148 0.1098308589 0.76800001 1.417034486e-38
0.2634492148 0.1083680089 0.76800001 1.417035747e-38
0.2634492148 0.1069051689 0.76800001 1.462990629e-38
0.2634492148 0.1054422889 0.76800001 1.518089825e-38
0.2634492148 0.1039794089 0.76800001 1.481389398e-38
0.2636777838 0.1018270289 0.77000004 1.45383973e-38
0.2634492148 0.1010537189 0.76800001 1.490718542e-38
0.2634492148 0.09959083886 0.76800001 1.527453161e-38
0.2634492148 0.09812802886 0.76800001 1.444765902e-38
0.2634492148 0.09666514886 0.76800001 1.362258009e-38
0.2634492148 0.09520226886 0.76800001 1.398992628e-38
0.2634492148 0.09373944886 0.76800001 1.435689972e-38
0.2634492148 0.09227657886 0.76800001 1.444872541e-38
0.2634492148 0.09081369886 0.76800001 1.45394791e-38
0.2634492148 0.08935087886 0.76800001 1.472601575e-38
0.2634492148 0.08788800886 0.76800001 1.500080477e-38
0.2634492148 0.08642515886 0.76800001 1.435759897e-38
0.2634492148 0.08496227886 0.76800001 1.380515246e-38
0.2634492148 0.08349943886 0.76800001 1.44487212e-38
0.2634492148 0.08203658886 0.76800001 1.509156547e-38
0.2636777838 0.07982703886 0.77000004 1.527523086e-38
0.2634492148 0.07911086886 0.76800001 1.555074716e-38
0.2636777838 0.07689371886 0.77000004 1.527560921e-38
0.2636777838 0.07542702886 0.77000004 1.499973558e-38
0.2636777838 0.07396036886 0.77000004 1.518339957e-38
0.2636777838 0.07249370886 0.77000004 1.545890045e-38
0.2636777838 0.07102704886 0.77000004 1.509155286e-38
0.2636777838 0.06956034886 0.77000004 1.472385495e-38
0.2636777838 0.06809371886 0.77000004 1.445122112e-38
0.2636777838 0.06662702886 0.77000004 1.426612781e-38
0.2639063518 0.06437563886 0.77200001 1.444873522e-38
0.2639063518 0.06290513886 0.77200001 1.472136764e-38
0.2640206518 0.06103846886 0.77300006 1.508870542e-38
0.2640206518 0.05956608886 0.77300006 1.545676767e-38
0.2642492208 0.05729371886 0.77500004 1.499795173e-38
0.2642492208 0.05581751886 0.77500004 1.453839309e-38
0.2644777818 0.05353373886 0.77700001 1.426250545e-38
0.2644777818 0.05205371886 0.77700001 1.407991907e-38
0.2644777818 0.05057370886 0.77700001 1.398916817e-38
0.2644777818 0.04909369886 0.77700001 1.39884423e-38
0.2644777818 0.04761370886 0.77700001 1.407991066e-38
0.2647063588 0.04530700886 0.77900004 1.416962038e-38
0.2647063588 0.04382324886 0.77900004 1.407673532e-38
0.2647063588 0.04233941886 0.77900004 1.398344948e-38
0.2648206428 0.04043656886 0.78000003 1.370828631e-38
0.2648206428 0.03895086886 0.78000003 1.352389224e-38
0.2648206428 0.03746515886 0.78000003 1.343169241e-38
0.2650492188 0.03512987886 0.78200006 1.343133368e-38
0.2650492188 0.03364035886 0.78200006 1.333698845e-38
0.2652777878 0.03129368886 0.78400004 1.324515716e-38
0.2652777878 0.02980038886 0.78400004 1.324516277e-38
0.2655063568 0.02744230886 0.78600001 1.324299916e-38
0.2655063568 0.02594512886 0.78600001 1.296748146e-38
0.2655063568 0.02444800886 0.78600001 1.26923295e-38
0.2655063568 0.02295085886 0.78600001 1.241717895e-38
0.2657349338 0.02057367886 0.78800005 1.223422542e-38
0.2657349338 0.01907274886 0.78800005 1.205163062e-38
0.2660777788 0.01624035886 0.79100001 1.195872033e-38
0.2660777788 0.01473370886 0.79100001 1.177433328e-38
0.2660777788 0.01322707886 0.79100001 1.168179573e-38
0.2663063558 0.01082131886 0.79300004 1.158925818e-38
0.2665349248 0.008407978855 0.79500002 1.149704854e-38
0.2667635008 0.005987048855 0.79700005 1.094386915e-38
0.2668777858 0.004013688855 0.79800004 1.04861266e-38
0.2668777858 0.002493708855 0.79800004 1.011663363e-38
0.2671063538 5.561885505e-05 0.80000001 9.748219648e-39
0.2671063538 -0.001468211145 0.80000001 9.473076095e-39
0.2673349308 -0.003917751145 0.80200005 9.289040765e-39
0.2680206448 -0.008233901145 0.80800003 9.105365569e-39
0.2677920758 -0.008839631145 0.80600005 8.922419048e-39
0.2680206448 -0.01131200114 0.80800003 8.92314352e-39
0.2684777828 -0.01473295114 0.81200004 8.921698781e-39
0.2687063518 -0.01722440114 0.81400001 8.185570073e-39
0.2692777888 -0.02114629114 0.81900007 7.446222582e-39
0.2695063578 -0.02365869114 0.82100004 6.890904816e-39
0.2695063578 -0.02522251114 0.82100004 6.338479331e-39
0.2697349268 -0.02774626114 0.82300001 6.428900917e-39
0.2697349268 -0.02931392114 0.82300001 6.621191296e-39
0.2697349268 -0.03088152114 0.82300001 8.650190197e-39
0.2699635028 -0.03342059114 0.82500005 1.067847303e-38
0.2708777858 -0.03889298114 0.83300006 1.197243204e-38
0.2708777858 -0.04047963114 0.83300006 1.336004962e-38
0.2706492098 -0.04108345114 0.83100003 1.50231737e-38
0.2616587358 0.2319794289 0.74000001 1.14877299e-38
0.2616587358 0.2305699189 0.74000001 1.11300779e-38
0.2615425508 0.2293470389 0.73900002 1.241793144e-38
0.2615425508 0.2279394289 0.73900002 1.379797501e-38
0.2615425508 0.2265318089 0.73900002 1.361322782e-38
0.2616587358 0.2249318289 0.74000001 1.342884077e-38
0.2616587358 0.2235222789 0.74000001 1.33405954e-38
0.2618911188 0.2217203889 0.74200004 1.325234022e-38
0.2618911188 0.2203070389 0.74200004 1.324838856e-38
0.2620073108 0.2186937189 0.74300003 1.315332167e-38
0.2622396948 0.2168746589 0.74500006 1.29710842e-38
0.2622396948 0.2154556289 0.74500006 1.279170539e-38
0.2624720708 0.2136251489 0.74700004 1.260371699e-38
0.2624720708 0.2122022889 0.74700004 1.251116684e-38
0.2625882628 0.2105698889 0.74800003 1.241897681e-38
0.2625882628 0.2091451489 0.74800003 1.241934675e-38
0.2625882628 0.2077203889 0.74800003 1.24197167e-38
0.2625882628 0.2062956289 0.74800003 1.242043696e-38
0.2625882628 0.2048708489 0.74800003 1.278921668e-38
0.2628206458 0.2030079889 0.75000006 1.315835233e-38
0.2630530228 0.2011375289 0.75200003 1.334417712e-38
0.2630530228 0.1997051389 0.75200003 1.362040667e-38
0.2630530228 0.1982727489 0.75200003 1.362148848e-38
0.2630530228 0.1968403789 0.75200003 1.362290799e-38
0.2631692138 0.1951794389 0.75300002 1.334559383e-38
0.2631692138 0.1937451589 0.75300002 1.306865802e-38
0.2634015978 0.1918460889 0.75500005 1.306866362e-38
0.2634015978 0.1904079989 0.75500005 1.306865241e-38
0.2634015978 0.1889698989 0.75500005 1.297573091e-38
0.2634015978 0.1875317989 0.75500005 1.288317234e-38
0.2635177818 0.1858537089 0.75600004 1.269841955e-38
0.2635177818 0.1844137089 0.75600004 1.260586238e-38
0.2637501658 0.1824860889 0.75800002 1.223887493e-38
0.2637501658 0.1810422889 0.75800002 1.196482158e-38
0.2637501658 0.1795984789 0.75800002 1.242365995e-38
0.2639825568 0.1776556089 0.76000005 1.279100474e-38
0.2639825568 0.1762079889 0.76000005 1.306794896e-38
0.2639825568 0.1747603789 0.76000005 1.343421194e-38
0.2639825568 0.1733127589 0.76000005 1.343385041e-38
0.2639825568 0.1718651389 0.76000005 1.343348047e-38
0.2640987408 0.1701584789 0.76100004 1.352673968e-38
0.2640987408 0.1687089489 0.76100004 1.352853194e-38
0.2640987408 0.1672594289 0.76100004 1.352673688e-38
0.2640987408 0.1658098989 0.76100004 1.352530755e-38
0.2643311168 0.1638270489 0.76300001 1.334271977e-38
0.2643311168 0.1623737289 0.76300001 1.325160734e-38
0.2643311168 0.1609203889 0.76300001 1.325125561e-38
0.2643311168 0.1594670489 0.76300001 1.325125561e-38
0.2643311168 0.1580137189 0.76300001 1.343349168e-38
0.2643311168 0.1565603789 0.76300001 1.370684717e-38
0.2643311168 0.1551070589 0.76300001 1.37990442e-38
0.2643311168 0.1536537189 0.76300001 1.389124544e-38
0.2643311168 0.1522003789 0.76300001 1.398452427e-38
0.2645635008 0.1501794189 0.76500005 1.416891413e-38
0.2643311168 0.1492937089 0.76300001 1.416819807e-38
0.2643311168 0.1478403889 0.76300001 1.425930629e-38
0.2647958848 0.1452289589 0.76700002 1.425857901e-38
0.2647958848 0.1437679989 0.76700002 1.425605247e-38
0.2647958848 0.1423070489 0.76700002 1.407559606e-38
0.2647958848 0.1408460889 0.76700002 1.389051396e-38
0.2649120688 0.1390880089 0.76800001 1.398416834e-38
0.2649120688 0.1376251489 0.76800001 1.407565912e-38
0.2649120688 0.1361622889 0.76800001 1.407710946e-38
0.2649120688 0.1346994389 0.76800001 1.417034205e-38
0.2649120688 0.1332365789 0.76800001 1.389515786e-38
0.2649120688 0.1317737089 0.76800001 1.371186662e-38
0.2649120688 0.1303108689 0.76800001 1.407922963e-38
0.2649120688 0.1288480089 0.76800001 1.435508364e-38
0.2649120688 0.1273851389 0.76800001 1.453838469e-38
0.2649120688 0.1259222989 0.76800001 1.472206269e-38
0.2649120688 0.1244594389 0.76800001 1.463095306e-38
0.2649120688 0.1229965889 0.76800001 1.444798272e-38
0.2649120688 0.1215337089 0.76800001 1.44479659e-38
0.2649120688 0.1200708489 0.76800001 1.435542976e-38
0.2649120688 0.1186080189 0.76800001 1.435652417e-38
0.2649120688 0.1171451589 0.76800001 1.435650315e-38
0.2649120688 0.1156822789 0.76800001 1.417316987e-38
0.2649120688 0.1142194289 0.76800001 1.408207426e-38
0.2649120688 0.1127565789 0.76800001 1.398918639e-38
0.2649120688 0.1112937389 0.76800001 1.390057388e-38
0.2649120688 0.1098308589 0.76800001 1.389626489e-38
0.2649120688 0.1083680089 0.76800001 1.389626769e-38
0.2649120688 0.1069051689 0.76800001 1.398667246e-38
0.2649120688 0.1054422889 0.76800001 1.417068537e-38
0.2649120688 0.1039794089 0.76800001 1.426250405e-38
0.2649120688 0.1025165989 0.76800001 1.435435636e-38
0.2649120688 0.1010537189 0.76800001 1.46313146e-38
0.2649120688 0.09959083886 0.76800001 1.499902232e-38
0.2649120688 0.09812802886 0.76800001 1.454057071e-38
0.2649120688 0.09666514886 0.76800001 1.408210789e-38
0.2649120688 0.09520226886 0.76800001 1.426577608e-38
0.2649120688 0.09373944886 0.76800001 1.44497988e-38
0.2649120688 0.09227657886 0.76800001 1.453983503e-38
0.2649120688 0.09081369886 0.76800001 1.4723485e-38
0.2649120688 0.08935087886 0.76800001 1.490892864e-38
0.2649120688 0.08788800886 0.76800001 1.51862456e-38
0.2647958848 0.08679085886 0.76700002 1.472385775e-38
