# .PCD v0.7 - Point Cloud Data file format
VERSION 0.7
FIELDS x y z rgb
SIZE 4 4 4 4
TYPE F F F F
COUNT 1 1 1 1
WIDTH 884
HEIGHT 1
VIEWPOINT 0 0 0 1 0 0 0
POINTS 884
DATA ascii
0.2372389119 0.003345592116 0.73900002 1.380623707e-38
0.2378922379 0.1062522521 0.74500006 1.548705814e-38
0.2381436729 0.1052560621 0.74300003 1.567107526e-38
0.2378922379 0.1034141421 0.74500006 1.567142278e-38
0.2378922379 0.1019951121 0.74500006 1.567139755e-38
0.2378922379 0.1005760521 0.74500006 1.548806007e-38
0.2376408179 0.09871892212 0.74700004 1.530044302e-38
0.2376408179 0.09729605212 0.74700004 1.502134921e-38
0.2376408179 0.09587322212 0.74700004 1.474079945e-38
0.2372636699 0.09377606212 0.75000006 1.390959544e-38
0.2375151049 0.09280084212 0.74800003 1.317058566e-38
0.2372636699 0.09091891212 0.75000006 1.252341278e-38
0.2372636699 0.08949035212 0.75000006 1.187552804e-38
0.2370122429 0.08759702212 0.75200003 1.159498389e-38
0.2370122429 0.08616463212 0.75200003 1.131662436e-38
0.2370122429 0.08473226212 0.75200003 1.085459383e-38
0.2370122429 0.08329987212 0.75200003 1.039361568e-38
0.2370122429 0.08186750212 0.75200003 1.085135263e-38
0.2370122429 0.08043511212 0.75200003 1.132558566e-38
0.2370122429 0.07900273212 0.75200003 1.195622742e-38
0.2368865289 0.07732464212 0.75300002 1.260840294e-38
0.2366351019 0.07539510212 0.75500005 1.325053394e-38
0.2365093809 0.07370750212 0.75600004 1.389374676e-38
0.2362579609 0.07176464212 0.75800002 1.407814082e-38
0.2362579609 0.07032083212 0.75800002 1.435401164e-38
0.2360065259 0.06836654212 0.76000005 1.444621148e-38
0.2360065259 0.06691892212 0.76000005 1.462988667e-38
0.2360065259 0.06547130212 0.76000005 1.435474312e-38
0.2360065259 0.06402367212 0.76000005 1.407923523e-38
0.2360065259 0.06257607212 0.76000005 1.398739693e-38
0.2362579609 0.06165798212 0.75800002 1.398596761e-38
0.2360065259 0.05968082212 0.76000005 1.380158476e-38
0.2360065259 0.05823321212 0.76000005 1.370830172e-38
0.2360065259 0.05678558212 0.76000005 1.352354192e-38
0.2360065259 0.05533796212 0.76000005 1.343099596e-38
0.2360065259 0.05389034212 0.76000005 1.306509592e-38
0.2358808119 0.05216653212 0.76100004 1.26988021e-38
0.2356293849 0.05016084212 0.76300001 1.149486952e-38
0.2356293849 0.04870750212 0.76300001 1.029921161e-38
0.2356293849 0.04725416212 0.76300001 9.930431888e-39
0.2356293849 0.04580083212 0.76300001 9.657816278e-39
0.2356293849 0.04434749212 0.76300001 9.752544055e-39
0.2356293849 0.04289417212 0.76300001 9.934766104e-39
0.2358808119 0.04201987212 0.76100004 9.842200532e-39
0.2358808119 0.04057034212 0.76100004 9.750007704e-39
0.2356293849 0.03853417212 0.76300001 9.750010507e-39
0.2358808119 0.03767129212 0.76100004 9.748931507e-39
0.2360065259 0.03651893212 0.76000005 7.538062282e-39
0.2362579609 0.03566940212 0.75800002 5.423692075e-39
0.2362579609 0.03422559212 0.75800002 7.080675661e-39
0.2365093809 0.03338748212 0.75600004 8.829508756e-39
0.2365093809 0.03194749212 0.75600004 9.844375347e-39
0.2365093809 0.03050750212 0.75600004 1.09474845e-38
0.2366351019 0.02937607212 0.75500005 1.140810532e-38
0.2366351019 0.02793796212 0.75500005 1.196054622e-38
0.2368865289 0.02712464212 0.75300002 1.223747923e-38
0.2368865289 0.02569036212 0.75300002 1.260805261e-38
0.2368865289 0.02425608212 0.75300002 1.269953358e-38
0.2368865289 0.02282178212 0.75300002 1.279135927e-38
0.2368865289 0.02138750212 0.75300002 1.260444987e-38
0.2368865289 0.01995322212 0.75300002 1.242114602e-38
0.2368865289 0.01851891212 0.75300002 1.242151456e-38
0.2410351019 0.02783322212 0.72000003 1.251442906e-38
0.2402808199 0.02449607212 0.72600001 1.251586679e-38
0.2402808199 0.02311322212 0.72600001 1.260842396e-38
0.2402808199 0.02173034212 0.72600001 1.279317675e-38
0.2386465269 0.01601417212 0.73900002 1.307012097e-38
0.2386465269 0.01460653212 0.73900002 1.316267814e-38
0.2386465269 0.01319891212 0.73900002 1.325451223e-38
0.2386465269 0.01179130212 0.73900002 1.343854196e-38
0.2386465269 0.01038368212 0.73900002 1.371404844e-38
0.2388979549 0.009661772116 0.73700005 1.398991367e-38
0.2386465269 0.007568462116 0.73900002 1.426576627e-38
0.2388979549 0.006854162116 0.73700005 1.435830662e-38
0.2390236679 0.005798892116 0.73600006 1.444943867e-38
0.2390236679 0.004397022116 0.73600006 1.408175056e-38
0.2390236679 0.002995112116 0.73600006 1.380770563e-38
0.2395589109 0.1052560621 0.74300003 1.557782024e-38
0.2393112909 0.1034141421 0.74500006 1.557817477e-38
0.2393112909 0.1019951121 0.74500006 1.557889364e-38
0.2393112909 0.1005760521 0.74500006 1.539450658e-38
0.2393112909 0.09915700212 0.74500006 1.521047265e-38
0.2390636709 0.09729605212 0.74700004 1.512114548e-38
0.2390636709 0.09587322212 0.74700004 1.512401114e-38
0.2386922369 0.09377606212 0.75000006 1.466411199e-38
0.2386922369 0.09234748212 0.75000006 1.420417781e-38
0.2386922369 0.09091891212 0.75000006 1.383320926e-38
0.2386922369 0.08949035212 0.75000006 1.355408602e-38
0.2384446239 0.08759702212 0.75200003 1.336464588e-38
0.2384446239 0.08616463212 0.75200003 1.317525899e-38
0.2384446239 0.08473226212 0.75200003 1.280148365e-38
0.2384446239 0.08329987212 0.75200003 1.251984928e-38
0.2384446239 0.08186750212 0.75200003 1.270349085e-38
0.2384446239 0.08043511212 0.75200003 1.297898893e-38
0.2384446239 0.07900273212 0.75200003 1.288427516e-38
0.2383208179 0.07732464212 0.75300002 1.27895656e-38
0.2380731899 0.07539510212 0.75500005 1.205523757e-38
0.2377017709 0.07320845212 0.75800002 1.141274642e-38
0.2374541509 0.07126177212 0.76000005 1.187335883e-38
0.2374541509 0.06981416212 0.76000005 1.242617108e-38
0.2374541509 0.06836654212 0.76000005 1.270168317e-38
0.2374541509 0.06691892212 0.76000005 1.30693923e-38
0.2374541509 0.06547130212 0.76000005 1.334526733e-38
0.2374541509 0.06402367212 0.76000005 1.362113675e-38
0.2374541509 0.06257607212 0.76000005 1.371190025e-38
0.2377017709 0.06165798212 0.75800002 1.38030295e-38
0.2377017709 0.06021416212 0.75800002 1.371012901e-38
0.2377017709 0.05877035212 0.75800002 1.37090332e-38
0.2374541509 0.05678558212 0.76000005 1.379905541e-38
0.2374541509 0.05533796212 0.76000005 1.398199913e-38
0.2373303379 0.05361606212 0.76100004 1.315547126e-38
0.2373303379 0.05216653212 0.76100004 1.232894058e-38
0.2370827179 0.05016084212 0.76300001 1.158886442e-38
0.2370827179 0.04870750212 0.76300001 1.094206288e-38
0.2370827179 0.04725416212 0.76300001 9.928638226e-39
0.2370827179 0.04580083212 0.76300001 8.915615744e-39
0.2370827179 0.04434749212 0.76300001 9.197977385e-39
0.2370827179 0.04289417212 0.76300001 9.475255115e-39
0.2370827179 0.04144084212 0.76300001 9.382679733e-39
0.2370827179 0.03998750212 0.76300001 9.380165803e-39
0.2370827179 0.03853417212 0.76300001 9.287968772e-39
0.2373303379 0.03767129212 0.76100004 9.195778747e-39
0.2374541509 0.03651893212 0.76000005 7.905422484e-39
0.2374541509 0.03507129212 0.76000005 6.61755913e-39
0.2377017709 0.03422559212 0.75800002 8.272379111e-39
0.2379493839 0.03338748212 0.75600004 1.001942695e-38
0.2374541509 0.03072844212 0.76000005 1.058588644e-38
0.2379493839 0.03050750212 0.75600004 1.123160618e-38
0.2417874839 0.03863321212 0.72500002 1.159751463e-38
0.2420350959 0.03787320212 0.72300005 1.196378042e-38
0.2420350959 0.03649607212 0.72300005 1.223928691e-38
0.2420350959 0.03511892212 0.72300005 1.251514933e-38
0.2424065299 0.03469035212 0.72000003 1.269989371e-38
0.2424065299 0.03331892212 0.72000003 1.28835633e-38
0.2424065299 0.03194749212 0.72000003 1.279208514e-38
0.2424065299 0.03057606212 0.72000003 1.279244387e-38
0.2424065299 0.02920465212 0.72000003 1.279352147e-38
0.2424065299 0.02783322212 0.72000003 1.288643316e-38
0.2416636699 0.02449607212 0.72600001 1.297862739e-38
0.2416636699 0.02311322212 0.72600001 1.307118596e-38
0.2416636699 0.02173034212 0.72600001 1.325342903e-38
0.2416636699 0.02034750212 0.72600001 1.343710563e-38
0.2412922439 0.01795893212 0.72900003 1.352930686e-38
0.2409208169 0.01555891212 0.73200005 1.362185842e-38
0.2403017629 0.01246939212 0.73700005 1.380588814e-38
0.2404255699 0.01140652212 0.73600006 1.398991787e-38
0.2404255699 0.01000462212 0.73600006 1.426542576e-38
0.2404255699 0.008602752116 0.73600006 1.454236297e-38
0.2404255699 0.007200822116 0.73600006 1.463419427e-38
0.2404255699 0.005798892116 0.73600006 1.47263941e-38
0.2404255699 0.004397022116 0.73600006 1.463528307e-38
0.2404255699 0.002995112116 0.73600006 1.445232674e-38
0.2404255699 0.001593182116 0.73600006 1.334922319e-38
0.2407303359 0.1005760521 0.74500006 1.530230955e-38
0.2407303359 0.09915700212 0.74500006 1.511863716e-38
0.2401208109 0.09377606212 0.75000006 1.539664777e-38
0.2401208109 0.09234748212 0.75000006 1.521295435e-38
0.2401208109 0.09091891212 0.75000006 1.521329207e-38
0.2401208109 0.08949035212 0.75000006 1.521220045e-38
0.2401208109 0.08806178212 0.75000006 1.511963208e-38
0.2398770059 0.08616463212 0.75200003 1.511928876e-38
0.2398770059 0.08473226212 0.75200003 1.484379769e-38
0.2398770059 0.08329987212 0.75200003 1.465508903e-38
0.2398770059 0.08186750212 0.75200003 1.465041009e-38
0.2398770059 0.08043511212 0.75200003 1.474295605e-38
0.2397550989 0.07875892212 0.75300002 1.382531154e-38
0.2397550989 0.07732464212 0.75300002 1.298872655e-38
0.2395112869 0.07539510212 0.75500005 1.095828011e-38
0.2391455749 0.07320845212 0.75800002 9.026473867e-39
0.2389017619 0.07126177212 0.76000005 9.74677631e-39
0.2389017619 0.06981416212 0.76000005 1.048470288e-38
0.2389017619 0.06836654212 0.76000005 1.103895987e-38
0.2389017619 0.06691892212 0.76000005 1.159428324e-38
0.2389017619 0.06547130212 0.76000005 1.242870042e-38
0.2389017619 0.06402367212 0.76000005 1.325343183e-38
0.2389017619 0.06257607212 0.76000005 1.343639096e-38
0.2391455749 0.06165798212 0.75800002 1.361899276e-38
0.2391455749 0.06021416212 0.75800002 1.361899977e-38
0.2389017619 0.05823321212 0.76000005 1.370938632e-38
0.2389017619 0.05678558212 0.76000005 1.407492204e-38
0.2389017619 0.05533796212 0.76000005 1.453337364e-38
0.2387798629 0.05361606212 0.76100004 1.324623336e-38
0.2385360579 0.05161416212 0.76300001 1.19616014e-38
0.2385360579 0.05016084212 0.76300001 1.177504934e-38
0.2385360579 0.04870750212 0.76300001 1.158850568e-38
0.2385360579 0.04725416212 0.76300001 9.835020278e-39
0.2385360579 0.04580083212 0.76300001 8.181286303e-39
0.2382922449 0.04377606212 0.76500005 8.551877899e-39
0.2382922449 0.04231892212 0.76500005 9.014628691e-39
0.2382922449 0.04086178212 0.76500005 9.014974812e-39
0.2382922449 0.03940464212 0.76500005 9.013532876e-39
0.2385360579 0.03853417212 0.76300001 8.826986419e-39
0.2385360579 0.03708083212 0.76300001 8.736601267e-39
0.2385360579 0.03562751212 0.76300001 8.27277708e-39
0.2389017619 0.03507129212 0.76000005 7.82148891e-39
0.2387798629 0.03332273212 0.76100004 9.58070983e-39
0.2430465349 0.04247322212 0.72600001 1.132631433e-38
0.2431684339 0.04139512212 0.72500002 1.141924004e-38
0.2431684339 0.04001416212 0.72500002 1.150819867e-38
0.2431684339 0.03863321212 0.72500002 1.169186266e-38
0.2431684339 0.03725226212 0.72500002 1.196377061e-38
0.2434122389 0.03649607212 0.72300005 1.214779053e-38
0.2435341459 0.03543320212 0.72200006 1.242402008e-38
0.2437779579 0.03469035212 0.72000003 1.270025104e-38
0.2437779579 0.03331892212 0.72000003 1.297575613e-38
0.2437779579 0.03194749212 0.72000003 1.306866642e-38
0.2437779579 0.03057606212 0.72000003 1.325234022e-38
0.2437779579 0.02920465212 0.72000003 1.325234302e-38
0.2437779579 0.02783322212 0.72000003 1.325270456e-38
0.2434122389 0.02547891212 0.72300005 1.334633652e-38
0.2430465349 0.02311322212 0.72600001 1.352964878e-38
0.2430465349 0.02173034212 0.72600001 1.362112694e-38
0.2430465349 0.02034750212 0.72600001 1.3804442e-38
0.2428027149 0.01829415212 0.72800004 1.38962817e-38
0.2426808159 0.01657035212 0.72900003 1.40810317e-38
0.2423150959 0.01416464212 0.73200005 1.417322873e-38
0.2420712909 0.01208846212 0.73400003 1.435725985e-38
0.2420712909 0.01069034212 0.73400003 1.463312648e-38
0.2420712909 0.009292262116 0.73400003 1.491005528e-38
0.2420712909 0.007894172116 0.73400003 1.500259703e-38
0.2420712909 0.006496052116 0.73400003 1.509444094e-38
0.2418274779 0.004397022116 0.73600006 1.509480808e-38
0.2423150959 0.004404612116 0.73200005 1.518664497e-38
0.2423150959 0.003010342116 0.73200005 1.380732027e-38
0.2415493849 0.09234748212 0.75000006 1.493531789e-38
0.2415493849 0.09091891212 0.75000006 1.493531369e-38
0.2415493849 0.08949035212 0.75000006 1.493531229e-38
0.2415493849 0.08806178212 0.75000006 1.511934201e-38
0.2413093869 0.08616463212 0.75200003 1.521154184e-38
0.2413093869 0.08473226212 0.75200003 1.502716039e-38
0.2413093869 0.08329987212 0.75200003 1.475093504e-38
0.2413093869 0.08186750212 0.75200003 1.4843488e-38
0.2413093869 0.08043511212 0.75200003 1.484419986e-38
0.2411893809 0.07875892212 0.75300002 1.447326495e-38
0.2409493829 0.07683321212 0.75500005 1.401081964e-38
0.2405893859 0.07465226212 0.75800002 1.31738591e-38
0.2403493799 0.07270939212 0.76000005 1.233436081e-38
0.2402293879 0.07101035212 0.76100004 1.076556093e-38
0.2402293879 0.06956082212 0.76100004 9.105011041e-39
0.2402293879 0.06811130212 0.76100004 8.923157533e-39
0.2402293879 0.06666177212 0.76100004 8.64980484e-39
0.2402293879 0.06521226212 0.76100004 9.665737819e-39
0.2403493799 0.06402367212 0.76000005 1.077386923e-38
0.2403493799 0.06257607212 0.76000005 1.15993195e-38
0.2403493799 0.06112845212 0.76000005 1.242512431e-38
0.2403493799 0.05968082212 0.76000005 1.306761685e-38
0.2403493799 0.05823321212 0.76000005 1.371009959e-38
0.2403493799 0.05678558212 0.76000005 1.389089371e-38
0.2403493799 0.05533796212 0.76000005 1.407491503e-38
0.2402293879 0.05361606212 0.76100004 1.324802982e-38
0.2399893899 0.05161416212 0.76300001 1.232930492e-38
0.2397493849 0.04960462212 0.76500005 1.195979933e-38
0.2397493849 0.04814748212 0.76500005 1.150026592e-38
0.2397493849 0.04669034212 0.76500005 1.020739713e-38
0.2397493849 0.04523320212 0.76500005 8.824487904e-39
0.2397493849 0.04377606212 0.76500005 8.919557597e-39
0.2397493849 0.04231892212 0.76500005 8.921704386e-39
0.2395093869 0.04028274212 0.76700002 8.922776379e-39
0.2395093869 0.03882178212 0.76700002 8.830931074e-39
0.2397493849 0.03794749212 0.76500005 9.013517461e-39
0.2397493849 0.03649035212 0.76500005 9.196138881e-39
0.2397493849 0.03503321212 0.76500005 9.386295083e-39
0.2445493839 0.04553797212 0.72500002 9.576431666e-39
0.2445493839 0.04415702212 0.72500002 1.040511193e-38
0.2444293919 0.04247322212 0.72600001 1.123414673e-38
0.2445493839 0.04139512212 0.72500002 1.123415234e-38
0.2445493839 0.04001416212 0.72500002 1.132597242e-38
0.2447893819 0.03925034212 0.72300005 1.141456391e-38
0.2445493839 0.03725226212 0.72500002 1.141274923e-38
0.2447893819 0.03649607212 0.72300005 1.177971146e-38
0.2449093809 0.03543320212 0.72200006 1.214563393e-38
0.2451493869 0.03469035212 0.72000003 1.242294949e-38
0.2452693859 0.03363701212 0.71900004 1.270060697e-38
0.2452693859 0.03226749212 0.71900004 1.306866642e-38
0.2452693859 0.03089796212 0.71900004 1.334417712e-38
0.2451493869 0.02920465212 0.72000003 1.352749358e-38
0.2451493869 0.02783322212 0.72000003 1.361933468e-38
0.2447893819 0.02547891212 0.72300005 1.380301268e-38
0.2445493839 0.02344274212 0.72500002 1.39870368e-38
0.2445493839 0.02206179212 0.72500002 1.408030162e-38
0.2444293919 0.02034750212 0.72600001 1.417393218e-38
0.2444293919 0.01896464212 0.72600001 1.426541034e-38
0.2441893869 0.01690749212 0.72800004 1.435689271e-38
0.2441893869 0.01552081212 0.72800004 1.444909395e-38
0.2438293899 0.01311132212 0.73100001 1.454164831e-38
0.2437093829 0.01137606212 0.73200005 1.48171576e-38
0.2434693849 0.009292262116 0.73400003 1.500260124e-38
0.2434693849 0.007894172116 0.73400003 1.527808811e-38
0.2434693849 0.006496052116 0.73400003 1.555503933e-38
0.2437093829 0.005798922116 0.73200005 1.546213885e-38
0.2437093829 0.004404612116 0.73200005 1.537030756e-38
0.2437093829 0.003010342116 0.73200005 1.463491173e-38
0.2434693849 0.0009036821163 0.73400003 1.380587693e-38
0.2434693849 -0.0004944078837 0.73400003 1.380587413e-38
0.2427417689 0.08616463212 0.75200003 1.539198565e-38
0.2427417689 0.08473226212 0.75200003 1.51157659e-38
0.2427417689 0.08329987212 0.75200003 1.493388717e-38
0.2427417689 0.08186750212 0.75200003 1.49342459e-38
0.2427417689 0.08043511212 0.75200003 1.502643452e-38
0.2426236769 0.07875892212 0.75300002 1.502714638e-38
0.2420331959 0.07609607212 0.75800002 1.511430434e-38
0.2416789059 0.07390940212 0.76100004 1.538943809e-38
0.2416789059 0.07245987212 0.76100004 1.574810884e-38
0.2414427229 0.07050749212 0.76300001 1.179051127e-38
0.2416789059 0.06956082212 0.76100004 7.825790896e-39
0.2414427229 0.06760083212 0.76300001 6.801600065e-39
0.2416789059 0.06666177212 0.76100004 5.793199066e-39
0.2416789059 0.06521226212 0.76100004 6.989210108e-39
0.2416789059 0.06376273212 0.76100004 8.282808976e-39
0.2417970049 0.06257607212 0.76000005 9.760437569e-39
0.2417970049 0.06112845212 0.76000005 1.132200534e-38
0.2417970049 0.05968082212 0.76000005 1.251658846e-38
0.2417970049 0.05823321212 0.76000005 1.370865485e-38
0.2417970049 0.05678558212 0.76000005 1.370721852e-38
0.2417970049 0.05533796212 0.76000005 1.370721291e-38
0.2416789059 0.05361606212 0.76100004 1.324838856e-38
0.2414427229 0.05161416212 0.76300001 1.27884838e-38
0.2414427229 0.05016084212 0.76300001 1.214455072e-38
0.2412065249 0.04814748212 0.76500005 1.150026592e-38
0.2412065249 0.04669034212 0.76500005 1.048792307e-38
0.2412065249 0.04523320212 0.76500005 9.566336712e-39
0.2412065249 0.04377606212 0.76500005 9.195764735e-39
0.2412065249 0.04231892212 0.76500005 8.921338647e-39
0.2409703409 0.04028274212 0.76700002 8.830942285e-39
0.2409703409 0.03882178212 0.76700002 8.739466922e-39
0.2412065249 0.03794749212 0.76500005 9.19936467e-39
0.2412065249 0.03649035212 0.76500005 9.751465055e-39
0.2459303419 0.04691892212 0.72500002 1.058732417e-38
0.2459303419 0.04553797212 0.72500002 1.141348771e-38
0.2459303419 0.04415702212 0.72500002 1.122946079e-38
0.2459303419 0.04277607212 0.72500002 1.113834696e-38
0.2459303419 0.04139512212 0.72500002 1.113942876e-38
0.2462846239 0.04093414212 0.72200006 1.123017685e-38
0.2462846239 0.03955891212 0.72200006 1.104577859e-38
0.2461665249 0.03787320212 0.72300005 1.095321441e-38
0.2462846239 0.03680843212 0.72200006 1.141202195e-38
0.2462846239 0.03543320212 0.72200006 1.196089515e-38
0.2465208149 0.03469035212 0.72000003 1.223210946e-38
0.2465208149 0.03331892212 0.72000003 1.251729752e-38
0.2466389069 0.03226749212 0.71900004 1.297683093e-38
0.2466389069 0.03089796212 0.71900004 1.352748938e-38
0.2465208149 0.02920465212 0.72000003 1.380264274e-38
0.2465208149 0.02783322212 0.72000003 1.407815343e-38
0.2462846239 0.02580653212 0.72200006 1.426182722e-38
0.2461665249 0.02410177212 0.72300005 1.444693595e-38
0.2459303419 0.02206179212 0.72500002 1.444765482e-38
0.2459303419 0.02068083212 0.72500002 1.454091823e-38
0.2458122429 0.01896464212 0.72600001 1.463310406e-38
0.2455760519 0.01690749212 0.72800004 1.472494656e-38
0.2455760519 0.01552081212 0.72800004 1.47253123e-38
0.2454579599 0.01379320212 0.72900003 1.481750933e-38
0.2451036699 0.01137606212 0.73200005 1.500154326e-38
0.2451036699 0.009981792116 0.73200005 1.518663937e-38
0.2448674789 0.007894172116 0.73400003 1.555397154e-38
0.2448674789 0.006496052116 0.73400003 1.601315043e-38
0.2448674789 0.005097972116 0.73400003 1.582948224e-38
0.2448674789 0.003699882116 0.73400003 1.564617278e-38
0.2448674789 0.002301792116 0.73400003 1.546286332e-38
0.2448674789 0.0009036821163 0.73400003 1.527632247e-38
0.2448674789 -0.0004944078837 0.73400003 1.463168034e-38
0.2448674789 -0.001892497884 0.73400003 1.408033805e-38
0.2434770069 0.07609607212 0.75800002 1.50239276e-38
0.2431284319 0.07390940212 0.76100004 1.520724967e-38
0.2431284319 0.07245987212 0.76100004 1.539696026e-38
0.2424312879 0.06950178212 0.76700002 1.345221302e-38
0.2424312879 0.06804083212 0.76700002 1.159788177e-38
0.2424312879 0.06657989212 0.76700002 1.030245561e-38
0.2426636719 0.06563320212 0.76500005 9.092800126e-39
0.2428960559 0.06469416212 0.76300001 8.819437624e-39
0.2431284319 0.06376273212 0.76100004 8.637931638e-39
0.2432446159 0.06257607212 0.76000005 9.940144288e-39
0.2432446159 0.06112845212 0.76000005 1.131302022e-38
0.2434770069 0.06021416212 0.75800002 1.223963303e-38
0.2434770069 0.05877035212 0.75800002 1.315619853e-38
0.2434770069 0.05732655212 0.75800002 1.334023246e-38
0.2432446159 0.05533796212 0.76000005 1.343278122e-38
0.2432446159 0.05389034212 0.76000005 1.324874729e-38
0.2431284319 0.05216653212 0.76100004 1.315582859e-38
0.2428960559 0.05016084212 0.76300001 1.223567436e-38
0.2426636719 0.04814748212 0.76500005 1.131659633e-38
0.2426636719 0.04669034212 0.76500005 1.057939703e-38
0.2426636719 0.04523320212 0.76500005 9.844344518e-39
0.2426636719 0.04377606212 0.76500005 9.282919894e-39
0.2426636719 0.04231892212 0.76500005 8.73192093e-39
0.2424312879 0.04028274212 0.76700002 9.659616947e-39
0.2424312879 0.03882178212 0.76700002 1.067197241e-38
0.2426636719 0.03794749212 0.76500005 1.094856771e-38
0.2471951079 0.04800465212 0.72600001 1.122550492e-38
0.2473112919 0.04691892212 0.72500002 1.113510155e-38
0.2473112919 0.04553797212 0.72500002 1.113653368e-38
0.2473112919 0.04415702212 0.72500002 1.104397792e-38
0.2471951079 0.04247322212 0.72600001 1.104326606e-38
0.2473112919 0.04139512212 0.72500002 1.122694265e-38
0.2475436679 0.04062749212 0.72300005 1.141060664e-38
0.2475436679 0.03925034212 0.72300005 1.131912427e-38
0.2476598599 0.03818367212 0.72200006 1.131984034e-38
0.2476598599 0.03680843212 0.72200006 1.159498669e-38
0.2476598599 0.03543320212 0.72200006 1.186835059e-38
0.2480084349 0.03500655212 0.71900004 1.18672842e-38
0.2480084349 0.03363701212 0.71900004 1.187481058e-38
0.2480084349 0.03226749212 0.71900004 1.270024824e-38
0.2480084349 0.03089796212 0.71900004 1.343422035e-38
0.2478922429 0.02920465212 0.72000003 1.389448104e-38
0.2478922429 0.02783322212 0.72000003 1.435509345e-38
0.2476598599 0.02580653212 0.72200006 1.47231543e-38
0.2476598599 0.02443128212 0.72200006 1.509122356e-38
0.2475436679 0.02272462212 0.72300005 1.49986804e-38
0.2473112919 0.02068083212 0.72500002 1.481642753e-38
0.2473112919 0.01929988212 0.72500002 1.490860494e-38
0.2471951079 0.01758179212 0.72600001 1.500188237e-38
0.2469627239 0.01552081212 0.72800004 1.500189078e-38
0.2469627239 0.01413415212 0.72800004 1.509408921e-38
0.2466141559 0.01171894212 0.73100001 1.518557018e-38
0.2464979569 0.009981792116 0.73200005 1.52788406e-38
0.2462655729 0.007894172116 0.73400003 1.555434849e-38
0.2462655729 0.006496052116 0.73400003 1.582984798e-38
0.2462655729 0.005097972116 0.73400003 1.573800687e-38
0.2462655729 0.003699882116 0.73400003 1.564653011e-38
0.2464979569 0.003010342116 0.73200005 1.537066629e-38
0.2462655729 0.0009036821163 0.73400003 1.518556317e-38
0.2464979569 0.0002217721163 0.73200005 1.472567243e-38
0.2464979569 -0.001172497884 0.73200005 1.426613622e-38
0.2464979569 -0.002566797884 0.73200005 1.362328915e-38
0.2429779519 0.06896655212 0.77500004 1.511574067e-38
0.2429779519 0.06749035212 0.77500004 1.520611321e-38
0.2433208209 0.06677417212 0.77200001 1.537286913e-38
0.2435493889 0.06581415212 0.77000004 1.389555583e-38
0.2437779579 0.06486178212 0.76800001 1.251190252e-38
0.2441208189 0.06417606212 0.76500005 1.076126735e-38
0.2445779569 0.06376273212 0.76100004 9.0171202e-39
0.2446922409 0.06257607212 0.76000005 1.021206906e-38
0.2449208179 0.06165798212 0.75800002 1.140737244e-38
0.2449208179 0.06021416212 0.75800002 1.205453271e-38
0.2449208179 0.05877035212 0.75800002 1.269774412e-38
0.2449208179 0.05732655212 0.75800002 1.297361495e-38
0.2449208179 0.05588273212 0.75800002 1.324946896e-38
0.2446922409 0.05389034212 0.76000005 1.334165198e-38
0.2443493959 0.05161416212 0.76300001 1.352388384e-38
0.2443493959 0.05016084212 0.76300001 1.232714832e-38
0.2441208189 0.04814748212 0.76500005 1.11336414e-38
0.2441208189 0.04669034212 0.76500005 1.067123253e-38
0.2441208189 0.04523320212 0.76500005 1.021241378e-38
0.2441208189 0.04377606212 0.76500005 9.370468818e-39
0.2438922429 0.04174369212 0.76700002 8.550772275e-39
0.2486922499 0.05244272212 0.72500002 1.058048724e-38
0.2485779579 0.05077035212 0.72600001 1.269593925e-38
0.2485779579 0.04938750212 0.72600001 1.269953358e-38
0.2486922499 0.04829989212 0.72500002 1.278742302e-38
0.2486922499 0.04691892212 0.72500002 1.177687523e-38
0.2486922499 0.04553797212 0.72500002 1.085743707e-38
0.2486922499 0.04415702212 0.72500002 1.094854809e-38
0.2486922499 0.04277607212 0.72500002 1.104110666e-38
0.2489208109 0.04200463212 0.72300005 1.131733762e-38
0.2489208109 0.04062749212 0.72300005 1.159283289e-38
0.2490350959 0.03955891212 0.72200006 1.159318182e-38
0.2490350959 0.03818367212 0.72200006 1.168538025e-38
0.2490350959 0.03680843212 0.72200006 1.168610332e-38
0.2492636719 0.03606179212 0.72000003 1.177794582e-38
0.2493779559 0.03500655212 0.71900004 1.150280647e-38
0.2493779559 0.03363701212 0.71900004 1.131985295e-38
0.2493779559 0.03226749212 0.71900004 1.233076087e-38
0.2493779559 0.03089796212 0.71900004 1.343387843e-38
0.2493779559 0.02952845212 0.71900004 1.398634316e-38
0.2492636719 0.02783322212 0.72000003 1.463169015e-38
0.2492636719 0.02646178212 0.72000003 1.51880729e-38
0.2490350959 0.02443128212 0.72200006 1.582589912e-38
0.2489208109 0.02272462212 0.72300005 1.545784107e-38
0.2486922499 0.02068083212 0.72500002 1.51837597e-38
0.2486922499 0.01929988212 0.72500002 1.527630425e-38
0.2485779579 0.01758179212 0.72600001 1.536850829e-38
0.2485779579 0.01619894212 0.72600001 1.536923557e-38
0.2483493809 0.01413415212 0.72800004 1.536923697e-38
0.2482351039 0.01240465212 0.72900003 1.53695985e-38
0.2478922429 0.009981792116 0.73200005 1.536996004e-38
0.2476636749 0.007894172116 0.73400003 1.5463592e-38
0.2478922429 0.007193192116 0.73200005 1.564725739e-38
0.2476636749 0.005097972116 0.73400003 1.564725318e-38
0.2476636749 0.003699882116 0.73400003 1.564690005e-38
0.2476636749 0.002301792116 0.73400003 1.537068171e-38
0.2476636749 0.0009036821163 0.73400003 1.518521425e-38
0.2476636749 -0.0004944078837 0.73400003 1.481787086e-38
0.2476636749 -0.001892497884 0.73400003 1.454165111e-38
0.2476636749 -0.003290607884 0.73400003 1.408140164e-38
0.2442293889 0.06846749212 0.77700001 1.65869289e-38
0.2442293889 0.06698750212 0.77700001 1.621743732e-38
0.2444541509 0.06601417212 0.77500004 1.593361553e-38
0.2444541509 0.06453797212 0.77500004 1.501483738e-38
0.2452408199 0.06486178212 0.76800001 1.409644738e-38
0.2458027209 0.06469416212 0.76300001 1.308120104e-38
0.2461398589 0.06402367212 0.76000005 1.215783223e-38
0.2463646289 0.06310178212 0.75800002 1.187587697e-38
0.2463646289 0.06165798212 0.75800002 1.15939189e-38
0.2463646289 0.06021416212 0.75800002 1.205561451e-38
0.2465893829 0.05930748212 0.75600004 1.251551507e-38
0.2465893829 0.05786749212 0.75600004 1.288286406e-38
0.2463646289 0.05588273212 0.75800002 1.315835093e-38
0.2461398589 0.05389034212 0.76000005 1.352495723e-38
0.2460274819 0.05216653212 0.76100004 1.380010358e-38
0.2458027209 0.05016084212 0.76300001 1.26966413e-38
0.2458027209 0.04870750212 0.76300001 1.168537184e-38
0.2455779589 0.04669034212 0.76500005 1.131587466e-38
0.2455779589 0.04523320212 0.76500005 1.104001925e-38
0.2455779589 0.04377606212 0.76500005 1.112827723e-38
0.2500731999 0.05382368212 0.72500002 1.121688273e-38
0.2500731999 0.05244272212 0.72500002 1.196196994e-38
0.2500731999 0.05106177212 0.72500002 1.269916644e-38
0.2500731999 0.04968084212 0.72500002 1.260661488e-38
0.2500731999 0.04829989212 0.72500002 1.251263119e-38
0.2500731999 0.04691892212 0.72500002 1.177580043e-38
0.2500731999 0.04553797212 0.72500002 1.113042962e-38
0.2502979609 0.04475891212 0.72300005 1.085527206e-38
0.2500731999 0.04277607212 0.72500002 1.058012991e-38
0.2502979609 0.04200463212 0.72300005 1.103967313e-38
0.2504103389 0.04093414212 0.72200006 1.159138816e-38
0.2504103389 0.03955891212 0.72200006 1.16839271e-38
0.2504103389 0.03818367212 0.72200006 1.177685001e-38
0.2504103389 0.03680843212 0.72200006 1.186977291e-38
0.2506350999 0.03606179212 0.72000003 1.187013725e-38
0.2507474849 0.03500655212 0.71900004 1.196197975e-38
0.2507474849 0.03363701212 0.71900004 1.196234409e-38
0.2507474849 0.03226749212 0.71900004 1.288142212e-38
0.2509722459 0.03154178212 0.71700001 1.370940174e-38
0.2507474849 0.02952845212 0.71900004 1.407928147e-38
0.2507474849 0.02815893212 0.71900004 1.44494681e-38
0.2506350999 0.02646178212 0.72000003 1.490790429e-38
0.2504103389 0.02443128212 0.72200006 1.527487913e-38
0.2504103389 0.02305604212 0.72200006 1.518339396e-38
0.2500731999 0.02068083212 0.72500002 1.500043903e-38
0.2500731999 0.01929988212 0.72500002 1.509227313e-38
0.2499608229 0.01758179212 0.72600001 1.518447857e-38
0.2499608229 0.01619894212 0.72600001 1.527740287e-38
0.2497360539 0.01413415212 0.72800004 1.536887964e-38
0.2497360539 0.01274749212 0.72800004 1.536923977e-38
0.2496236689 0.01101605212 0.72900003 1.527776721e-38
0.2492865229 0.008587492116 0.73200005 1.555363663e-38
0.2492865229 0.007193192116 0.73200005 1.573766356e-38
0.2492865229 0.005798922116 0.73200005 1.564654272e-38
0.2490617689 0.003699882116 0.73400003 1.55554345e-38
0.2490617689 0.002301792116 0.73400003 1.536998106e-38
0.2488369989 0.0001912821163 0.73600006 1.527670222e-38
0.2488369989 -0.001210617884 0.73600006 1.490935183e-38
0.2488369989 -0.002612487884 0.73600006 1.463349502e-38
0.2488369989 -0.004014417884 0.73600006 1.435584454e-38
0.2488369989 -0.005416347884 0.73600006 1.398814803e-38
0.2454884329 0.06796845212 0.77900004 1.805630104e-38
0.2454884329 0.06648464212 0.77900004 1.73208926e-38
0.2459303419 0.06601417212 0.77500004 1.65840198e-38
0.2459303419 0.06453797212 0.77500004 1.61226549e-38
0.2468141519 0.06511892212 0.76700002 1.575350243e-38
0.2472560529 0.06469416212 0.76300001 1.547618687e-38
0.2474770079 0.06376273212 0.76100004 1.528459574e-38
0.2478084389 0.06310178212 0.75800002 1.35321599e-38
0.2478084389 0.06165798212 0.75800002 1.187194773e-38
0.2480293859 0.06074750212 0.75600004 1.214889055e-38
0.2480293859 0.05930748212 0.75600004 1.242439563e-38
0.2481398559 0.05813796212 0.75500005 1.279173622e-38
0.2478084389 0.05588273212 0.75800002 1.315834812e-38
0.2478084389 0.05443893212 0.75800002 1.361966679e-38
0.2472560529 0.05161416212 0.76300001 1.41678057e-38
0.2472560529 0.05016084212 0.76300001 1.315832851e-38
0.2472560529 0.04870750212 0.76300001 1.223675056e-38
0.2470350989 0.04669034212 0.76500005 1.205129291e-38
0.2514541429 0.05658559212 0.72500002 1.196125388e-38
0.2514541429 0.05520464212 0.72500002 1.29732408e-38
0.2514541429 0.05382368212 0.72500002 1.398486899e-38
0.2514541429 0.05244272212 0.72500002 1.334345825e-38
0.2514541429 0.05106177212 0.72500002 1.269917485e-38
0.2514541429 0.04968084212 0.72500002 1.24218747e-38
0.2514541429 0.04829989212 0.72500002 1.223784497e-38
0.2514541429 0.04691892212 0.72500002 1.186691706e-38
0.2516750969 0.04613606212 0.72300005 1.149812333e-38
0.2516750969 0.04475891212 0.72300005 1.076198762e-38
0.2514541429 0.04277607212 0.72500002 1.012094262e-38
0.2516750969 0.04200463212 0.72300005 1.085635526e-38
0.2517855739 0.04093414212 0.72200006 1.159103082e-38
0.2517855739 0.03955891212 0.72200006 1.177469201e-38
0.2520065289 0.03880463212 0.72000003 1.19616e-38
0.2520065289 0.03743322212 0.72000003 1.196196714e-38
0.2520065289 0.03606179212 0.72000003 1.205380544e-38
0.2521170059 0.03500655212 0.71900004 1.232931613e-38
0.2521170059 0.03363701212 0.71900004 1.269702245e-38
0.2521170059 0.03226749212 0.71900004 1.3340594e-38
0.2521170059 0.03089796212 0.71900004 1.407708704e-38
0.2521170059 0.02952845212 0.71900004 1.417252528e-38
0.2520065289 0.02783322212 0.72000003 1.435654099e-38
0.2520065289 0.02646178212 0.72000003 1.45405581e-38
0.2520065289 0.02509035212 0.72000003 1.481641351e-38
0.2517855739 0.02305604212 0.72200006 1.481712257e-38
0.2516750969 0.02134749212 0.72300005 1.490860214e-38
0.2514541429 0.01929988212 0.72500002 1.490968254e-38
0.2513436729 0.01758179212 0.72600001 1.500117752e-38
0.2513436729 0.01619894212 0.72600001 1.518558419e-38
0.2511227179 0.01413415212 0.72800004 1.546036621e-38
0.2511227179 0.01274749212 0.72800004 1.536852371e-38
0.2510122409 0.01101605212 0.72900003 1.527669662e-38
0.2507912939 0.008934152116 0.73100001 1.555221292e-38
0.2507912939 0.007541792116 0.73100001 1.592062129e-38
0.2506808169 0.005798922116 0.73200005 1.573801668e-38
0.2504598629 0.003699882116 0.73400003 1.555363103e-38
0.2504598629 0.002301792116 0.73400003 1.5461441e-38
0.2502389079 0.0001912821163 0.73600006 1.536888244e-38
0.2502389079 -0.001210617884 0.73600006 1.509301301e-38
0.2501284309 -0.002972527884 0.73700005 1.481606879e-38
0.2501284309 -0.004376337884 0.73700005 1.463060274e-38
0.2497970069 -0.006871537884 0.74000001 1.44473129e-38
0.2497970069 -0.008281067884 0.74000001 1.426402446e-38
0.2469722379 0.06796845212 0.77900004 1.594444616e-38
0.2469722379 0.06648464212 0.77900004 1.631213147e-38
0.2476236649 0.06652082212 0.77300006 1.667587912e-38
0.2481665289 0.06632465212 0.76800001 1.62174121e-38
0.2484922389 0.06563320212 0.76500005 1.575895489e-38
0.2489265259 0.06521226212 0.76100004 1.547520035e-38
0.2490350959 0.06402367212 0.76000005 1.529648575e-38
0.2492522429 0.06310178212 0.75800002 1.371943363e-38
0.2494693819 0.06218749212 0.75600004 1.224181205e-38
0.2495779519 0.06101416212 0.75500005 1.196450909e-38
0.2499036689 0.06038178212 0.75200003 1.17797521e-38
0.2499036689 0.05894939212 0.75200003 1.205560751e-38
0.2497950989 0.05724464212 0.75300002 1.242366135e-38
0.2495779519 0.05526177212 0.75500005 1.279099913e-38
0.2495779519 0.05382368212 0.75500005 1.325016961e-38
0.2495779519 0.05238558212 0.75500005 1.26058806e-38
0.2528350999 0.05934749212 0.72500002 1.196196994e-38
0.2528350999 0.05796654212 0.72500002 1.205382085e-38
0.2528350999 0.05658559212 0.72500002 1.205417538e-38
0.2528350999 0.05520464212 0.72500002 1.269809725e-38
0.2528350999 0.05382368212 0.72500002 1.343529795e-38
0.2528350999 0.05244272212 0.72500002 1.306796297e-38
0.2528350999 0.05106177212 0.72500002 1.279137748e-38
0.2528350999 0.04968084212 0.72500002 1.26055527e-38
0.2528350999 0.04829989212 0.72500002 1.251407173e-38
0.2528350999 0.04691892212 0.72500002 1.214529201e-38
0.2530522399 0.04613606212 0.72300005 1.177685001e-38
0.2530522399 0.04475891212 0.72300005 1.122437968e-38
0.2530522399 0.04338178212 0.72300005 1.067230592e-38
0.2531608099 0.04230938212 0.72200006 1.113221628e-38
0.2531608099 0.04093414212 0.72200006 1.159318322e-38
0.2533779569 0.04017606212 0.72000003 1.177792761e-38
0.2533779569 0.03880463212 0.72000003 1.196303913e-38
0.2531608099 0.03680843212 0.72200006 1.186977431e-38
0.2533779569 0.03606179212 0.72000003 1.177722135e-38
0.2533779569 0.03469035212 0.72000003 1.214492207e-38
0.2533779569 0.03331892212 0.72000003 1.260374642e-38
0.2534865269 0.03226749212 0.71900004 1.315727753e-38
0.2534865269 0.03089796212 0.71900004 1.38022826e-38
0.2534865269 0.02952845212 0.71900004 1.398775146e-38
0.2533779569 0.02783322212 0.72000003 1.426361388e-38
0.2533779569 0.02646178212 0.72000003 1.444800094e-38
0.2531608099 0.02443128212 0.72200006 1.472565001e-38
0.2531608099 0.02305604212 0.72200006 1.490859373e-38
0.2528350999 0.02068083212 0.72500002 1.518339116e-38
0.2528350999 0.01929988212 0.72500002 1.500008871e-38
0.2527265299 0.01758179212 0.72600001 1.481680027e-38
0.2527265299 0.01619894212 0.72600001 1.490865959e-38
0.2527265299 0.01481609212 0.72600001 1.50926753e-38
0.2525093829 0.01274749212 0.72800004 1.509302002e-38
0.2524008129 0.01101605212 0.72900003 1.509339136e-38
0.2521836739 0.008934152116 0.73100001 1.527707637e-38
0.2520750959 0.007193192116 0.73200005 1.555256604e-38
0.2520750959 0.005798922116 0.73200005 1.536923697e-38
0.2518579569 0.003699882116 0.73400003 1.527811473e-38
0.2515322399 0.001238892116 0.73700005 1.52777532e-38
0.2515322399 -0.0001649178837 0.73700005 1.527739306e-38
0.2513150999 -0.002284897884 0.73900002 1.50930032e-38
0.2513150999 -0.003692497884 0.73900002 1.490716721e-38
0.2512065299 -0.005462037884 0.74000001 1.47234836e-38
0.2509893829 -0.007599187884 0.74200004 1.463169015e-38
0.2509893829 -0.009012507884 0.74200004 1.43562257e-38
0.2481360489 0.07019892212 0.78200006 1.456295225e-38
0.2481360489 0.06870938212 0.78200006 1.419310615e-38
0.2484560589 0.06796845212 0.77900004 1.392154431e-38
0.2484560589 0.06648464212 0.77900004 1.530338014e-38
0.2490960559 0.06652082212 0.77300006 1.677130474e-38
0.2499493789 0.06709034212 0.76500005 1.631104266e-38
0.2503760509 0.06666177212 0.76100004 1.584574851e-38
0.2504827209 0.06547130212 0.76000005 1.556591902e-38
0.2506960529 0.06454560212 0.75800002 1.528751324e-38
0.2510160479 0.06389033212 0.75500005 1.390708291e-38
0.2512293879 0.06298179212 0.75300002 1.261382876e-38
0.2513360509 0.06181415212 0.75200003 1.187230506e-38
0.2515493829 0.06091892212 0.75000006 1.122802165e-38
0.2515493829 0.05949035212 0.75000006 1.141061785e-38
0.2520827109 0.05942367212 0.74500006 1.168826412e-38
0.2513360509 0.05608464212 0.75200003 1.205810602e-38
0.2513360509 0.05465225212 0.75200003 1.242365294e-38
0.2522960509 0.05572274212 0.74300003 1.20534397e-38
0.2544293829 0.05990749212 0.72300005 1.177903323e-38
0.2542160499 0.05796654212 0.72500002 1.196416297e-38
0.2542160499 0.05658559212 0.72500002 1.223929812e-38
0.2544293829 0.05577607212 0.72300005 1.2514792e-38
0.2544293829 0.05439892212 0.72300005 1.288465071e-38
0.2544293829 0.05302177212 0.72300005 1.288429758e-38
0.2544293829 0.05164462212 0.72300005 1.288393885e-38
0.2544293829 0.05026748212 0.72300005 1.278959223e-38
0.2542160499 0.04829989212 0.72500002 1.278922929e-38
0.2544293829 0.04751320212 0.72300005 1.24251117e-38
0.2545360529 0.04643510212 0.72200006 1.21463542e-38
0.2545360529 0.04505986212 0.72200006 1.16839271e-38
0.2544293829 0.04338178212 0.72300005 1.122475663e-38
0.2545360529 0.04230938212 0.72200006 1.140843603e-38
0.2545360529 0.04093414212 0.72200006 1.168502012e-38
0.2547493929 0.04017606212 0.72000003 1.187012744e-38
0.2547493929 0.03880463212 0.72000003 1.20534383e-38
0.2545360529 0.03680843212 0.72200006 1.177757308e-38
0.2547493929 0.03606179212 0.72000003 1.159426082e-38
0.2547493929 0.03469035212 0.72000003 1.205379703e-38
0.2547493929 0.03331892212 0.72000003 1.251369758e-38
0.2548560479 0.03226749212 0.71900004 1.297395546e-38
0.2548560479 0.03089796212 0.71900004 1.352713204e-38
0.2547493929 0.02920465212 0.72000003 1.380336581e-38
0.2547493929 0.02783322212 0.72000003 1.417106232e-38
0.2547493929 0.02646178212 0.72000003 1.435544657e-38
0.2545360529 0.02443128212 0.72200006 1.463129918e-38
0.2545360529 0.02305604212 0.72200006 1.499898869e-38
0.2544293829 0.02134749212 0.72300005 1.545853471e-38
0.2542160499 0.01929988212 0.72500002 1.499972717e-38
0.2541093879 0.01758179212 0.72600001 1.463275934e-38
0.2538960549 0.01552081212 0.72800004 1.463385235e-38
0.2538960549 0.01413415212 0.72800004 1.472567944e-38
0.2538960549 0.01274749212 0.72800004 1.481786526e-38
0.2537893849 0.01101605212 0.72900003 1.490970916e-38
0.2535760529 0.008934152116 0.73100001 1.500155447e-38
0.2532560579 0.006496052116 0.73400003 1.518521705e-38
0.2532560579 0.005097972116 0.73400003 1.509337315e-38
0.2530427179 0.002995112116 0.73600006 1.509372487e-38
0.2529360479 0.001238892116 0.73700005 1.51859135e-38
0.2527227159 -0.0008772778837 0.73900002 1.527739166e-38
0.2527227159 -0.002284897884 0.73900002 1.509300461e-38
0.2526160529 -0.004052507884 0.74000001 1.500080477e-38
0.2524027209 -0.006185847884 0.74200004 1.490860634e-38
0.2524027209 -0.007599187884 0.74200004 1.481679887e-38
0.2524027209 -0.009012507884 0.74200004 1.454167914e-38
0.2496255759 0.07019892212 0.78200006 1.2430623e-38
0.2498351019 0.06920464212 0.78000003 1.30792168e-38
0.2499398639 0.06796845212 0.77900004 1.363634084e-38
0.2499398639 0.06648464212 0.77900004 1.511863716e-38
0.2505684319 0.06652082212 0.77300006 1.667875459e-38
0.2521398639 0.06887702212 0.75800002 1.529547402e-38
0.2521398639 0.06743322212 0.75800002 1.391216122e-38
0.2523493889 0.06650748212 0.75600004 1.381634043e-38
0.2524541519 0.06532844212 0.75500005 1.362909052e-38
0.2526636769 0.06441608212 0.75300002 1.298589172e-38
0.2527684399 0.06324653212 0.75200003 1.234299841e-38
0.2529779579 0.06234748212 0.75000006 1.1686832e-38
0.2531874749 0.06145606212 0.74800003 1.104793939e-38
0.2535017629 0.06084272212 0.74500006 1.113332891e-38
0.2535017629 0.05942367212 0.74500006 1.122120013e-38
0.2537112889 0.05855321212 0.74300003 1.094998022e-38
0.2537112889 0.05713798212 0.74300003 1.077061682e-38
0.2537112889 0.05572274212 0.74300003 1.094998722e-38
0.2558065259 0.05990749212 0.72300005 1.122157989e-38
0.2558065259 0.05853036212 0.72300005 1.168330072e-38
0.2558065259 0.05715321212 0.72300005 1.223716114e-38
0.2558065259 0.05577607212 0.72300005 1.269846999e-38
0.2558065259 0.05439892212 0.72300005 1.316052294e-38
0.2558065259 0.05302177212 0.72300005 1.334419954e-38
0.2558065259 0.05164462212 0.72300005 1.352787193e-38
0.2559112879 0.05056081212 0.72200006 1.352572094e-38
0.2558065259 0.04889033212 0.72300005 1.352356294e-38
0.2559112879 0.04781034212 0.72200006 1.353145085e-38
0.2559112879 0.04643510212 0.72200006 1.353286476e-38
0.2559112879 0.04505986212 0.72200006 1.316012217e-38
0.2559112879 0.04368463212 0.72200006 1.287923469e-38
0.2559112879 0.04230938212 0.72200006 1.223602749e-38
0.2559112879 0.04093414212 0.72200006 1.159318462e-38
0.2561208139 0.04017606212 0.72000003 1.186941558e-38
0.2561208139 0.03880463212 0.72000003 1.223639183e-38
0.2561208139 0.03743322212 0.72000003 1.214490946e-38
0.2561208139 0.03606179212 0.72000003 1.205630255e-38
0.2561208139 0.03469035212 0.72000003 1.223997354e-38
0.2561208139 0.03331892212 0.72000003 1.251548284e-38
0.2561208139 0.03194749212 0.72000003 1.297466452e-38
0.2561208139 0.03057606212 0.72000003 1.343565248e-38
0.2561208139 0.02920465212 0.72000003 1.361969902e-38
0.2559112879 0.02718177212 0.72200006 1.38951985e-38
0.2559112879 0.02580653212 0.72200006 1.407886249e-38
0.2559112879 0.02443128212 0.72200006 1.426251947e-38
0.2558065259 0.02272462212 0.72300005 1.417066996e-38
0.2555970079 0.02068083212 0.72500002 1.417462722e-38
0.2554922449 0.01896464212 0.72600001 1.408208687e-38
0.2552827199 0.01690749212 0.72800004 1.398954232e-38
0.2552827199 0.01552081212 0.72800004 1.417286439e-38
0.2551779579 0.01379320212 0.72900003 1.435617245e-38
0.2551779579 0.01240465212 0.72900003 1.45405581e-38
0.2549684319 0.01032654212 0.73100001 1.472530949e-38
0.2548636699 0.008587492116 0.73200005 1.481679186e-38
0.2546541449 0.006496052116 0.73400003 1.490826863e-38
0.2544446189 0.004397022116 0.73600006 1.490934623e-38
0.2544446189 0.002995112116 0.73600006 1.490933642e-38
0.2543398569 0.001238892116 0.73700005 1.490968534e-38
0.2541303389 -0.0008772778837 0.73900002 1.500188377e-38
0.2540255759 -0.002642977884 0.74000001 1.500188798e-38
0.2540255759 -0.004052507884 0.74000001 1.509444374e-38
0.2538160509 -0.006185847884 0.74200004 1.518628204e-38
0.2531874749 -0.009782037884 0.74800003 1.536996704e-38
0.2531874749 -0.01120676788 0.74800003 1.491080498e-38
0.2531874749 -0.01263154788 0.74800003 1.445198763e-38
0.2482636699 -0.03293822788 0.79500002 1.298086947e-38
0.2482636699 -0.03445251788 0.79500002 1.326395138e-38
0.2482636699 -0.03596679788 0.79500002 1.354700806e-38
0.2513208139 0.06920464212 0.78000003 1.187851001e-38
0.2514236699 0.06796845212 0.77900004 1.345480122e-38
0.2514236699 0.06648464212 0.77900004 1.502607018e-38
0.2532751019 0.06811130212 0.76100004 1.427483688e-38
0.2535836749 0.06743322212 0.75800002 1.206825843e-38
0.2538922409 0.06676654212 0.75500005 1.206608922e-38
0.2538922409 0.06532844212 0.75500005 1.206572348e-38
0.2542008139 0.06467893212 0.75200003 1.206535774e-38
0.2542008139 0.06324653212 0.75200003 1.206425352e-38
0.2544065249 0.06234748212 0.75000006 1.140989618e-38
0.2546122429 0.06145606212 0.74800003 1.085744968e-38
0.2549208079 0.06084272212 0.74500006 1.085637488e-38
0.2551265259 0.05996844212 0.74300003 1.085385254e-38
0.2551265259 0.05855321212 0.74300003 9.934768907e-39
0.2552293889 0.05741415212 0.74200004 9.106821518e-39
0.2552293889 0.05600082212 0.74200004 9.931911659e-39
0.2571836689 0.05990749212 0.72300005 1.076060454e-38
0.2571836689 0.05853036212 0.72300005 1.149746052e-38
0.2571836689 0.05715321212 0.72300005 1.22367926e-38
0.2572865239 0.05606177212 0.72200006 1.279065862e-38
0.2572865239 0.05468653212 0.72200006 1.343602102e-38
0.2572865239 0.05331128212 0.72200006 1.380838806e-38
0.2572865239 0.05193606212 0.72200006 1.417430493e-38
0.2572865239 0.05056081212 0.72200006 1.41728798e-38
0.2574922419 0.04977606212 0.72000003 1.426757955e-38
0.2574922419 0.04840463212 0.72000003 1.463778439e-38
0.2574922419 0.04703322212 0.72000003 1.50022425e-38
0.2574922419 0.04566179212 0.72000003 1.47267234e-38
0.2574922419 0.04429036212 0.72000003 1.453730989e-38
0.2572865239 0.04230938212 0.72200006 1.296534168e-38
0.2572865239 0.04093414212 0.72200006 1.150136314e-38
0.2574922419 0.04017606212 0.72000003 1.196162662e-38
0.2574922419 0.03880463212 0.72000003 1.242078869e-38
0.2574922419 0.03743322212 0.72000003 1.242077468e-38
0.2574922419 0.03606179212 0.72000003 1.251368777e-38
0.2574922419 0.03469035212 0.72000003 1.25151227e-38
0.2574922419 0.03331892212 0.72000003 1.260732394e-38
0.2574922419 0.03194749212 0.72000003 1.297539039e-38
0.2574922419 0.03057606212 0.72000003 1.334346946e-38
0.2572865239 0.02855700212 0.72200006 1.343640077e-38
0.2572865239 0.02718177212 0.72200006 1.362005074e-38
0.2572865239 0.02580653212 0.72200006 1.380370212e-38
0.2571836689 0.02410177212 0.72300005 1.398700317e-38
0.2569779579 0.02206179212 0.72500002 1.343454405e-38
0.2568751029 0.02034750212 0.72600001 1.288282622e-38
0.2566693849 0.01829415212 0.72800004 1.315762786e-38
0.2566693849 0.01690749212 0.72800004 1.343421755e-38
0.2565665299 0.01518178212 0.72900003 1.371116737e-38
0.2563608189 0.01311132212 0.73100001 1.398738993e-38
0.2563608189 0.01171894212 0.73100001 1.426397121e-38
0.2562579569 0.009981792116 0.73200005 1.453984064e-38
0.2562579569 0.008587492116 0.73200005 1.454020497e-38
0.2560522459 0.006496052116 0.73400003 1.46323978e-38
0.2558465279 0.004397022116 0.73600006 1.472530949e-38
0.2558465279 0.002995112116 0.73600006 1.481713658e-38
0.2555379549 0.0005303421163 0.73900002 1.472529408e-38
0.2555379549 -0.0008772778837 0.73900002 1.472638849e-38
0.2554351069 -0.002642977884 0.74000001 1.49100777e-38
0.2552293889 -0.004772497884 0.74200004 1.518629745e-38
0.2552293889 -0.006185847884 0.74200004 1.55543541e-38
0.2546122429 -0.009782037884 0.74800003 1.592134156e-38
0.2546122429 -0.01120676788 0.74800003 1.527885742e-38
0.2546122429 -0.01263154788 0.74800003 1.463565021e-38
0.2499836739 -0.03219537788 0.79300004 1.362296124e-38
0.2497779629 -0.03445251788 0.79500002 1.352790977e-38
0.2499836739 -0.03521631788 0.79300004 1.344293222e-38
0.2499836739 -0.03672678788 0.79300004 1.344979158e-38
0.2499836739 -0.03823725788 0.79300004 1.345480963e-38
0.2547246269 0.06811130212 0.76100004 1.307842226e-38
0.2550274859 0.06743322212 0.75800002 1.20614229e-38
0.2555322479 0.06728464212 0.75300002 1.206573609e-38
0.2555322479 0.06585036212 0.75300002 1.207037719e-38
0.2556331959 0.06467893212 0.75200003 1.114339023e-38
0.2558350989 0.06377606212 0.75000006 1.022466393e-38
0.2560370099 0.06288084212 0.74800003 1.012277131e-38
0.2563398609 0.06226177212 0.74500006 1.002841628e-38
0.2565417639 0.06138369212 0.74300003 9.660707157e-39
0.2565417639 0.05996844212 0.74300003 9.293002236e-39
0.2566427119 0.05882749212 0.74200004 9.015340551e-39
0.2568446229 0.05796654212 0.74000001 8.645854579e-39
0.2568446229 0.05655702212 0.74000001 9.38090709e-39
0.2586617669 0.06018748212 0.72200006 1.01159582e-38
0.2586617669 0.05881224212 0.72200006 1.08531617e-38
0.2586617669 0.05743701212 0.72200006 1.159357418e-38
