# .PCD v0.7 - Point Cloud Data file format
VERSION 0.7
FIELDS x y z rgb
SIZE 4 4 4 4
TYPE F F F F
COUNT 1 1 1 1
WIDTH 906
HEIGHT 1
VIEWPOINT 0 0 0 1 0 0 0
POINTS 906
DATA ascii
0.20680001 0.1298329562 0.8060712518 1.030173394e-38
0.20826668 0.1298329562 0.8060712518 1.020917818e-38
0.20973335 0.1298329562 0.8060712518 1.011698675e-38
0.21120001 0.1298329562 0.8060712518 9.931883633e-39
0.21266668 0.1298329562 0.8060712518 9.83897194e-39
0.21357714 0.1318329862 0.8057245718 9.747495176e-39
0.2156 0.1298329562 0.8060712518 9.747849705e-39
0.21706668 0.1298329562 0.8060712518 9.288310689e-39
0.21853334 0.1298329562 0.8060712518 8.829131807e-39
0.22000001 0.1298329562 0.8060712518 9.014237729e-39
0.22146668 0.1298329562 0.8060712518 9.199340848e-39
0.22293335 0.1298329562 0.8060712518 9.107861282e-39
0.22498286 0.1278329862 0.8064179118 8.924906353e-39
0.22645333 0.1278329862 0.8064179118 8.557562967e-39
0.22880954 0.1248329562 0.8069379018 8.282416612e-39
0.2314743 0.1208329562 0.8076312518 8.372459848e-39
0.23295811 0.1208329562 0.8076312518 8.555772108e-39
0.23474286 0.1198329662 0.8078045818 8.555772108e-39
0.2368343 0.1178329362 0.8081512418 8.556129439e-39
0.23893334 0.1158329562 0.8084979018 8.187352525e-39
0.24042667 0.1158329562 0.8084979018 7.818932941e-39
0.24253714 0.1138329862 0.8088445818 8.000810272e-39
0.24465524 0.1118329462 0.8091912518 8.182687602e-39
0.2461562 0.1118329462 0.8091912518 8.091928303e-39
0.24765715 0.1118329462 0.8091912518 8.001170405e-39
0.24947429 0.1108329662 0.8093645818 8.0940835e-39
0.25097713 0.1108329662 0.8093645818 8.186996595e-39
0.25216001 0.1118329462 0.8091912518 8.002609539e-39
0.25366098 0.1118329462 0.8091912518 7.818225286e-39
0.25516191 0.1118329462 0.8091912518 8.18772527e-39
0.25601143 0.1138329862 0.8088445818 8.556859515e-39
0.25816384 0.1118329462 0.8091912518 8.740529106e-39
0.2590057 0.1138329862 0.8088445818 8.924560232e-39
0.25984001 0.1158329562 0.8084979018 9.19970939e-39
0.26199999 0.1138329862 0.8088445818 9.383023051e-39
0.26282668 0.1158329562 0.8084979018 9.476294878e-39
0.26499429 0.1138329862 0.8088445818 9.477371075e-39
0.26649144 0.1138329862 0.8088445818 9.845071792e-39
0.26730669 0.1158329562 0.8084979018 1.021314385e-38
0.26880002 0.1158329562 0.8084979018 1.048794549e-38
0.27098286 0.1138329862 0.8088445818 1.07627233e-38
0.27248001 0.1138329862 0.8088445818 1.094961308e-38
0.27397713 0.1138329862 0.8088445818 1.113328127e-38
0.27547431 0.1138329862 0.8088445818 1.131659072e-38
0.27697143 0.1138329862 0.8088445818 1.150026592e-38
0.27917716 0.1118329462 0.8091912518 1.149919393e-38
0.28067809 0.1118329462 0.8091912518 1.159031616e-38
0.28217906 0.1118329462 0.8091912518 1.159103923e-38
0.28404 0.1108329662 0.8093645818 1.159211403e-38
0.28554288 0.1108329662 0.8093645818 1.186869671e-38
0.28704572 0.1108329662 0.8093645818 1.21452794e-38
0.28854859 0.1108329662 0.8093645818 1.22371149e-38
0.29005143 0.1108329662 0.8093645818 1.23289546e-38
0.2915543 0.1108329662 0.8093645818 1.23289588e-38
0.29305717 0.1108329662 0.8093645818 1.242115583e-38
0.29456002 0.1108329662 0.8093645818 1.251371159e-38
0.29606289 0.1108329662 0.8093645818 1.269774552e-38
0.2975657 0.1108329662 0.8093645818 1.26963162e-38
0.29906857 0.1108329662 0.8093645818 1.278670976e-38
0.30057144 0.1108329662 0.8093645818 1.269666092e-38
0.30207428 0.1108329662 0.8093645818 1.269736997e-38
0.30434665 0.1088329862 0.8097112418 1.26987965e-38
0.30585334 0.1088329862 0.8097112418 1.269842796e-38
0.30735999 0.1088329862 0.8097112418 1.288208914e-38
0.30808574 0.1108329662 0.8093645818 1.297429458e-38
0.30958858 0.1108329662 0.8093645818 1.306542382e-38
0.31109145 0.1108329662 0.8093645818 1.324910042e-38
0.31259429 0.1108329662 0.8093645818 1.324946616e-38
0.31489334 0.1088329862 0.8097112418 1.324981788e-38
0.31639999 0.1088329862 0.8097112418 1.315905158e-38
0.31790668 0.1088329862 0.8097112418 1.306830068e-38
0.31941333 0.1088329862 0.8097112418 1.279244387e-38
0.32091999 0.1088329862 0.8097112418 1.251694019e-38
0.32242668 0.1088329862 0.8097112418 1.251694299e-38
0.32475239 0.1068329562 0.8100579018 1.260877848e-38
0.32543999 0.1088329862 0.8097112418 1.270061398e-38
0.32777333 0.1068329562 0.8100579018 1.288427516e-38
0.32928383 0.1068329562 0.8100579018 1.306722028e-38
0.3307943 0.1068329562 0.8100579018 1.334058419e-38
0.33230478 0.1068329562 0.8100579018 1.334274639e-38
0.33381525 0.1068329562 0.8100579018 1.334345825e-38
0.33617145 0.1048329762 0.8104045818 1.306651263e-38
0.3376857 0.1048329762 0.8104045818 1.279137328e-38
0.33919999 0.1048329762 0.8104045818 1.315944114e-38
0.34071428 0.1048329762 0.8104045818 1.361968921e-38
0.34136763 0.1068329562 0.8100579018 1.361860881e-38
0.34287813 0.1068329562 0.8100579018 1.361789275e-38
0.34525716 0.1048329762 0.8104045818 1.370972964e-38
0.34677145 0.1048329762 0.8104045818 1.380156514e-38
0.34828573 0.1048329762 0.8104045818 1.343422456e-38
0.34979999 0.1048329762 0.8104045818 1.315873628e-38
0.35131428 0.1048329762 0.8104045818 1.334206676e-38
0.35282856 0.1048329762 0.8104045818 1.352572234e-38
0.35434285 0.1048329762 0.8104045818 1.361754242e-38
0.35585713 0.1048329762 0.8104045818 1.380157215e-38
0.35737145 0.1048329762 0.8104045818 1.361897875e-38
0.35888574 0.1048329762 0.8104045818 1.343532317e-38
0.36040002 0.1048329762 0.8104045818 1.3251669e-38
0.36191428 0.1048329762 0.8104045818 1.297650302e-38
0.36342856 0.1048329762 0.8104045818 1.32509165e-38
0.36494285 0.1048329762 0.8104045818 1.352569992e-38
0.36737907 0.1028329462 0.8107512518 1.37093653e-38
0.36889714 0.1028329462 0.8107512518 1.389052517e-38
0.37041527 0.1028329462 0.8107512518 1.352354332e-38
0.37193337 0.1028329462 0.8107512518 1.315871106e-38
0.37392002 0.1018329562 0.8109245718 1.315978586e-38
0.37544 0.1018329562 0.8109245718 1.325303386e-38
0.37790477 0.09983298618 0.8112712418 1.343668243e-38
0.37848002 0.1018329562 0.8109245718 1.362036043e-38
0.38095239 0.09983298618 0.8112712418 1.343598038e-38
0.38343242 0.09783294618 0.8116179118 1.325160734e-38
0.38496 0.09783294618 0.8116179118 1.30650819e-38
0.38648763 0.09783294618 0.8116179118 1.288104937e-38
0.38801524 0.09783294618 0.8116179118 1.306364277e-38
0.38954288 0.09783294618 0.8116179118 1.325018222e-38
0.39204571 0.09583297618 0.8119645718 1.29743156e-38
0.39357716 0.09583297618 0.8119645718 1.278956841e-38
0.39510858 0.09583297618 0.8119645718 1.28814053e-38
0.39664 0.09583297618 0.8119645718 1.288140951e-38
0.39916193 0.09383294618 0.8123112618 1.324803823e-38
0.40069717 0.09383294618 0.8123112618 1.361502148e-38
0.40223241 0.09383294618 0.8123112618 1.324732077e-38
0.40376765 0.09383294618 0.8123112618 1.297182969e-38
0.40530288 0.09383294618 0.8123112618 1.242011607e-38
0.40683812 0.09383294618 0.8123112618 1.196200497e-38
0.40837336 0.09383294618 0.8123112618 1.278636364e-38
0.40990859 0.09383294618 0.8123112618 1.361251316e-38
0.41144383 0.09383294618 0.8123112618 1.306077151e-38
0.41400382 0.09183296618 0.8126579018 1.260123529e-38
0.41657144 0.08983293618 0.8130045818 1.223353458e-38
0.4181143 0.08983293618 0.8130045818 1.186583386e-38
0.42069337 0.08783295618 0.8133512518 1.205058105e-38
0.42224002 0.08783295618 0.8133512518 1.223495269e-38
0.42378667 0.08783295618 0.8133512518 1.186831276e-38
0.15220001 0.1388329562 0.8059607518 9.293688872e-39
0.15344763 0.1398329462 0.8057855318 8.282067689e-39
0.15489525 0.1398329462 0.8057855318 7.358687671e-39
0.15593143 0.1418329762 0.8054350418 7.537690938e-39
0.15737525 0.1418329762 0.8054350418 7.721364733e-39
0.1584 0.1438329562 0.8050845718 7.721367536e-39
0.15984002 0.1438329562 0.8050845718 7.816074293e-39
0.16106668 0.1448329462 0.8049093418 8.276329372e-39
0.1620743 0.1468329762 0.8045588518 8.736940381e-39
0.16350858 0.1468329762 0.8045588518 9.013523067e-39
0.16494286 0.1468329762 0.8045588518 9.382304185e-39
0.16637714 0.1468329762 0.8045588518 9.934756295e-39
0.16781144 0.1468329762 0.8045588518 1.048756714e-38
0.16924572 0.1468329762 0.8045588518 1.05812005e-38
0.17068 0.1468329762 0.8045588518 1.076450015e-38
0.17439999 0.1368329862 0.8063112318 1.103999543e-38
0.17585333 0.1368329862 0.8063112318 1.131621658e-38
0.17939809 0.1278329862 0.8078883818 1.09456446e-38
0.18086857 0.1278329862 0.8078883818 1.066619205e-38
0.18257524 0.1268329362 0.8080636218 1.057328176e-38
0.18404762 0.1268329362 0.8080636218 1.048360006e-38
0.18552002 0.1268329362 0.8080636218 1.039391836e-38
0.18699239 0.1268329362 0.8080636218 1.030172553e-38
0.18822095 0.1278329862 0.8078883818 1.03013682e-38
0.1892 0.1298329562 0.8075379118 1.030101508e-38
0.19066668 0.1298329562 0.8075379118 1.030102208e-38
0.19213334 0.1298329562 0.8075379118 1.039286739e-38
0.19360001 0.1298329562 0.8075379118 1.039323593e-38
0.19506668 0.1298329562 0.8075379118 1.039286178e-38
0.19653335 0.1298329562 0.8075379118 1.030101087e-38
0.19800001 0.1298329562 0.8075379118 1.030101087e-38
0.19998477 0.1278329862 0.8078883818 1.002586452e-38
0.20145524 0.1278329862 0.8078883818 9.750362233e-39
0.20292571 0.1278329862 0.8078883818 9.658891074e-39
0.20439619 0.1278329862 0.8078883818 9.567054177e-39
0.20586666 0.1278329862 0.8078883818 9.475574611e-39
0.20733716 0.1278329862 0.8078883818 9.474852942e-39
0.20826668 0.1298329562 0.8075379118 9.473412407e-39
0.21027809 0.1278329862 0.8078883818 9.473413808e-39
0.21174857 0.1278329862 0.8078883818 9.470904083e-39
0.21266668 0.1298329562 0.8075379118 9.471262815e-39
0.21413334 0.1298329562 0.8075379118 9.286875759e-39
0.2156 0.1298329562 0.8075379118 9.198983517e-39
0.21706668 0.1298329562 0.8075379118 8.649402667e-39
0.21853334 0.1298329562 0.8075379118 8.09838969e-39
0.22000001 0.1298329562 0.8075379118 8.374254911e-39
0.22146668 0.1298329562 0.8075379118 8.74087803e-39
0.22293335 0.1298329562 0.8075379118 8.832353392e-39
0.22498286 0.1278329862 0.8078883818 9.01709918e-39
0.22645333 0.1278329862 0.8078883818 8.834145653e-39
0.22880954 0.1248329562 0.8084141018 8.742310157e-39
0.2314743 0.1208329562 0.8091150618 8.739800431e-39
0.23325716 0.1198329662 0.8092902818 8.739450106e-39
0.23534477 0.1178329362 0.8096407718 8.739458514e-39
0.23744 0.1158329562 0.8099912518 8.740167571e-39
0.23893334 0.1158329562 0.8099912518 8.649399865e-39
0.24104001 0.1138329862 0.8103417218 8.556128037e-39
0.24315429 0.1118329462 0.8106921918 8.463216344e-39
0.24465524 0.1118329462 0.8106921918 8.370304651e-39
0.24646859 0.1108329662 0.8108674418 8.093721965e-39
0.24797145 0.1108329662 0.8108674418 7.910056578e-39
0.24947429 0.1108329662 0.8108674418 7.910422317e-39
0.25097713 0.1108329662 0.8108674418 7.911134176e-39
0.25248 0.1108329662 0.8108674418 7.446930238e-39
0.25398287 0.1108329662 0.8108674418 6.989907954e-39
0.25548571 0.1108329662 0.8108674418 7.543076128e-39
0.25666285 0.1118329462 0.8106921918 8.095165302e-39
0.25816384 0.1118329462 0.8106921918 8.280272626e-39
0.25966477 0.1118329462 0.8106921918 8.555779114e-39
0.26050287 0.1138329862 0.8103417218 8.739808839e-39
0.26199999 0.1138329862 0.8103417218 8.923839965e-39
0.26349714 0.1138329862 0.8103417218 8.924200099e-39
0.26499429 0.1138329862 0.8103417218 8.924920366e-39
0.26649144 0.1138329862 0.8103417218 9.201505854e-39
0.26798856 0.1138329862 0.8103417218 9.477022152e-39
0.26948571 0.1138329862 0.8103417218 9.844732678e-39
0.27098286 0.1138329862 0.8103417218 1.030282415e-38
0.27248001 0.1138329862 0.8103417218 1.058226829e-38
0.2746743 0.1118329462 0.8106921918 1.085705311e-38
0.27617523 0.1118329462 0.8106921918 1.094852707e-38
0.27767622 0.1118329462 0.8106921918 1.113327706e-38
0.27917716 0.1118329462 0.8106921918 1.12222469e-38
0.28067809 0.1118329462 0.8106921918 1.131444814e-38
0.28217906 0.1118329462 0.8106921918 1.131517261e-38
0.28404 0.1108329662 0.8108674418 1.131589148e-38
0.28554288 0.1108329662 0.8108674418 1.168431106e-38
0.28704572 0.1108329662 0.8108674418 1.205129011e-38
0.28854859 0.1108329662 0.8108674418 1.195945041e-38
0.29005143 0.1108329662 0.8108674418 1.186869111e-38
0.2915543 0.1108329662 0.8108674418 1.196196294e-38
0.29305717 0.1108329662 0.8108674418 1.205415576e-38
0.29456002 0.1108329662 0.8108674418 1.214634859e-38
0.29606289 0.1108329662 0.8108674418 1.232895039e-38
0.2975657 0.1108329662 0.8108674418 1.232823993e-38
0.29906857 0.1108329662 0.8108674418 1.242007263e-38
0.30057144 0.1108329662 0.8108674418 1.242042856e-38
0.30207428 0.1108329662 0.8108674418 1.242185928e-38
0.30434665 0.1088329862 0.8112179118 1.242329001e-38
0.30585334 0.1088329862 0.8112179118 1.242293268e-38
0.30735999 0.1088329862 0.8112179118 1.251441084e-38
0.30808574 0.1108329662 0.8108674418 1.269808604e-38
0.30958858 0.1108329662 0.8108674418 1.278992714e-38
0.31109145 0.1108329662 0.8108674418 1.29732408e-38
0.31259429 0.1108329662 0.8108674418 1.30650791e-38
0.31409714 0.1108329662 0.8108674418 1.324838716e-38
0.31560001 0.1108329662 0.8108674418 1.315654746e-38
0.31790668 0.1088329862 0.8112179118 1.30650777e-38
0.31941333 0.1088329862 0.8112179118 1.260626736e-38
0.32091999 0.1088329862 0.8112179118 1.223928411e-38
0.32242668 0.1088329862 0.8112179118 1.242331523e-38
0.32393333 0.1088329862 0.8112179118 1.260698622e-38
0.32543999 0.1088329862 0.8112179118 1.269918185e-38
0.32777333 0.1068329562 0.8115683718 1.288320457e-38
0.32928383 0.1068329562 0.8115683718 1.306615109e-38
0.3307943 0.1068329562 0.8115683718 1.32498333e-38
0.33230478 0.1068329562 0.8115683718 1.325020324e-38
0.33381525 0.1068329562 0.8115683718 1.334131426e-38
0.33532572 0.1068329562 0.8115683718 1.278993555e-38
0.3376857 0.1048329762 0.8119188518 1.233147974e-38
0.33834666 0.1068329562 0.8115683718 1.288393185e-38
0.33985713 0.1068329562 0.8115683718 1.343458329e-38
0.34136763 0.1068329562 0.8115683718 1.343422175e-38
0.34287813 0.1068329562 0.8115683718 1.352605725e-38
0.3443886 0.1068329562 0.8115683718 1.343422175e-38
0.34677145 0.1048329762 0.8119188518 1.343422315e-38
0.34740955 0.1068329562 0.8115683718 1.31601516e-38
0.34892002 0.1068329562 0.8115683718 1.288286266e-38
0.35131428 0.1048329762 0.8119188518 1.306762246e-38
0.35282856 0.1048329762 0.8119188518 1.3342759e-38
0.35434285 0.1048329762 0.8119188518 1.343422596e-38
0.35585713 0.1048329762 0.8119188518 1.361824867e-38
0.35737145 0.1048329762 0.8119188518 1.343492941e-38
0.35888574 0.1048329762 0.8119188518 1.325162976e-38
0.36040002 0.1048329762 0.8119188518 1.325271857e-38
0.36191428 0.1048329762 0.8119188518 1.325163116e-38
0.36342856 0.1048329762 0.8119188518 1.334166319e-38
0.36494285 0.1048329762 0.8119188518 1.343349728e-38
0.36737907 0.1028329462 0.8122693418 1.352676631e-38
0.36889714 0.1028329462 0.8122693418 1.361608507e-38
0.37041527 0.1028329462 0.8122693418 1.343133228e-38
0.37193337 0.1028329462 0.8122693418 1.334129745e-38
0.37392002 0.1018329562 0.8124445618 1.334345685e-38
0.37544 0.1018329562 0.8124445618 1.334380157e-38
0.37790477 0.09983298618 0.8127950418 1.362001151e-38
0.37848002 0.1018329562 0.8124445618 1.398699756e-38
0.38000003 0.1018329562 0.8124445618 1.361929965e-38
0.38247618 0.09983298618 0.8127950418 1.334236524e-38
0.384 0.09983298618 0.8127950418 1.306543223e-38
0.38552383 0.09983298618 0.8127950418 1.288068784e-38
0.38704762 0.09983298618 0.8127950418 1.315512093e-38
0.38954288 0.09783294618 0.8131455318 1.343206515e-38
0.39107049 0.09783294618 0.8131455318 1.325018923e-38
0.39357716 0.09583297618 0.8134960018 1.306436444e-38
0.39510858 0.09583297618 0.8134960018 1.306364557e-38
0.39664 0.09583297618 0.8134960018 1.315511953e-38
0.39817145 0.09583297618 0.8134960018 1.361429561e-38
0.40069717 0.09383294618 0.8138464918 1.416387366e-38
0.4012343 0.09583297618 0.8134960018 1.361178589e-38
0.40276572 0.09583297618 0.8134960018 1.31547594e-38
0.40429717 0.09583297618 0.8134960018 1.23278812e-38
0.4058286 0.09583297618 0.8134960018 1.150244354e-38
0.40735999 0.09583297618 0.8134960018 1.278635243e-38
0.40889141 0.09583297618 0.8134960018 1.41631632e-38
0.41042286 0.09583297618 0.8134960018 1.333448854e-38
0.41297907 0.09383294618 0.8138464918 1.259979896e-38
0.41554287 0.09183296618 0.8141969718 1.232428687e-38
0.41708189 0.09183296618 0.8141969718 1.214170469e-38
0.42069337 0.08783295618 0.8148979018 1.214243616e-38
0.42224002 0.08783295618 0.8148979018 1.214385007e-38
0.42378667 0.08783295618 0.8148979018 1.159353354e-38
0.15344763 0.1398329462 0.8072331518 9.202206504e-39
0.15489525 0.1398329462 0.8072331518 8.830561131e-39
0.15593143 0.1418329762 0.8068788618 8.644381815e-39
0.15737525 0.1418329762 0.8068788618 8.458199696e-39
0.15881905 0.1418329762 0.8068788618 7.907186719e-39
0.15984002 0.1438329562 0.8065245818 7.448369372e-39
0.16106668 0.1448329462 0.8063474418 7.90826712e-39
0.16250476 0.1448329462 0.8063474418 8.461072357e-39
0.16394287 0.1448329462 0.8063474418 8.460354893e-39
0.16538095 0.1448329462 0.8063474418 8.460003167e-39
0.16681907 0.1448329462 0.8063474418 9.10644597e-39
0.16825715 0.1448329462 0.8063474418 9.845445939e-39
0.17149334 0.1368329862 0.8077645718 1.002805335e-38
0.17294668 0.1368329862 0.8077645718 1.021062712e-38
0.17554286 0.1318329862 0.8086502918 1.039750709e-38
0.17792763 0.1278329862 0.8093588418 1.058189274e-38
0.17963049 0.1268329362 0.8095360018 1.039427429e-38
0.18086857 0.1278329862 0.8093588418 1.020737471e-38
0.18257524 0.1268329362 0.8095360018 1.020773484e-38
0.18404762 0.1268329362 0.8095360018 1.011661961e-38
0.186 0.1248329562 0.8098902918 1.011626368e-38
0.18699239 0.1268329362 0.8095360018 1.011590775e-38
0.18846478 0.1268329362 0.8095360018 1.002407506e-38
0.18969144 0.1278329862 0.8093588418 1.002407506e-38
0.1911619 0.1278329862 0.8093588418 1.00222828e-38
0.19213334 0.1298329562 0.8090045718 1.002084647e-38
0.19410285 0.1278329862 0.8093588418 9.929727035e-39
0.19557333 0.1278329862 0.8093588418 9.930797627e-39
0.19704382 0.1278329862 0.8093588418 9.931152156e-39
0.19851428 0.1278329862 0.8093588418 9.840034124e-39
0.19998477 0.1278329862 0.8093588418 9.657080597e-39
0.2017162 0.1268329362 0.8095360018 9.382660115e-39
0.20318858 0.1268329362 0.8095360018 9.015686671e-39
0.20439619 0.1278329862 0.8093588418 8.646905553e-39
0.20586666 0.1278329862 0.8093588418 8.832726137e-39
0.20733716 0.1278329862 0.8093588418 9.107508155e-39
0.20880762 0.1278329862 0.8093588418 9.197542982e-39
0.21027809 0.1278329862 0.8093588418 9.289377077e-39
0.21174857 0.1278329862 0.8093588418 9.380495108e-39
0.21321905 0.1278329862 0.8093588418 9.471973274e-39
0.21468954 0.1278329862 0.8093588418 9.290457478e-39
0.21616 0.1278329862 0.8093588418 9.10929481e-39
0.21706668 0.1298329562 0.8090045718 8.741233959e-39
0.21853334 0.1298329562 0.8090045718 8.466803668e-39
0.22000001 0.1298329562 0.8090045718 8.558280432e-39
0.22146668 0.1298329562 0.8090045718 8.741233959e-39
0.23325716 0.1198329662 0.8107760018 8.832368806e-39
0.23534477 0.1178329362 0.8111302918 9.016058016e-39
0.23744 0.1158329562 0.8114845718 9.199712192e-39
0.23893334 0.1158329562 0.8114845718 8.924547621e-39
0.24104001 0.1138329862 0.8118388618 8.741233959e-39
0.24315429 0.1118329462 0.8121931518 8.649757196e-39
0.24465524 0.1118329462 0.8121931518 8.558280432e-39
0.24646859 0.1108329662 0.8123702918 8.462857612e-39
0.24797145 0.1108329662 0.8123702918 8.46251009e-39
0.24947429 0.1108329662 0.8123702918 8.461087772e-39
0.25097713 0.1108329662 0.8123702918 8.369957129e-39
0.25248 0.1108329662 0.8123702918 7.999375342e-39
0.25398287 0.1108329662 0.8123702918 7.630958561e-39
0.25548571 0.1108329662 0.8123702918 7.816424617e-39
0.25698858 0.1108329662 0.8123702918 8.001890673e-39
0.25849143 0.1108329662 0.8123702918 7.817863751e-39
0.25966477 0.1118329462 0.8121931518 7.726026853e-39
0.26116574 0.1118329462 0.8121931518 8.094443634e-39
0.26266667 0.1118329462 0.8121931518 8.462863217e-39
0.26349714 0.1138329862 0.8118388618 8.463224752e-39
0.26499429 0.1138329862 0.8118388618 8.555424586e-39
0.26649144 0.1138329862 0.8118388618 8.739818648e-39
0.26798856 0.1138329862 0.8118388618 9.016049608e-39
0.26948571 0.1138329862 0.8118388618 9.383757331e-39
0.2716724 0.1118329462 0.8121931518 9.751449641e-39
0.27248001 0.1138329862 0.8118388618 1.011985941e-38
0.2746743 0.1118329462 0.8121931518 1.03964379e-38
0.27617523 0.1118329462 0.8121931518 1.058082215e-38
0.27767622 0.1118329462 0.8121931518 1.067445411e-38
0.27917716 0.1118329462 0.8121931518 1.076270649e-38
0.28067809 0.1118329462 0.8121931518 1.094674462e-38
0.28253713 0.1108329662 0.8123702918 1.103823119e-38
0.28404 0.1108329662 0.8123702918 1.112971076e-38
0.28554288 0.1108329662 0.8123702918 1.140522145e-38
0.28704572 0.1108329662 0.8123702918 1.158924277e-38
0.28854859 0.1108329662 0.8123702918 1.150026872e-38
0.29005143 0.1108329662 0.8123702918 1.150062325e-38
0.2915543 0.1108329662 0.8123702918 1.159281468e-38
0.29305717 0.1108329662 0.8123702918 1.168536203e-38
0.29456002 0.1108329662 0.8123702918 1.177647446e-38
0.29606289 0.1108329662 0.8123702918 1.195943639e-38
0.2975657 0.1108329662 0.8123702918 1.196088113e-38
0.29906857 0.1108329662 0.8123702918 1.205271803e-38
0.30057144 0.1108329662 0.8123702918 1.20534383e-38
0.30207428 0.1108329662 0.8123702918 1.214634859e-38
0.30357715 0.1108329662 0.8123702918 1.214706605e-38
0.30585334 0.1088329862 0.8127245718 1.224034909e-38
0.30735999 0.1088329862 0.8127245718 1.223856944e-38
0.30808574 0.1108329662 0.8123702918 1.232932594e-38
0.30958858 0.1108329662 0.8123702918 1.251227807e-38
0.31109145 0.1108329662 0.8123702918 1.278742442e-38
0.31259429 0.1108329662 0.8123702918 1.288033471e-38
0.31409714 0.1108329662 0.8123702918 1.297216741e-38
0.31560001 0.1108329662 0.8123702918 1.2972166e-38
0.31710285 0.1108329662 0.8123702918 1.297145555e-38
0.31860572 0.1108329662 0.8123702918 1.288034592e-38
0.32010859 0.1108329662 0.8123702918 1.278958382e-38
0.32161143 0.1108329662 0.8123702918 1.269882312e-38
0.32311431 0.1108329662 0.8123702918 1.269882452e-38
0.32461715 0.1108329662 0.8123702918 1.279137888e-38
0.32694668 0.1088329862 0.8127245718 1.288392764e-38
0.32845333 0.1088329862 0.8127245718 1.30661595e-38
0.3307943 0.1068329562 0.8130788618 1.315872367e-38
0.33230478 0.1068329562 0.8130788618 1.315837755e-38
0.33381525 0.1068329562 0.8130788618 1.315729155e-38
0.33532572 0.1068329562 0.8130788618 1.297361214e-38
0.3376857 0.1048329762 0.8134331518 1.278994115e-38
0.33834666 0.1068329562 0.8130788618 1.306580637e-38
0.33985713 0.1068329562 0.8130788618 1.334167159e-38
0.34136763 0.1068329562 0.8130788618 1.334095413e-38
0.34287813 0.1068329562 0.8130788618 1.343207076e-38
0.3443886 0.1068329562 0.8130788618 1.32487571e-38
0.34589908 0.1068329562 0.8130788618 1.315728033e-38
0.34653336 0.1088329862 0.8127245718 1.306580497e-38
0.34804001 0.1088329862 0.8127245718 1.297469114e-38
0.34954667 0.1088329862 0.8127245718 1.32509207e-38
0.35194096 0.1068329562 0.8130788618 1.352462792e-38
0.35345146 0.1068329562 0.8130788618 1.343422175e-38
0.35496193 0.1068329562 0.8130788618 1.34349252e-38
0.35737145 0.1048329762 0.8134331518 1.306792794e-38
0.35888574 0.1048329762 0.8134331518 1.279278859e-38
0.36040002 0.1048329762 0.8134331518 1.306902095e-38
0.36191428 0.1048329762 0.8134331518 1.334344704e-38
0.36342856 0.1048329762 0.8134331518 1.361715706e-38
0.36494285 0.1048329762 0.8134331518 1.380047213e-38
0.36645713 0.1048329762 0.8134331518 1.370864083e-38
0.36797142 0.1048329762 0.8134331518 1.361715146e-38
0.36948574 0.1048329762 0.8134331518 1.352458729e-38
0.37100002 0.1048329762 0.8134331518 1.334057158e-38
0.37345144 0.1028329462 0.8137874218 1.325162135e-38
0.37496954 0.1028329462 0.8137874218 1.315870405e-38
0.37648761 0.1028329462 0.8137874218 1.334237084e-38
0.37800574 0.1028329462 0.8137874218 1.352639776e-38
0.37952384 0.1028329462 0.8137874218 1.343276721e-38
0.38152 0.1018329562 0.8139645718 1.324765988e-38
0.38304001 0.1018329562 0.8139645718 1.315582439e-38
0.38456002 0.1018329562 0.8139645718 1.30639973e-38
0.38608003 0.1018329562 0.8139645718 1.333807726e-38
0.38857141 0.09983298618 0.8143188618 1.370470739e-38
0.39009523 0.09983298618 0.8143188618 1.333808847e-38
0.39259812 0.09783294618 0.8146731518 1.306365398e-38
0.39412573 0.09783294618 0.8146731518 1.306364978e-38
0.39664 0.09583297618 0.8150274218 1.31558356e-38
0.39817145 0.09583297618 0.8150274218 1.343025748e-38
0.39970288 0.09583297618 0.8150274218 1.370253678e-38
0.4012343 0.09583297618 0.8150274218 1.342882535e-38
0.40276572 0.09583297618 0.8150274218 1.324585361e-38
0.40429717 0.09583297618 0.8150274218 1.269554128e-38
0.4058286 0.09583297618 0.8150274218 1.223710228e-38
0.40735999 0.09583297618 0.8150274218 1.287817811e-38
0.40889141 0.09583297618 0.8150274218 1.351995319e-38
0.41042286 0.09583297618 0.8150274218 1.278527343e-38
0.41297907 0.09383294618 0.8153817318 1.214277248e-38
0.4145143 0.09383294618 0.8153817318 1.223459676e-38
0.41708189 0.09183296618 0.8157360018 1.223498212e-38
0.41862094 0.09183296618 0.8157360018 1.23275617e-38
0.42120004 0.08983293618 0.8160902918 1.251192354e-38
0.42274287 0.08983293618 0.8160902918 1.205272083e-38
0.15654857 0.1388329562 0.8088598218 9.747482565e-39
0.1579981 0.1388329562 0.8088598218 9.194677327e-39
0.1592381 0.1398329462 0.8086807718 8.18269601e-39
0.16026285 0.1418329762 0.8083226618 7.172145418e-39
0.16128001 0.1438329562 0.8079645718 7.630964167e-39
0.16315047 0.1418329762 0.8083226618 8.184845602e-39
0.16416001 0.1438329562 0.8079645718 7.908261515e-39
0.1656 0.1438329562 0.8079645718 7.634195561e-39
0.1674819 0.1418329762 0.8083226618 8.370320065e-39
0.16892572 0.1418329762 0.8083226618 9.1986416e-39
0.17261714 0.1318329862 0.8101131418 9.475950159e-39
0.17408 0.1318329862 0.8101131418 9.751083902e-39
0.176 0.1298329562 0.8104712518 9.847208772e-39
0.17792763 0.1278329862 0.8108293418 9.940120466e-39
0.17963049 0.1268329362 0.8110083918 9.843262716e-39
0.18110287 0.1268329362 0.8110083918 9.840392857e-39
0.18257524 0.1268329362 0.8110083918 9.841827786e-39
0.18404762 0.1268329362 0.8110083918 9.841469054e-39
0.186 0.1248329562 0.8113664818 9.931512289e-39
0.18699239 0.1268329362 0.8110083918 1.002263452e-38
0.18846478 0.1268329362 0.8110083918 9.838609004e-39
0.18969144 0.1278329862 0.8108293418 9.74856717e-39
0.19140953 0.1268329362 0.8110083918 9.653503082e-39
0.19263239 0.1278329862 0.8108293418 9.653141547e-39
0.19410285 0.1278329862 0.8108293418 9.560944516e-39
0.19557333 0.1278329862 0.8108293418 9.563094107e-39
0.19729906 0.1268329362 0.8110083918 9.471255809e-39
0.19851428 0.1278329862 0.8108293418 9.471255809e-39
0.20024382 0.1268329362 0.8110083918 9.287586218e-39
0.2017162 0.1268329362 0.8110083918 9.107149422e-39
0.20318858 0.1268329362 0.8110083918 8.372471058e-39
0.20466097 0.1268329362 0.8110083918 7.729979916e-39
0.20613335 0.1268329362 0.8110083918 8.281708957e-39
0.20760573 0.1268329362 0.8110083918 8.832357596e-39
0.2090781 0.1268329362 0.8110083918 9.013870589e-39
0.21055049 0.1268329362 0.8110083918 9.199335243e-39
0.21202287 0.1268329362 0.8110083918 9.292964401e-39
0.21349525 0.1268329362 0.8110083918 9.476996929e-39
0.21496764 0.1268329362 0.8110083918 9.201851975e-39
0.21616 0.1278329862 0.8108293418 9.017101983e-39
0.24104001 0.1138329862 0.8133360118 8.924546219e-39
0.24315429 0.1118329462 0.8136941018 8.833069456e-39
0.24465524 0.1118329462 0.8136941018 8.741592692e-39
0.24646859 0.1108329662 0.8138731418 8.923828755e-39
0.24797145 0.1108329662 0.8138731418 9.106787887e-39
0.24947429 0.1108329662 0.8138731418 9.012089538e-39
0.25097713 0.1108329662 0.8138731418 8.919889705e-39
0.25248 0.1108329662 0.8138731418 8.644018878e-39
0.25462666 0.1088329862 0.8142312418 8.367436193e-39
0.25613335 0.1088329862 0.8142312418 8.089059845e-39
0.25764 0.1088329862 0.8142312418 7.907542648e-39
0.25914666 0.1088329862 0.8142312418 7.447650505e-39
0.2599943 0.1108329662 0.8138731418 6.988830356e-39
0.26149717 0.1108329662 0.8138731418 7.448722499e-39
0.26300001 0.1108329662 0.8138731418 8.000815877e-39
0.26450288 0.1108329662 0.8138731418 8.093731774e-39
0.2656686 0.1118329462 0.8136941018 8.187366538e-39
0.26716954 0.1118329462 0.8136941018 8.3717606e-39
0.26867047 0.1118329462 0.8136941018 8.556153261e-39
0.27017143 0.1118329462 0.8136941018 8.924575647e-39
0.2716724 0.1118329462 0.8136941018 9.292626688e-39
0.27317336 0.1118329462 0.8136941018 9.66067773e-39
0.2746743 0.1118329462 0.8136941018 1.002837705e-38
0.27652574 0.1108329662 0.8138731418 1.012164467e-38
0.27802858 0.1108329662 0.8138731418 1.030424227e-38
0.27953145 0.1108329662 0.8138731418 1.039500577e-38
0.28103429 0.1108329662 0.8138731418 1.057832644e-38
0.28253713 0.1108329662 0.8138731418 1.07616471e-38
0.28404 0.1108329662 0.8138731418 1.103679486e-38
0.28554288 0.1108329662 0.8138731418 1.112863176e-38
0.28704572 0.1108329662 0.8138731418 1.122189658e-38
0.28854859 0.1108329662 0.8138731418 1.113328547e-38
0.29005143 0.1108329662 0.8138731418 1.11336428e-38
0.2915543 0.1108329662 0.8138731418 1.122583703e-38
0.29305717 0.1108329662 0.8138731418 1.131730959e-38
0.29456002 0.1108329662 0.8138731418 1.150097638e-38
0.29606289 0.1108329662 0.8138731418 1.168429284e-38
0.2975657 0.1108329662 0.8138731418 1.168537464e-38
0.29906857 0.1108329662 0.8138731418 1.168537464e-38
0.30057144 0.1108329662 0.8138731418 1.177864647e-38
0.30207428 0.1108329662 0.8138731418 1.196195873e-38
0.30357715 0.1108329662 0.8138731418 1.196196013e-38
0.30508 0.1108329662 0.8138731418 1.205416697e-38
0.30658287 0.1108329662 0.8138731418 1.205489705e-38
0.30808574 0.1108329662 0.8138731418 1.205310199e-38
0.30958858 0.1108329662 0.8138731418 1.232788961e-38
0.31109145 0.1108329662 0.8138731418 1.260303316e-38
0.31259429 0.1108329662 0.8138731418 1.260482262e-38
0.31409714 0.1108329662 0.8138731418 1.269665251e-38
0.31560001 0.1108329662 0.8138731418 1.2788481e-38
0.31710285 0.1108329662 0.8138731418 1.287925852e-38
0.31860572 0.1108329662 0.8138731418 1.306294772e-38
0.32010859 0.1108329662 0.8138731418 1.333916467e-38
0.32161143 0.1108329662 0.8138731418 1.30661637e-38
0.32311431 0.1108329662 0.8138731418 1.288248851e-38
0.32461715 0.1108329662 0.8138731418 1.28846381e-38
0.32612002 0.1108329662 0.8138731418 1.297503727e-38
0.32845333 0.1088329862 0.8142312418 1.306651263e-38
0.32996002 0.1088329862 0.8142312418 1.315835653e-38
0.33146667 0.1088329862 0.8142312418 1.306688958e-38
0.33297333 0.1088329862 0.8142312418 1.306509171e-38
0.33448002 0.1088329862 0.8142312418 1.315620694e-38
0.33598667 0.1088329862 0.8142312418 1.33405968e-38
0.33834666 0.1068329562 0.8145893518 1.324912003e-38
0.33985713 0.1068329562 0.8145893518 1.324912003e-38
0.34136763 0.1068329562 0.8145893518 1.324732497e-38
0.34287813 0.1068329562 0.8145893518 1.333880033e-38
0.34352002 0.1088329862 0.8142312418 1.315512654e-38
0.34589908 0.1068329562 0.8145893518 1.297361074e-38
0.34740955 0.1068329562 0.8145893518 1.306437285e-38
0.34804001 0.1088329862 0.8142312418 1.315728734e-38
0.34954667 0.1088329862 0.8142312418 1.343423156e-38
0.35194096 0.1068329562 0.8145893518 1.380085328e-38
0.35345146 0.1068329562 0.8145893518 1.352641878e-38
0.35496193 0.1068329562 0.8145893518 1.325162275e-38
0.3564724 0.1068329562 0.8145893518 1.2792797e-38
0.35798287 0.1068329562 0.8145893518 1.242545501e-38
0.35949335 0.1068329562 0.8145893518 1.297718546e-38
0.36191428 0.1048329762 0.8149474418 1.352712083e-38
0.36342856 0.1048329762 0.8149474418 1.389266916e-38
0.36494285 0.1048329762 0.8149474418 1.425965521e-38
0.36645713 0.1048329762 0.8149474418 1.398379279e-38
0.36797142 0.1048329762 0.8149474418 1.370900517e-38
0.36948574 0.1048329762 0.8149474418 1.352641178e-38
0.37100002 0.1048329762 0.8149474418 1.343493642e-38
0.37345144 0.1028329462 0.8153055418 1.325162556e-38
0.37496954 0.1028329462 0.8153055418 1.306651683e-38
0.37648761 0.1028329462 0.8153055418 1.30661553e-38
0.37800574 0.1028329462 0.8153055418 1.315799079e-38
0.37952384 0.1028329462 0.8153055418 1.315512093e-38
0.38152 0.1018329562 0.8154845818 1.324694522e-38
0.38304001 0.1018329562 0.8154845818 1.324729274e-38
0.38456002 0.1018329562 0.8154845818 1.324730115e-38
0.38608003 0.1018329562 0.8154845818 1.361321661e-38
0.38857141 0.09983298618 0.8158426718 1.40723969e-38
0.39107049 0.09783294618 0.8162007618 1.352138672e-38
0.39259812 0.09783294618 0.8162007618 1.306328684e-38
0.39412573 0.09783294618 0.8162007618 1.315512514e-38
0.39565337 0.09783294618 0.8162007618 1.32465963e-38
0.39817145 0.09583297618 0.8165588618 1.324623336e-38
0.39970288 0.09583297618 0.8165588618 1.333842899e-38
0.4012343 0.09583297618 0.8165588618 1.333878912e-38
0.40276572 0.09583297618 0.8165588618 1.333842198e-38
0.40429717 0.09583297618 0.8165588618 1.315581878e-38
0.40481907 0.09783294618 0.8162007618 1.297180307e-38
0.40735999 0.09583297618 0.8165588618 1.287854525e-38
0.40889141 0.09583297618 0.8165588618 1.287710612e-38
0.41042286 0.09583297618 0.8165588618 1.23289588e-38
0.41297907 0.09383294618 0.8169169718 1.177577801e-38
0.4145143 0.09383294618 0.8169169718 1.205198795e-38
0.41708189 0.09183296618 0.8172750618 1.241863349e-38
0.41965717 0.08983293618 0.8176331518 1.260483663e-38
0.42120004 0.08983293618 0.8176331518 1.287925431e-38
0.42274287 0.08983293618 0.8176331518 1.251118225e-38
0.15654857 0.1388329562 0.8103093418 1.021096343e-38
0.15779048 0.1398329462 0.8101283918 1.03024444e-38
0.1592381 0.1398329462 0.8101283918 9.289388288e-39
0.16026285 0.1418329762 0.8097664818 8.276323767e-39
0.16170667 0.1418329762 0.8097664818 8.459991956e-39
0.16315047 0.1418329762 0.8097664818 8.643660146e-39
0.16416001 0.1438329562 0.8094045818 8.460705217e-39
0.1656 0.1438329562 0.8094045818 8.278114626e-39
0.16792381 0.1398329462 0.8101283918 8.646178279e-39
0.16937144 0.1398329462 0.8101283918 9.10607883e-39
0.17261714 0.1318329862 0.8115759918 9.198637396e-39
0.17408 0.1318329862 0.8115759918 9.291539281e-39
0.176 0.1298329562 0.8119379118 9.200771574e-39
0.17792763 0.1278329862 0.8122998118 9.11503593e-39
0.17939809 0.1278329862 0.8122998118 9.383729305e-39
0.18086857 0.1278329862 0.8122998118 9.65744073e-39
0.18257524 0.1268329362 0.8124807718 9.658515526e-39
0.18404762 0.1268329362 0.8124807718 9.658514125e-39
0.186 0.1248329562 0.8128426618 9.750706952e-39
0.18747619 0.1248329562 0.8128426618 9.842906786e-39
0.18846478 0.1268329362 0.8124807718 9.657806469e-39
0.19042858 0.1248329562 0.8128426618 9.564893375e-39
0.19140953 0.1268329362 0.8124807718 9.563099713e-39
0.19263239 0.1278329862 0.8122998118 9.469466351e-39
0.19435431 0.1268329362 0.8124807718 9.471615942e-39
0.19582668 0.1268329362 0.8124807718 9.473766936e-39
0.19729906 0.1268329362 0.8124807718 9.290812007e-39
0.19877145 0.1268329362 0.8124807718 9.107859881e-39
0.2007619 0.1248329562 0.8128426618 9.199339447e-39
0.2022381 0.1248329562 0.8128426618 9.291174943e-39
0.2037143 0.1248329562 0.8128426618 8.924551825e-39
0.20466097 0.1268329362 0.8124807718 8.559004903e-39
0.20613335 0.1268329362 0.8124807718 8.926348289e-39
0.20760573 0.1268329362 0.8124807718 9.201850574e-39
0.20961905 0.1248329562 0.8128426618 9.202922567e-39
0.21109524 0.1248329562 0.8128426618 9.204357497e-39
0.21257144 0.1248329562 0.8128426618 9.479865386e-39
0.21404763 0.1248329562 0.8128426618 9.847210174e-39
0.21496764 0.1268329362 0.8124807718 9.29333014e-39
0.24315429 0.1118329462 0.8151950618 8.649039731e-39
0.24465524 0.1118329462 0.8151950618 8.465727471e-39
0.24646859 0.1108329662 0.8153760118 8.924546219e-39
0.24797145 0.1108329662 0.8153760118 9.475559196e-39
0.24947429 0.1108329662 0.8153760118 9.290813408e-39
0.25161332 0.1088329862 0.8157379118 9.106066219e-39
0.25248 0.1108329662 0.8153760118 8.92132043e-39
0.25462666 0.1088329862 0.8157379118 8.736571839e-39
0.25613335 0.1088329862 0.8157379118 8.460346485e-39
0.25764 0.1088329862 0.8157379118 8.27596083e-39
0.25914666 0.1088329862 0.8157379118 7.907545451e-39
0.26065335 0.1088329862 0.8157379118 7.631318695e-39
0.26216 0.1088329862 0.8157379118 7.814986885e-39
0.26366666 0.1088329862 0.8157379118 7.998663482e-39
0.26517335 0.1088329862 0.8157379118 7.449449773e-39
0.26600572 0.1108329662 0.8153760118 6.992789024e-39
0.26750857 0.1108329662 0.8153760118 7.543090141e-39
0.26901144 0.1108329662 0.8153760118 8.185581283e-39
0.27051428 0.1108329662 0.8153760118 8.461808039e-39
0.27201715 0.1108329662 0.8153760118 8.829859081e-39
0.27352002 0.1108329662 0.8153760118 9.016391525e-39
0.27502286 0.1108329662 0.8153760118 9.29297421e-39
0.27652574 0.1108329662 0.8153760118 9.475927738e-39
0.27802858 0.1108329662 0.8153760118 9.6592428e-39
0.27953145 0.1108329662 0.8153760118 9.750004902e-39
0.28103429 0.1108329662 0.8153760118 9.932965436e-39
0.28325334 0.1088329862 0.8157379118 1.011772103e-38
0.28476 0.1088329862 0.8157379118 1.039250725e-38
0.28626668 0.1088329862 0.8157379118 1.048577628e-38
0.28704572 0.1108329662 0.8153760118 1.067123953e-38
0.28854859 0.1108329662 0.8153760118 1.067159686e-38
0.29005143 0.1108329662 0.8153760118 1.067231573e-38
0.2915543 0.1108329662 0.8153760118 1.085598952e-38
0.29305717 0.1108329662 0.8153760118 1.104001645e-38
0.29456002 0.1108329662 0.8153760118 1.113185054e-38
0.29606289 0.1108329662 0.8153760118 1.122404477e-38
0.2975657 0.1108329662 0.8153760118 1.131695646e-38
0.29906857 0.1108329662 0.8153760118 1.140986675e-38
0.30133334 0.1088329862 0.8157379118 1.150098479e-38
0.30283999 0.1088329862 0.8157379118 1.168429985e-38
0.30434665 0.1088329862 0.8157379118 1.177685561e-38
0.30585334 0.1088329862 0.8157379118 1.186941978e-38
0.30735999 0.1088329862 0.8157379118 1.186907226e-38
0.30808574 0.1108329662 0.8153760118 1.196090776e-38
0.30958858 0.1108329662 0.8153760118 1.214422002e-38
0.31109145 0.1108329662 0.8153760118 1.241900203e-38
0.31259429 0.1108329662 0.8153760118 1.242042996e-38
0.31409714 0.1108329662 0.8153760118 1.242149494e-38
0.31560001 0.1108329662 0.8153760118 1.24211264e-38
0.31710285 0.1108329662 0.8153760118 1.251119626e-38
0.31860572 0.1108329662 0.8153760118 1.269525401e-38
0.32010859 0.1108329662 0.8153760118 1.287855506e-38
0.32242668 0.1088329862 0.8157379118 1.269810285e-38
0.32311431 0.1108329662 0.8153760118 1.260733515e-38
0.32461715 0.1108329662 0.8153760118 1.269916224e-38
0.32612002 0.1108329662 0.8153760118 1.288283463e-38
0.32845333 0.1088329862 0.8157379118 1.315762646e-38
0.32996002 0.1088329862 0.8157379118 1.343242108e-38
0.33146667 0.1088329862 0.8157379118 1.324839696e-38
0.33381525 0.1068329562 0.8160998218 1.297289328e-38
0.33448002 0.1088329862 0.8157379118 1.324840257e-38
0.33683619 0.1068329562 0.8160998218 1.361574596e-38
0.33834666 0.1068329562 0.8160998218 1.324840537e-38
0.33985713 0.1068329562 0.8160998218 1.297289748e-38
0.34136763 0.1068329562 0.8160998218 1.287998439e-38
0.34287813 0.1068329562 0.8160998218 1.288034032e-38
0.34352002 0.1088329862 0.8157379118 1.278814329e-38
0.34589908 0.1068329562 0.8160998218 1.278994115e-38
0.34740955 0.1068329562 0.8160998218 1.278922789e-38
0.34892002 0.1068329562 0.8160998218 1.269560013e-38
0.35043049 0.1068329562 0.8160998218 1.297397788e-38
0.35105336 0.1088329862 0.8157379118 1.334131847e-38
0.35256001 0.1088329862 0.8157379118 1.315872227e-38
0.35496193 0.1068329562 0.8160998218 1.30683217e-38
0.3564724 0.1068329562 0.8160998218 1.288465071e-38
0.35798287 0.1068329562 0.8160998218 1.279316554e-38
0.35949335 0.1068329562 0.8160998218 1.306830489e-38
0.36191428 0.1048329762 0.8164617218 1.343564827e-38
0.36251429 0.1068329562 0.8160998218 1.361824447e-38
0.36494285 0.1048329762 0.8164617218 1.380084067e-38
0.36737907 0.1028329462 0.8168236318 1.361681375e-38
0.36797142 0.1048329762 0.8164617218 1.343387423e-38
0.36948574 0.1048329762 0.8164617218 1.334313035e-38
0.37100002 0.1048329762 0.8164617218 1.32519997e-38
0.37345144 0.1028329462 0.8168236318 1.315943553e-38
0.37496954 0.1028329462 0.8168236318 1.306616511e-38
0.37648761 0.1028329462 0.8168236318 1.288249411e-38
0.37800574 0.1028329462 0.8168236318 1.269774833e-38
0.37952384 0.1028329462 0.8168236318 1.288142072e-38
0.38152 0.1018329562 0.8170045918 1.315690619e-38
0.38304001 0.1018329562 0.8170045918 1.315580897e-38
0.38456002 0.1018329562 0.8170045918 1.324693541e-38
0.38608003 0.1018329562 0.8170045918 1.343061481e-38
0.3876 0.1018329562 0.8170045918 1.37061213e-38
0.39009523 0.09983298618 0.8173664818 1.333949678e-38
0.39259812 0.09783294618 0.8177283818 1.306471476e-38
0.39412573 0.09783294618 0.8177283818 1.324731796e-38
0.39565337 0.09783294618 0.8177283818 1.342955263e-38
0.39718097 0.09783294618 0.8177283818 1.333843319e-38
0.39970288 0.09583297618 0.8180903018 1.315512234e-38
0.4012343 0.09583297618 0.8180903018 1.315476641e-38
0.40276572 0.09583297618 0.8180903018 1.306293091e-38
0.40329143 0.09783294618 0.8177283818 1.297145555e-38
0.40481907 0.09783294618 0.8177283818 1.287998439e-38
0.40735999 0.09583297618 0.8180903018 1.278671957e-38
0.40889141 0.09583297618 0.8180903018 1.269343653e-38
0.41042286 0.09583297618 0.8180903018 1.242006982e-38
0.41195428 0.09583297618 0.8180903018 1.214382765e-38
0.4145143 0.09383294618 0.8184522018 1.223564633e-38
0.41708189 0.09183296618 0.8188140918 1.232677978e-38
0.41862094 0.09183296618 0.8188140918 1.251225985e-38
0.42120004 0.08983293618 0.8191760118 1.260409535e-38
0.42274287 0.08983293618 0.8191760118 1.241970689e-38
0.15779048 0.1398329462 0.8115760018 1.140662555e-38
0.1592381 0.1398329462 0.8115760018 1.039678962e-38
0.16026285 0.1418329762 0.8112103018 9.384445369e-39
0.16128001 0.1438329562 0.8108445818 9.290457478e-39
0.16315047 0.1418329762 0.8112103018 9.198977912e-39
0.16416001 0.1438329562 0.8108445818 9.016022983e-39
0.1660381 0.1418329762 0.8112103018 8.923114092e-39
0.1674819 0.1418329762 0.8112103018 8.922042099e-39
0.17115429 0.1318329862 0.8130388518 9.013878996e-39
0.17261714 0.1318329862 0.8130388518 8.922044902e-39
0.17408 0.1318329862 0.8130388518 8.830205202e-39
0.17554286 0.1318329862 0.8130388518 8.554693108e-39
0.17792763 0.1278329862 0.8137702918 8.280264218e-39
0.17939809 0.1278329862 0.8137702918 8.832713526e-39
0.18086857 0.1278329862 0.8137702918 9.475201865e-39
0.18257524 0.1268329362 0.8139531618 9.475201865e-39
0.18404762 0.1268329362 0.8139531618 9.567037361e-39
0.18552002 0.1268329362 0.8139531618 9.567394692e-39
0.18699239 0.1268329362 0.8139531618 9.659591724e-39
0.18846478 0.1268329362 0.8139531618 9.568117762e-39
0.18993716 0.1268329362 0.8139531618 9.475564801e-39
0.19140953 0.1268329362 0.8139531618 9.383369172e-39
0.19263239 0.1278329862 0.8137702918 9.383009038e-39
0.19435431 0.1268329362 0.8139531618 9.382650306e-39
0.19582668 0.1268329362 0.8139531618 9.383009038e-39
0.19780953 0.1248329562 0.8143188618 9.016025786e-39
0.19928573 0.1248329562 0.8143188618 8.741238163e-39
0.20128001 0.1228329862 0.8146845818 9.110733944e-39
0.2022381 0.1248329562 0.8143188618 9.477361266e-39
0.2037143 0.1248329562 0.8143188618 9.476645203e-39
0.20519048 0.1248329562 0.8143188618 9.4766424e-39
0.20666668 0.1248329562 0.8143188618 9.57098622e-39
0.20814286 0.1248329562 0.8143188618 9.661744118e-39
0.20961905 0.1248329562 0.8143188618 9.478789189e-39
0.24947429 0.1108329662 0.8168788618 9.567756227e-39
0.25161332 0.1088329862 0.8172445818 9.381939847e-39
0.25248 0.1108329662 0.8168788618 9.289395294e-39
0.25462666 0.1088329862 0.8172445818 9.198268855e-39
0.25613335 0.1088329862 0.8172445818 8.923471423e-39
0.25959429 0.1028329462 0.8183417318 8.646890139e-39
0.26111239 0.1028329462 0.8183417318 8.462503083e-39
0.26263049 0.1028329462 0.8183417318 8.369589989e-39
0.26348573 0.1048329762 0.8179759918 8.184839996e-39
0.26433334 0.1068329562 0.8176102918 8.091932507e-39
0.26584381 0.1068329562 0.8176102918 6.897359197e-39
0.26668 0.1088329862 0.8172445818 5.798205905e-39
0.26818666 0.1088329862 0.8172445818 6.806964236e-39
0.26969334 0.1088329862 0.8172445818 7.908988788e-39
0.2712 0.1088329862 0.8172445818 8.093018513e-39
0.27270669 0.1088329862 0.8172445818 8.369239664e-39
0.27421334 0.1088329862 0.8172445818 8.464300949e-39
0.27572 0.1088329862 0.8172445818 8.645103483e-39
0.27722669 0.1088329862 0.8172445818 8.82626475e-39
0.27873334 0.1088329862 0.8172445818 9.0138832e-39
0.28024 0.1088329862 0.8172445818 9.198991925e-39
0.28174669 0.1088329862 0.8172445818 9.383030057e-39
0.28325334 0.1088329862 0.8172445818 9.567426922e-39
0.28476 0.1088329862 0.8172445818 9.749658781e-39
0.28626668 0.1088329862 0.8172445818 9.935119232e-39
0.28777334 0.1088329862 0.8172445818 1.011914896e-38
0.28928003 0.1088329862 0.8172445818 1.021134178e-38
0.29078665 0.1088329862 0.8172445818 1.030318008e-38
0.29229331 0.1088329862 0.8172445818 1.048721121e-38
0.2938 0.1088329862 0.8172445818 1.07627163e-38
0.29530665 0.1088329862 0.8172445818 1.076307363e-38
0.29681331 0.1088329862 0.8172445818 1.076414982e-38
0.29832 0.1088329862 0.8172445818 1.094889841e-38
0.29982665 0.1088329862 0.8172445818 1.113221067e-38
0.30133334 0.1088329862 0.8172445818 1.122404617e-38
0.30283999 0.1088329862 0.8172445818 1.140843463e-38
0.30434665 0.1088329862 0.8172445818 1.159282449e-38
0.30585334 0.1088329862 0.8172445818 1.177578642e-38
0.30735999 0.1088329862 0.8172445818 1.17754361e-38
0.30808574 0.1108329662 0.8168788618 1.186834919e-38
0.30958858 0.1108329662 0.8168788618 1.205273905e-38
0.31109145 0.1108329662 0.8168788618 1.22360443e-38
0.31259429 0.1108329662 0.8168788618 1.22360387e-38
0.31409714 0.1108329662 0.8168788618 1.223746662e-38
0.31560001 0.1108329662 0.8168788618 1.214598285e-38
0.31710285 0.1108329662 0.8168788618 1.214420741e-38
0.31860572 0.1108329662 0.8168788618 1.223641985e-38
0.32091999 0.1088329862 0.8172445818 1.24197237e-38
0.32161143 0.1108329662 0.8168788618 1.23300336e-38
0.32393333 0.1088329862 0.8172445818 1.233110419e-38
0.32461715 0.1108329662 0.8168788618 1.260768127e-38
0.32612002 0.1108329662 0.8168788618 1.288103816e-38
0.32845333 0.1088329862 0.8172445818 1.333878492e-38
0.32996002 0.1088329862 0.8172445818 1.379796941e-38
0.33146667 0.1088329862 0.8172445818 1.333879893e-38
0.33381525 0.1068329562 0.8176102918 1.297181708e-38
0.33448002 0.1088329862 0.8172445818 1.34313561e-38
0.33683619 0.1068329562 0.8176102918 1.389125244e-38
0.33834666 0.1068329562 0.8176102918 1.333916467e-38
0.34071428 0.1048329762 0.8179759918 1.27881587e-38
0.34136763 0.1068329562 0.8176102918 1.260485345e-38
0.34287813 0.1068329562 0.8176102918 1.242116424e-38
0.3443886 0.1068329562 0.8176102918 1.251298292e-38
0.34589908 0.1068329562 0.8176102918 1.269702245e-38
0.34740955 0.1068329562 0.8176102918 1.251407873e-38
0.34892002 0.1068329562 0.8176102918 1.233040634e-38
0.35043049 0.1068329562 0.8176102918 1.260591143e-38
0.35194096 0.1068329562 0.8176102918 1.288249551e-38
0.35256001 0.1088329862 0.8172445818 1.288285705e-38
0.35496193 0.1068329562 0.8176102918 1.288394165e-38
0.3564724 0.1068329562 0.8176102918 1.297650302e-38
0.35798287 0.1068329562 0.8176102918 1.315943693e-38
0.35949335 0.1068329562 0.8176102918 1.325089548e-38
0.36191428 0.1048329762 0.8179759918 1.334309251e-38
0.36342856 0.1048329762 0.8179759918 1.334381278e-38
0.36494285 0.1048329762 0.8179759918 1.334166179e-38
0.36737907 0.1028329462 0.8183417318 1.324946896e-38
0.36797142 0.1048329762 0.8179759918 1.325019483e-38
0.36948574 0.1048329762 0.8179759918 1.31601614e-38
0.37100002 0.1048329762 0.8179759918 1.306760424e-38
0.37345144 0.1028329462 0.8183417318 1.30672413e-38
0.37496954 0.1028329462 0.8183417318 1.306651963e-38
0.37648761 0.1028329462 0.8183417318 1.260698062e-38
0.37800574 0.1028329462 0.8183417318 1.223999877e-38
0.37952384 0.1028329462 0.8183417318 1.260770229e-38
0.38104191 0.1028329462 0.8183417318 1.306650702e-38
0.38256001 0.1028329462 0.8183417318 1.315796977e-38
0.38407812 0.1028329462 0.8183417318 1.324730115e-38
0.38608003 0.1018329562 0.8185245818 1.324766689e-38
0.3876 0.1018329562 0.8185245818 1.333949818e-38
0.39009523 0.09983298618 0.8188902818 1.324801861e-38
0.39161906 0.09983298618 0.8188902818 1.31558384e-38
0.39314288 0.09983298618 0.8188902818 1.34313589e-38
0.39466664 0.09983298618 0.8188902818 1.370506332e-38
0.39718097 0.09783294618 0.8192560018 1.333879052e-38
0.39870858 0.09783294618 0.8192560018 1.306328684e-38
0.40023619 0.09783294618 0.8192560018 1.297037795e-38
0.40176383 0.09783294618 0.8192560018 1.288034452e-38
