# .PCD v0.7 - Point Cloud Data file format
VERSION 0.7
FIELDS x y z rgb
SIZE 4 4 4 4
TYPE F F F F
COUNT 1 1 1 1
WIDTH 876
HEIGHT 1
VIEWPOINT 0 0 0 1 0 0 0
POINTS 876
DATA ascii
0.2695236522 -0.060367625 0.8516303781 1.518017238e-38
0.2695236522 -0.060367625 0.8501579981 1.5457118e-38
0.2695236522 -0.060367625 0.8486856181 1.591701855e-38
0.2695236522 -0.060367625 0.8472132281 1.62829228e-38
0.2695236522 -0.060367625 0.8457408481 1.619036844e-38
0.2695236522 -0.060367625 0.8442684681 1.609853154e-38
0.2695236522 -0.060367625 0.8427960981 1.591557661e-38
0.2715236322 -0.060523812 0.8407789581 1.573262309e-38
0.2735236022 -0.060679998 0.8387541981 1.554715843e-38
0.2735236022 -0.060679998 0.8372741981 1.527024364e-38
0.2735236022 -0.060679998 0.8357941981 1.52706304e-38
0.2735236022 -0.060679998 0.8343141881 1.527130442e-38
0.2735236022 -0.060679998 0.8328341881 1.333841077e-38
0.2735236022 -0.060679998 0.8313541981 1.14977576e-38
0.2715236322 -0.060523812 0.8304456081 1.140556757e-38
0.2695236522 -0.060367625 0.8295446581 1.131337895e-38
0.2695236522 -0.060367625 0.8280722681 1.17722047e-38
0.2695236522 -0.060367625 0.8265998881 1.223102345e-38
0.2685236022 -0.060289524 0.8254208681 1.250652994e-38
0.2685236022 -0.060289524 0.8239503881 1.269021074e-38
0.2685236022 -0.060289524 0.8224799081 1.269129675e-38
0.2685236022 -0.060289524 0.8210094381 1.260087236e-38
0.2685236022 -0.060289524 0.8195389581 1.260479459e-38
0.2665236322 -0.060133334 0.8186741881 1.260875466e-38
0.2645236022 -0.059977144 0.8178170581 1.24175643e-38
0.2645236022 -0.059977144 0.8163541881 1.222634171e-38
0.2645236022 -0.059977144 0.8148913481 1.194687095e-38
0.2635236122 -0.059899047 0.8137389481 1.175926792e-38
0.2635236122 -0.059899047 0.8122780081 1.186546672e-38
0.2635236122 -0.059899047 0.8108170581 1.205488304e-38
0.2615236422 -0.05974286 0.8099884781 1.242330682e-38
0.2615236422 -0.05974286 0.8085313381 1.269989932e-38
0.2575236322 -0.05943048 0.8083541881 1.306689238e-38
0.2575236322 -0.05943048 0.8069046681 1.352571113e-38
0.2565236422 -0.059352383 0.8057789381 1.380157775e-38
0.2565236422 -0.059352383 0.8043313281 1.407744297e-38
0.2565236422 -0.059352383 0.8028837181 1.453769805e-38
0.2565236422 -0.059352383 0.8014360781 1.490684211e-38
0.2565236422 -0.059352383 0.7999884881 1.490685051e-38
0.2565236422 -0.059352383 0.7985408381 1.490720504e-38
0.2575236322 -0.05943048 0.7967580081 1.50915907e-38
0.2575236322 -0.05943048 0.7953084781 1.536817478e-38
0.2575236322 -0.05943048 0.7938589481 1.555256604e-38
0.2575236322 -0.05943048 0.7924094281 1.5828797e-38
0.2575236322 -0.05943048 0.7909598981 1.592028217e-38
0.2575236322 -0.05943048 0.7895103781 1.610395036e-38
0.2575236322 -0.05943048 0.7880608481 1.610538249e-38
0.2575236322 -0.05943048 0.7866113581 1.620223043e-38
0.2575236322 -0.05943048 0.7851618281 1.619719837e-38
0.2595236022 -0.059586667 0.7830075381 1.628829958e-38
0.2595236022 -0.059586667 0.7815541981 1.555324147e-38
0.2595236022 -0.059586667 0.7801008581 1.491041121e-38
0.2615236422 -0.05974286 0.7779313381 1.48193114e-38
0.2635236122 -0.059899047 0.7757541881 1.472926816e-38
0.2635236122 -0.059899047 0.7742932181 1.472890803e-38
0.2635236122 -0.059899047 0.7728322781 1.47285549e-38
0.2635236122 -0.059899047 0.7713713381 1.463672501e-38
0.2435236322 -0.056914289 0.9323541881 1.37324503e-38
0.2435236322 -0.056914289 0.9309313381 1.435051821e-38
0.2435236322 -0.056914289 0.9295084781 1.360504564e-38
0.2435236322 -0.056914289 0.9280856181 1.287607477e-38
0.2435236322 -0.056914289 0.9266627681 1.324661872e-38
0.2435236322 -0.056914289 0.9252399181 1.361431943e-38
0.2445236222 -0.056990478 0.9236456281 1.37068724e-38
0.2445236222 -0.056990478 0.9222208681 1.389018325e-38
0.2445236222 -0.056990478 0.9207961081 1.416533101e-38
0.2445236222 -0.056990478 0.9193713281 1.453267019e-38
0.2465236522 -0.057142861 0.9175884681 1.480817248e-38
0.2465236522 -0.057142861 0.9161599081 1.517443826e-38
0.2465236522 -0.057142861 0.9147313281 1.480530262e-38
0.2485236222 -0.05729524 0.9129332481 1.453230866e-38
0.2485236222 -0.05729524 0.9115008481 1.462629935e-38
0.2495236122 -0.05737143 0.9098798981 1.480960741e-38
0.2495236122 -0.05737143 0.9084456181 1.49014401e-38
0.2495236122 -0.05737143 0.9070113381 1.499470352e-38
0.2495236122 -0.05737143 0.9055770581 1.481138425e-38
0.2495236122 -0.05737143 0.9041427581 1.462772307e-38
0.2515236422 -0.057523813 0.9023122881 1.49035995e-38
0.2515236422 -0.057523813 0.9008741781 1.527201488e-38
0.2515236422 -0.057523813 0.8994360981 1.53652811e-38
0.2525236322 -0.057600003 0.8977941981 1.545568307e-38
0.2545236122 -0.057752378 0.8959427681 1.545891446e-38
0.2545236122 -0.057752378 0.8944989481 1.545927179e-38
0.2565236422 -0.057904765 0.8926360981 1.545962913e-38
0.2575236322 -0.057980955 0.8909770581 1.545819139e-38
0.2595236022 -0.058133334 0.8891008581 1.499757758e-38
0.2615236422 -0.058285717 0.8872170381 1.453407569e-38
0.2615236422 -0.058285717 0.8857598981 1.416276803e-38
0.2615236422 -0.058285717 0.8843027581 1.388583502e-38
0.2615236422 -0.058285717 0.8828456181 1.278274128e-38
0.2635236122 -0.058438096 0.8809427581 1.177217948e-38
0.2635236122 -0.058438096 0.8794818181 1.131263206e-38
0.2635236122 -0.058438096 0.8780208581 1.08534784e-38
0.2635236122 -0.058438096 0.8765599081 1.186405281e-38
0.2645236022 -0.058514286 0.8748684881 1.288034312e-38
0.2645236022 -0.058514286 0.8734056281 1.315226369e-38
0.2645236022 -0.058514286 0.8719427681 1.343423016e-38
0.2665236322 -0.058666669 0.8700075181 1.389556284e-38
0.2665236322 -0.058666669 0.8685408481 1.435510466e-38
0.2685236022 -0.058819048 0.8665941881 1.444730449e-38
0.2685236022 -0.058819048 0.8651237281 1.454020637e-38
0.2685236022 -0.058819048 0.8636532481 1.490897348e-38
0.2685236022 -0.058819048 0.8621827581 1.527489875e-38
0.2685236022 -0.058819048 0.8607122981 1.555078219e-38
0.2685236022 -0.058819048 0.8592418081 1.59173927e-38
0.2695236522 -0.058895241 0.8575198881 1.527417148e-38
0.2695236522 -0.058895241 0.8560475181 1.472064878e-38
0.2695236522 -0.058895241 0.8545751381 1.462845595e-38
0.2695236522 -0.058895241 0.8531027481 1.462701962e-38
0.2695236522 -0.058895241 0.8516303781 1.499794752e-38
0.2695236522 -0.058895241 0.8501579981 1.536600697e-38
0.2695236522 -0.058895241 0.8486856181 1.600957431e-38
0.2695236522 -0.058895241 0.8472132281 1.665099486e-38
0.2695236522 -0.058895241 0.8457408481 1.637405905e-38
0.2715236322 -0.059047621 0.8437313381 1.609890429e-38
0.2715236322 -0.059047621 0.8422551481 1.600526812e-38
0.2735236022 -0.0592 0.8402341981 1.591558222e-38
0.2735236022 -0.0592 0.8387541981 1.572796237e-38
0.2735236022 -0.0592 0.8372741981 1.563649822e-38
0.2755236322 -0.059352383 0.8352379881 1.600421295e-38
0.2755236322 -0.059352383 0.8337541881 1.646407566e-38
0.2755236322 -0.059352383 0.8322703781 1.453621688e-38
0.2735236022 -0.0592 0.8313541981 1.260086255e-38
0.2735236022 -0.0592 0.8298741981 1.241576363e-38
0.2715236322 -0.059047621 0.8289694281 1.232536447e-38
0.2695236522 -0.058895241 0.8280722681 1.251692898e-38
0.2695236522 -0.058895241 0.8265998881 1.279244107e-38
0.2685236022 -0.058819048 0.8254208681 1.30683133e-38
0.2685236022 -0.058819048 0.8239503881 1.334419253e-38
0.2685236022 -0.058819048 0.8224799081 1.371190866e-38
0.2685236022 -0.058819048 0.8210094381 1.417070499e-38
0.2665236322 -0.058666669 0.8201408581 1.371114776e-38
0.2645236022 -0.058514286 0.8192799181 1.325162556e-38
0.2645236022 -0.058514286 0.8178170581 1.343531196e-38
0.2635236122 -0.058438096 0.8166608781 1.370971983e-38
0.2635236122 -0.058438096 0.8151999081 1.361714585e-38
0.2635236122 -0.058438096 0.8137389481 1.3613204e-38
0.2635236122 -0.058438096 0.8122780081 1.287493831e-38
0.2615236422 -0.058285717 0.8114456181 1.21452836e-38
0.2615236422 -0.058285717 0.8099884781 1.232860427e-38
0.2595236022 -0.058133334 0.8091675281 1.260807083e-38
0.2575236322 -0.057980955 0.8083541881 1.306439246e-38
0.2575236322 -0.057980955 0.8069046681 1.352571673e-38
0.2565236422 -0.057904765 0.8057789381 1.380157495e-38
0.2565236422 -0.057904765 0.8043313281 1.41696372e-38
0.2565236422 -0.057904765 0.8028837181 1.472208791e-38
0.2565236422 -0.057904765 0.8014360781 1.536530913e-38
0.2565236422 -0.057904765 0.7999884881 1.509053412e-38
0.2565236422 -0.057904765 0.7985408381 1.490757358e-38
0.2575236322 -0.057980955 0.7967580081 1.500012094e-38
0.2575236322 -0.057980955 0.7953084781 1.518415066e-38
0.2575236322 -0.057980955 0.7938589481 1.546181095e-38
0.2575236322 -0.057980955 0.7924094281 1.573660978e-38
0.2575236322 -0.057980955 0.7909598981 1.592028918e-38
0.2575236322 -0.057980955 0.7895103781 1.61043133e-38
0.2575236322 -0.057980955 0.7880608481 1.610574122e-38
0.2575236322 -0.057980955 0.7866113581 1.619828578e-38
0.2575236322 -0.057980955 0.7851618281 1.610751947e-38
0.2575236322 -0.057980955 0.7837122781 1.601316444e-38
0.2595236022 -0.058133334 0.7815541981 1.564653151e-38
0.2595236022 -0.058133334 0.7801008581 1.527848608e-38
0.2615236422 -0.058285717 0.7779313381 1.509518783e-38
0.2635236122 -0.058438096 0.7757541881 1.500371247e-38
0.2635236122 -0.058438096 0.7742932181 1.50040726e-38
0.2635236122 -0.058438096 0.7728322781 1.50040698e-38
0.2635236122 -0.058438096 0.7713713381 1.55565163e-38
0.2635236122 -0.058438096 0.7699103681 1.610534886e-38
0.2435236322 -0.055491429 0.9323541881 1.27907427e-38
0.2445236222 -0.055565715 0.9307694381 1.296646552e-38
0.2435236322 -0.055491429 0.9295084781 1.278381468e-38
0.2435236322 -0.055491429 0.9280856181 1.26930764e-38
0.2435236322 -0.055491429 0.9266627681 1.306223446e-38
0.2435236322 -0.055491429 0.9252399181 1.343028831e-38
0.2435236322 -0.055491429 0.9238170481 1.370686679e-38
0.2445236222 -0.055565715 0.9222208681 1.398057541e-38
0.2435236322 -0.055491429 0.9209713281 1.41653184e-38
0.2445236222 -0.055565715 0.9193713281 1.443903403e-38
0.2445236222 -0.055565715 0.9179465681 1.462235049e-38
0.2445236222 -0.055565715 0.9165218081 1.480602008e-38
0.2465236522 -0.055714291 0.9147313281 1.462234909e-38
0.2465236522 -0.055714291 0.9133027581 1.44386809e-38
0.2485236222 -0.055862859 0.9115008481 1.462558469e-38
0.2485236222 -0.055862859 0.9100684781 1.480961021e-38
0.2485236222 -0.055862859 0.9086360981 1.508619009e-38
0.2485236222 -0.055862859 0.9072037081 1.545532294e-38
0.2495236122 -0.055937145 0.9055770581 1.508797815e-38
0.2495236122 -0.055937145 0.9041427581 1.48128374e-38
0.2495236122 -0.055937145 0.9027084781 1.499687413e-38
0.2495236122 -0.055937145 0.9012741981 1.518125978e-38
0.2495236122 -0.055937145 0.8998399181 1.518161712e-38
0.2515236422 -0.056085717 0.8979979981 1.527273375e-38
0.2525236322 -0.056160003 0.8963541881 1.53663615e-38
0.2545236122 -0.056308571 0.8944989481 1.555039403e-38
0.2565236422 -0.056457143 0.8926360981 1.554932204e-38
0.2565236422 -0.056457143 0.8911884681 1.554860177e-38
0.2575236322 -0.056531429 0.8895275181 1.527381134e-38
0.2595236022 -0.056679998 0.8876475281 1.49990041e-38
0.2595236022 -0.056679998 0.8861941881 1.472276193e-38
0.2615236422 -0.056828573 0.8843027581 1.444690232e-38
0.2615236422 -0.056828573 0.8828456181 1.379867846e-38
0.2615236422 -0.056828573 0.8813884781 1.324047262e-38
0.2615236422 -0.056828573 0.8799313381 1.27787672e-38
0.2615236422 -0.056828573 0.8784741981 1.240929944e-38
0.2635236122 -0.056977142 0.8765599081 1.315477341e-38
0.2635236122 -0.056977142 0.8750989681 1.388946299e-38
0.2645236022 -0.057051428 0.8734056281 1.370651506e-38
0.2645236022 -0.057051428 0.8719427681 1.361575436e-38
0.2645236022 -0.057051428 0.8704799081 1.361467677e-38
0.2665236322 -0.0572 0.8685408481 1.370543606e-38
0.2665236322 -0.0572 0.8670741981 1.388946719e-38
0.2685236022 -0.057348572 0.8651237281 1.4165324e-38
0.2685236022 -0.057348572 0.8636532481 1.435436757e-38
0.2695236522 -0.057422861 0.8619370381 1.453984204e-38
0.2695236522 -0.057422861 0.8604646681 1.463097128e-38
0.2695236522 -0.057422861 0.8589922881 1.481427934e-38
0.2715236322 -0.057571433 0.8570170481 1.453733511e-38
0.2715236322 -0.057571433 0.8555408681 1.42603965e-38
0.2715236322 -0.057571433 0.8540646681 1.398417535e-38
0.2715236322 -0.057571433 0.8525884681 1.370831293e-38
0.2695236522 -0.057422861 0.8516303781 1.435295787e-38
0.2695236522 -0.057422861 0.8501579981 1.509158509e-38
0.2695236522 -0.057422861 0.8486856181 1.55500423e-38
0.2695236522 -0.057422861 0.8472132281 1.610071056e-38
0.2695236522 -0.057422861 0.8457408481 1.609893231e-38
0.2715236322 -0.057571433 0.8437313381 1.619111253e-38
0.2715236322 -0.057571433 0.8422551481 1.600707019e-38
0.2735236022 -0.057719998 0.8402341981 1.591487036e-38
0.2735236022 -0.057719998 0.8387541981 1.591307109e-38
0.2735236022 -0.057719998 0.8372741981 1.58180056e-38
0.2755236322 -0.057868574 0.8352379881 1.609781688e-38
0.2755236322 -0.057868574 0.8337541881 1.637760854e-38
0.2755236322 -0.057868574 0.8322703781 1.481351703e-38
0.2735236022 -0.057719998 0.8313541981 1.333698425e-38
0.2735236022 -0.057719998 0.8298741981 1.269450432e-38
0.2715236322 -0.057571433 0.8289694281 1.205201037e-38
0.2695236522 -0.057422861 0.8280722681 1.233038392e-38
0.2695236522 -0.057422861 0.8265998881 1.260877288e-38
0.2685236022 -0.057348572 0.8254208681 1.288393325e-38
0.2685236022 -0.057348572 0.8239503881 1.315910062e-38
0.2685236022 -0.057348572 0.8224799081 1.352610489e-38
0.2665236322 -0.0572 0.8216075181 1.389306713e-38
0.2665236322 -0.0572 0.8201408581 1.361718229e-38
0.2645236022 -0.057051428 0.8192799181 1.343352671e-38
0.2645236022 -0.057051428 0.8178170581 1.352609508e-38
0.2635236122 -0.056977142 0.8166608781 1.371081705e-38
0.2635236122 -0.056977142 0.8151999081 1.407705761e-38
0.2635236122 -0.056977142 0.8137389481 1.43514837e-38
0.2615236422 -0.056828573 0.8129027581 1.379867426e-38
0.2615236422 -0.056828573 0.8114456181 1.324623476e-38
0.2615236422 -0.056828573 0.8099884781 1.31569202e-38
0.2595236022 -0.056679998 0.8091675281 1.315944954e-38
0.2575236322 -0.056531429 0.8083541881 1.352645242e-38
0.2575236322 -0.056531429 0.8069046681 1.398525715e-38
0.2565236422 -0.056457143 0.8057789381 1.407743877e-38
0.2565236422 -0.056457143 0.8043313281 1.416999593e-38
0.2565236422 -0.056457143 0.8028837181 1.453770225e-38
0.2565236422 -0.056457143 0.8014360781 1.499725809e-38
0.2565236422 -0.056457143 0.7999884881 1.490544221e-38
0.2565236422 -0.056457143 0.7985408381 1.48135969e-38
0.2575236322 -0.056531429 0.7967580081 1.490721625e-38
0.2575236322 -0.056531429 0.7953084781 1.509232217e-38
0.2575236322 -0.056531429 0.7938589481 1.536926359e-38
0.2575236322 -0.056531429 0.7924094281 1.564477989e-38
0.2575236322 -0.056531429 0.7909598981 1.582882082e-38
0.2575236322 -0.056531429 0.7895103781 1.601284074e-38
0.2575236322 -0.056531429 0.7880608481 1.610502516e-38
0.2575236322 -0.056531429 0.7866113581 1.619757111e-38
0.2575236322 -0.056531429 0.7851618281 1.601389452e-38
0.2575236322 -0.056531429 0.7837122781 1.583022212e-38
0.2575236322 -0.056531429 0.7822627481 1.564583367e-38
0.2595236022 -0.056679998 0.7801008581 1.536997825e-38
0.2595236022 -0.056679998 0.7786475181 1.527779524e-38
0.2615236422 -0.056828573 0.7764741881 1.509376831e-38
0.2615236422 -0.056828573 0.7750170581 1.509520745e-38
0.2615236422 -0.056828573 0.7735599081 1.500443834e-38
0.2615236422 -0.056828573 0.7721027481 1.518845966e-38
0.2615236422 -0.056828573 0.7706456281 1.536996144e-38
0.2445236222 -0.054140955 0.9321941981 1.196382106e-38
0.2435236322 -0.054068573 0.9309313381 1.168146782e-38
0.2435236322 -0.054068573 0.9295084781 1.204806152e-38
0.2435236322 -0.054068573 0.9280856181 1.25094054e-38
0.2435236322 -0.054068573 0.9266627681 1.287819633e-38
0.2435236322 -0.054068573 0.9252399181 1.333917448e-38
0.2435236322 -0.054068573 0.9238170481 1.37068822e-38
0.2435236322 -0.054068573 0.9223941981 1.416568274e-38
0.2435236322 -0.054068573 0.9209713281 1.425714128e-38
0.2435236322 -0.054068573 0.9195484881 1.434826632e-38
0.2445236222 -0.054140955 0.9179465681 1.434791459e-38
0.2445236222 -0.054140955 0.9165218081 1.444011163e-38
0.2465236522 -0.054285716 0.9147313281 1.434863766e-38
0.2465236522 -0.054285716 0.9133027581 1.43490006e-38
0.2465236522 -0.054285716 0.9118741781 1.453339466e-38
0.2485236222 -0.054430481 0.9100684781 1.481034029e-38
0.2485236222 -0.054430481 0.9086360981 1.53627938e-38
0.2485236222 -0.054430481 0.9072037081 1.59141543e-38
0.2485236222 -0.054430481 0.9057713381 1.545496701e-38
0.2485236222 -0.054430481 0.9043389681 1.508870963e-38
0.2495236122 -0.054502856 0.9027084781 1.508871663e-38
0.2495236122 -0.054502856 0.9012741981 1.508942849e-38
0.2495236122 -0.054502856 0.8998399181 1.508978162e-38
0.2495236122 -0.054502856 0.8984056381 1.518161712e-38
0.2515236422 -0.054647624 0.8965598981 1.536564684e-38
0.2515236422 -0.054647624 0.8951218081 1.564116034e-38
0.2525236322 -0.054719999 0.8934741981 1.564044988e-38
0.2545236122 -0.054864764 0.8916113481 1.564116174e-38
0.2545236122 -0.054864764 0.8901675281 1.55500395e-38
0.2565236422 -0.055009525 0.8882932481 1.545818999e-38
0.2565236422 -0.055009525 0.8868456081 1.527450639e-38
0.2575236322 -0.055081908 0.8851789481 1.50897634e-38
0.2575236322 -0.055081908 0.8837294381 1.490681548e-38
0.2595236022 -0.055226665 0.8818341881 1.472205428e-38
0.2595236022 -0.055226665 0.8803808581 1.435362348e-38
0.2615236422 -0.05537143 0.8784741981 1.407813241e-38
0.2615236422 -0.05537143 0.8770170581 1.444548981e-38
0.2615236422 -0.05537143 0.8755599081 1.49014457e-38
0.2635236122 -0.055516191 0.8736379981 1.434900621e-38
0.2635236122 -0.055516191 0.8721770581 1.379799183e-38
0.2645236022 -0.055588569 0.8704799081 1.3419169e-38
0.2665236322 -0.055733338 0.8685408481 1.315406295e-38
0.2665236322 -0.055733338 0.8670741981 1.342777438e-38
0.2685236022 -0.055878095 0.8651237281 1.379654289e-38
0.2685236022 -0.055878095 0.8636532481 1.38001218e-38
0.2685236022 -0.055878095 0.8621827581 1.379690162e-38
0.2715236322 -0.056095239 0.8599694281 1.379368143e-38
0.2715236322 -0.056095239 0.8584932481 1.379510796e-38
0.2735236022 -0.05624 0.8565141981 1.379653448e-38
0.2735236022 -0.05624 0.8550341981 1.379798202e-38
0.2715236322 -0.056095239 0.8540646681 1.324841658e-38
0.2715236322 -0.056095239 0.8525884681 1.27892419e-38
0.2695236522 -0.055950481 0.8516303781 1.37997953e-38
0.2695236522 -0.055950481 0.8501579981 1.4815001e-38
0.2695236522 -0.055950481 0.8486856181 1.518161852e-38
0.2695236522 -0.055950481 0.8472132281 1.564044707e-38
0.2695236522 -0.055950481 0.8457408481 1.591596477e-38
0.2715236322 -0.056095239 0.8437313381 1.628401441e-38
0.2715236322 -0.056095239 0.8422551481 1.610105248e-38
0.2735236022 -0.05624 0.8402341981 1.600705057e-38
0.2735236022 -0.05624 0.8387541981 1.600667783e-38
0.2735236022 -0.05624 0.8372741981 1.60992378e-38
0.2755236322 -0.056384765 0.8352379881 1.619179776e-38
0.2755236322 -0.056384765 0.8337541881 1.628541291e-38
0.2755236322 -0.056384765 0.8322703781 1.518265688e-38
0.2735236022 -0.05624 0.8313541981 1.407418495e-38
0.2735236022 -0.05624 0.8298741981 1.296391936e-38
0.2715236322 -0.056095239 0.8289694281 1.186547513e-38
0.2715236322 -0.056095239 0.8274932381 1.214384727e-38
0.2695236522 -0.055950481 0.8265998881 1.242007823e-38
0.2685236022 -0.055878095 0.8254208681 1.269666792e-38
0.2685236022 -0.055878095 0.8239503881 1.306617351e-38
0.2665236322 -0.055733338 0.8230741981 1.334204995e-38
0.2665236322 -0.055733338 0.8216075181 1.361754662e-38
0.2645236022 -0.055588569 0.8207427681 1.361574455e-38
0.2645236022 -0.055588569 0.8192799181 1.361575436e-38
0.2635236122 -0.055516191 0.8181218181 1.37079598e-38
0.2635236122 -0.055516191 0.8166608781 1.379906102e-38
0.2615236422 -0.05537143 0.8158170381 1.444117381e-38
0.2615236422 -0.05537143 0.8143598981 1.517549624e-38
0.2615236422 -0.05537143 0.8129027581 1.480779272e-38
0.2615236422 -0.05537143 0.8114456181 1.444152554e-38
0.2595236022 -0.055226665 0.8106208481 1.40802792e-38
0.2575236322 -0.055081908 0.8098037181 1.371008277e-38
0.2575236322 -0.055081908 0.8083541881 1.407815623e-38
0.2565236422 -0.055009525 0.8072265781 1.453697078e-38
0.2565236422 -0.055009525 0.8057789381 1.435329558e-38
0.2565236422 -0.055009525 0.8043313281 1.426110696e-38
0.2565236422 -0.055009525 0.8028837181 1.444442482e-38
0.2565236422 -0.055009525 0.8014360781 1.462882309e-38
0.2565236422 -0.055009525 0.7999884881 1.472138586e-38
0.2565236422 -0.055009525 0.7985408381 1.481357588e-38
0.2575236322 -0.055081908 0.7967580081 1.490648337e-38
0.2575236322 -0.055081908 0.7953084781 1.500011954e-38
0.2565236422 -0.055009525 0.7941979881 1.527706796e-38
0.2565236422 -0.055009525 0.7927503681 1.555258006e-38
0.2565236422 -0.055009525 0.7913027781 1.573876638e-38
0.2565236422 -0.055009525 0.7898551281 1.592064371e-38
0.2565236422 -0.055009525 0.7884075081 1.601283794e-38
0.2565236422 -0.055009525 0.7869599281 1.619650052e-38
0.2565236422 -0.055009525 0.7855122781 1.592098703e-38
0.2575236322 -0.055081908 0.7837122781 1.573767477e-38
0.2575236322 -0.055081908 0.7822627481 1.564512181e-38
0.2595236022 -0.055226665 0.7801008581 1.555294159e-38
0.2595236022 -0.055226665 0.7786475181 1.536928321e-38
0.2615236422 -0.05537143 0.7764741881 1.527744631e-38
0.2615236422 -0.05537143 0.7750170581 1.518632548e-38
0.2615236422 -0.05537143 0.7735599081 1.509555637e-38
0.2615236422 -0.05537143 0.7721027481 1.49122343e-38
0.2635236122 -0.055516191 0.7699103681 1.472890803e-38
0.2635236122 -0.055516191 0.7684494381 1.42704354e-38
0.2445236222 -0.052716192 0.9321941981 1.17775955e-38
0.2435236322 -0.052645717 0.9309313381 1.159069031e-38
0.2435236322 -0.052645717 0.9295084781 1.186619259e-38
0.2435236322 -0.052645717 0.9280856181 1.214206342e-38
0.2435236322 -0.052645717 0.9266627681 1.26023241e-38
0.2435236322 -0.052645717 0.9252399181 1.306438966e-38
0.2435236322 -0.052645717 0.9238170481 1.343210859e-38
0.2435236322 -0.052645717 0.9223941981 1.379977708e-38
0.2435236322 -0.052645717 0.9209713281 1.389014682e-38
0.2435236322 -0.052645717 0.9195484881 1.398199213e-38
0.2435236322 -0.052645717 0.9181256181 1.39816446e-38
0.2435236322 -0.052645717 0.9167027681 1.407312697e-38
0.2445236222 -0.052716192 0.9150970681 1.416460934e-38
0.2465236522 -0.052857146 0.9133027581 1.416676874e-38
0.2465236522 -0.052857146 0.9118741781 1.44429997e-38
0.2465236522 -0.052857146 0.9104456081 1.462740077e-38
0.2465236522 -0.052857146 0.9090170481 1.49032786e-38
0.2485236222 -0.052998096 0.9072037081 1.527131984e-38
0.2485236222 -0.052998096 0.9057713381 1.4996514e-38
0.2485236222 -0.052998096 0.9043389681 1.472173338e-38
0.2485236222 -0.052998096 0.9029065781 1.481393602e-38
0.2485236222 -0.052998096 0.9014741881 1.490612044e-38
0.2485236222 -0.052998096 0.9000418081 1.499794752e-38
0.2485236222 -0.052998096 0.8986094181 1.518233738e-38
0.2495236122 -0.053068571 0.8969713381 1.545784527e-38
0.2495236122 -0.053068571 0.8955370581 1.573336157e-38
0.2515236422 -0.053209525 0.8936837281 1.582520688e-38
0.2515236422 -0.053209525 0.8922456181 1.59173927e-38
0.2525236322 -0.053280003 0.8905941881 1.57337147e-38
0.2525236322 -0.053280003 0.8891542081 1.564222953e-38
0.2545236122 -0.053420953 0.8872799081 1.545783406e-38
0.2565236422 -0.053561911 0.8853979981 1.527344841e-38
0.2565236422 -0.053561911 0.8839503881 1.518089965e-38
0.2575236322 -0.053632382 0.8822799081 1.508869701e-38
0.2575236322 -0.053632382 0.8808303881 1.499649438e-38
0.2595236022 -0.053773336 0.8789275181 1.490466168e-38
0.2595236022 -0.053773336 0.8774742081 1.517945351e-38
0.2615236422 -0.05391429 0.8755599081 1.536277558e-38
0.2615236422 -0.05391429 0.8741027681 1.517660467e-38
0.2635236122 -0.05405524 0.8721770581 1.499077848e-38
0.2635236122 -0.05405524 0.8707160981 1.471527059e-38
0.2645236022 -0.054125715 0.8690170581 1.4347923e-38
0.2645236022 -0.054125715 0.8675542081 1.407133611e-38
0.2685236022 -0.054407619 0.8651237281 1.370326826e-38
0.2685236022 -0.054407619 0.8636532481 1.361285928e-38
0.2695236522 -0.054478098 0.8619370381 1.343063022e-38
0.2735236022 -0.054760002 0.8594741881 1.250474889e-38
0.2735236022 -0.054760002 0.8579941881 1.158745611e-38
0.2735236022 -0.054760002 0.8565141981 1.149596674e-38
0.2735236022 -0.054760002 0.8550341981 1.131303423e-38
0.2715236322 -0.054619048 0.8540646681 1.168255103e-38
0.2715236322 -0.054619048 0.8525884681 1.205204961e-38
0.2695236522 -0.054478098 0.8516303781 1.342958766e-38
0.2695236522 -0.054478098 0.8501579981 1.49057589e-38
0.2695236522 -0.054478098 0.8486856181 1.527308968e-38
0.2695236522 -0.054478098 0.8472132281 1.5640796e-38
0.2695236522 -0.054478098 0.8457408481 1.591702696e-38
0.2695236522 -0.054478098 0.8442684681 1.619324531e-38
0.2695236522 -0.054478098 0.8427960981 1.61921649e-38
0.2715236322 -0.054619048 0.8407789581 1.619142502e-38
0.2735236022 -0.054760002 0.8387541981 1.6191404e-38
0.2735236022 -0.054760002 0.8372741981 1.619141801e-38
0.2735236022 -0.054760002 0.8357941981 1.610031399e-38
0.2735236022 -0.054760002 0.8343141881 1.610174052e-38
0.2735236022 -0.054760002 0.8328341881 1.545888504e-38
0.2735236022 -0.054760002 0.8313541981 1.471990889e-38
0.2735236022 -0.054760002 0.8298741981 1.314759876e-38
0.2715236322 -0.054619048 0.8289694281 1.158710579e-38
0.2695236522 -0.054478098 0.8280722681 1.186475766e-38
0.2695236522 -0.054478098 0.8265998881 1.214241795e-38
0.2685236022 -0.054407619 0.8254208681 1.242115443e-38
0.2685236022 -0.054407619 0.8239503881 1.278993415e-38
0.2665236322 -0.054266669 0.8230741981 1.306687837e-38
0.2665236322 -0.054266669 0.8216075181 1.334202752e-38
0.2645236022 -0.054125715 0.8207427681 1.352390626e-38
0.2635236122 -0.05405524 0.8195827681 1.379762469e-38
0.2635236122 -0.05405524 0.8181218181 1.370436127e-38
0.2635236122 -0.05405524 0.8166608781 1.370327526e-38
0.2615236422 -0.05391429 0.8158170381 1.397841321e-38
0.2615236422 -0.05391429 0.8143598981 1.434575239e-38
0.2615236422 -0.05391429 0.8129027581 1.416459112e-38
0.2595236022 -0.053773336 0.8120741881 1.407561147e-38
0.2595236022 -0.053773336 0.8106208481 1.380080984e-38
0.2575236322 -0.053632382 0.8098037181 1.361822485e-38
0.2565236422 -0.053561911 0.8086741781 1.389374255e-38
0.2565236422 -0.053561911 0.8072265781 1.425893635e-38
0.2565236422 -0.053561911 0.8057789381 1.416746519e-38
0.2565236422 -0.053561911 0.8043313281 1.407599403e-38
0.2565236422 -0.053561911 0.8028837181 1.426074822e-38
0.2565236422 -0.053561911 0.8014360781 1.444477795e-38
0.2565236422 -0.053561911 0.7999884881 1.453733091e-38
0.2565236422 -0.053561911 0.7985408381 1.47220795e-38
0.2575236322 -0.053632382 0.7967580081 1.481427513e-38
0.2565236422 -0.053561911 0.7956456281 1.49079183e-38
0.2565236422 -0.053561911 0.7941979881 1.509232077e-38
0.2565236422 -0.053561911 0.7927503681 1.536890206e-38
0.2565236422 -0.053561911 0.7913027781 1.564476728e-38
0.2565236422 -0.053561911 0.7898551281 1.592064231e-38
0.2565236422 -0.053561911 0.7884075081 1.619615861e-38
0.2565236422 -0.053561911 0.7869599281 1.647165528e-38
0.2565236422 -0.053561911 0.7855122781 1.610430349e-38
0.2565236422 -0.053561911 0.7840646581 1.57380391e-38
0.2575236322 -0.053632382 0.7822627481 1.564405262e-38
0.2575236322 -0.053632382 0.7808132281 1.55518738e-38
0.2595236022 -0.053773336 0.7786475181 1.546041385e-38
0.2615236422 -0.05391429 0.7764741881 1.536928741e-38
0.2615236422 -0.05391429 0.7750170581 1.518596815e-38
0.2615236422 -0.05391429 0.7735599081 1.500336214e-38
0.2635236122 -0.05405524 0.7713713381 1.482004007e-38
0.2635236122 -0.05405524 0.7699103681 1.47296283e-38
0.2635236122 -0.05405524 0.7684494381 1.445339453e-38
0.2435236322 -0.051222861 0.9309313381 1.149669261e-38
0.2435236322 -0.051222861 0.9295084781 1.158707776e-38
0.2435236322 -0.051222861 0.9280856181 1.177434729e-38
0.2435236322 -0.051222861 0.9266627681 1.232680641e-38
0.2435236322 -0.051222861 0.9252399181 1.287926692e-38
0.2435236322 -0.051222861 0.9238170481 1.315693702e-38
0.2435236322 -0.051222861 0.9223941981 1.343171203e-38
0.2435236322 -0.051222861 0.9209713281 1.352317338e-38
0.2435236322 -0.051222861 0.9195484881 1.361502429e-38
0.2435236322 -0.051222861 0.9181256181 1.37068752e-38
0.2445236222 -0.051291432 0.9165218081 1.379763169e-38
0.2445236222 -0.051291432 0.9150970681 1.388874552e-38
0.2465236522 -0.051428575 0.9133027581 1.407421158e-38
0.2465236522 -0.051428575 0.9118741781 1.426003637e-38
0.2465236522 -0.051428575 0.9104456081 1.453554846e-38
0.2485236222 -0.051565714 0.9086360981 1.45359142e-38
0.2485236222 -0.051565714 0.9072037081 1.462917762e-38
0.2485236222 -0.051565714 0.9057713381 1.453877004e-38
0.2485236222 -0.051565714 0.9043389681 1.444586255e-38
0.2485236222 -0.051565714 0.9029065781 1.453985605e-38
0.2485236222 -0.051565714 0.9014741881 1.472208511e-38
0.2485236222 -0.051565714 0.9000418081 1.490610782e-38
0.2495236122 -0.051634289 0.8984056381 1.518161571e-38
0.2495236122 -0.051634289 0.8969713381 1.54571236e-38
0.2495236122 -0.051634289 0.8955370581 1.582482572e-38
0.2495236122 -0.051634289 0.8941027781 1.600885685e-38
0.2515236422 -0.051771432 0.8922456181 1.619252784e-38
0.2515236422 -0.051771432 0.8908075181 1.600957431e-38
0.2525236322 -0.051840004 0.8891542081 1.591737868e-38
0.2525236322 -0.051840004 0.8877141881 1.573334756e-38
0.2545236122 -0.051977143 0.8858360981 1.554860177e-38
0.2565236422 -0.052114289 0.8839503881 1.554788571e-38
0.2565236422 -0.052114289 0.8825027581 1.554716824e-38
0.2565236422 -0.052114289 0.8810551381 1.563792894e-38
0.2575236322 -0.052182861 0.8793808581 1.582159433e-38
0.2575236322 -0.052182861 0.8779313381 1.582158872e-38
0.2575236322 -0.052182861 0.8764818281 1.591451443e-38
0.2595236022 -0.05232 0.8745675281 1.609963436e-38
0.2615236422 -0.052457143 0.8726456081 1.628401301e-38
0.2635236122 -0.052594289 0.8707160981 1.591773742e-38
0.2635236122 -0.052594289 0.8692551481 1.5639717e-38
0.2645236022 -0.052662857 0.8675542081 1.462737134e-38
0.2685236022 -0.052937143 0.8651237281 1.370721011e-38
0.2695236522 -0.053005718 0.8634094181 1.341267959e-38
0.2735236022 -0.05328 0.8609541981 1.314076043e-38
0.2735236022 -0.05328 0.8594741881 1.130799656e-38
0.2735236022 -0.05328 0.8579941881 9.465895842e-39
0.2755236322 -0.053417146 0.8560113381 9.185357291e-39
0.2735236022 -0.05328 0.8550341981 8.916326203e-39
0.2715236322 -0.053142861 0.8540646681 1.011702179e-38
0.2715236322 -0.053142861 0.8525884681 1.140918853e-38
0.2695236522 -0.053005718 0.8516303781 1.315156444e-38
0.2695236522 -0.053005718 0.8501579981 1.49943644e-38
0.2695236522 -0.053005718 0.8486856181 1.527488334e-38
0.2685236022 -0.052937143 0.8474780081 1.564043867e-38
0.2695236522 -0.053005718 0.8457408481 1.591846329e-38
0.2695236522 -0.053005718 0.8442684681 1.619217191e-38
0.2695236522 -0.053005718 0.8427960981 1.628292841e-38
0.2715236322 -0.053142861 0.8407789581 1.637474569e-38
0.2735236022 -0.05328 0.8387541981 1.628289337e-38
0.2735236022 -0.05328 0.8372741981 1.628325911e-38
0.2735236022 -0.05328 0.8357941981 1.610067133e-38
0.2735236022 -0.05328 0.8343141881 1.600918756e-38
0.2735236022 -0.05328 0.8328341881 1.573510899e-38
0.2735236022 -0.05328 0.8313541981 1.545710539e-38
0.2715236322 -0.053142861 0.8304456081 1.333126976e-38
0.2695236522 -0.053005718 0.8295446581 1.13115979e-38
0.2695236522 -0.053005718 0.8280722681 1.158817218e-38
0.2685236022 -0.052937143 0.8268913381 1.186582826e-38
0.2685236022 -0.052937143 0.8254208681 1.223747363e-38
0.2665236322 -0.052800003 0.8245408581 1.260517575e-38
0.2665236322 -0.052800003 0.8230741981 1.28835549e-38
0.2665236322 -0.052800003 0.8216075181 1.315727333e-38
0.2635236122 -0.052594289 0.8210437181 1.352390205e-38
0.2635236122 -0.052594289 0.8195827681 1.397985795e-38
0.2635236122 -0.052594289 0.8181218181 1.379475763e-38
0.2635236122 -0.052594289 0.8166608781 1.361107963e-38
0.2615236422 -0.052457143 0.8158170381 1.351959586e-38
0.2615236422 -0.052457143 0.8143598981 1.351923293e-38
0.2615236422 -0.052457143 0.8129027581 1.360783563e-38
0.2595236022 -0.05232 0.8120741881 1.370576397e-38
0.2595236022 -0.05232 0.8106208481 1.361715146e-38
0.2575236322 -0.052182861 0.8098037181 1.36175172e-38
0.2575236322 -0.052182861 0.8083541881 1.380155533e-38
0.2565236422 -0.052114289 0.8072265781 1.398307673e-38
0.2565236422 -0.052114289 0.8057789381 1.389124404e-38
0.2565236422 -0.052114289 0.8043313281 1.389124964e-38
0.2565236422 -0.052114289 0.8028837181 1.407708004e-38
0.2565236422 -0.052114289 0.8014360781 1.426074963e-38
0.2565236422 -0.052114289 0.7999884881 1.444513668e-38
0.2565236422 -0.052114289 0.7985408381 1.462952514e-38
0.2575236322 -0.052182861 0.7967580081 1.472243823e-38
0.2565236422 -0.052114289 0.7956456281 1.481571847e-38
0.2565236422 -0.052114289 0.7941979881 1.499939927e-38
0.2565236422 -0.052114289 0.7927503681 1.527668961e-38
0.2565236422 -0.052114289 0.7913027781 1.555218629e-38
0.2565236422 -0.052114289 0.7898551281 1.591991503e-38
0.2565236422 -0.052114289 0.7884075081 1.637947927e-38
0.2565236422 -0.052114289 0.7869599281 1.683900147e-38
0.2565236422 -0.052114289 0.7855122781 1.628797448e-38
0.2565236422 -0.052114289 0.7840646581 1.58277194e-38
0.2565236422 -0.052114289 0.7826170381 1.564332955e-38
0.2575236322 -0.052182861 0.7808132281 1.555150526e-38
0.2595236022 -0.05232 0.7786475181 1.546004111e-38
0.2595236022 -0.05232 0.7771942081 1.546039283e-38
0.2595236022 -0.05232 0.7757408681 1.51855982e-38
0.2615236422 -0.052457143 0.7735599081 1.500335654e-38
0.2615236422 -0.052457143 0.7721027481 1.481967994e-38
0.2635236122 -0.052594289 0.7699103681 1.472819197e-38
0.2635236122 -0.052594289 0.7684494381 1.463670539e-38
0.2635236122 -0.052594289 0.7669884981 1.463561378e-38
0.2645236022 -0.052662857 0.7651541881 1.288713662e-38
0.2435236322 -0.049800001 0.9309313381 1.15863659e-38
0.2435236322 -0.049800001 0.9295084781 1.112680447e-38
0.2435236322 -0.049800001 0.9280856181 1.067194719e-38
0.2435236322 -0.049800001 0.9266627681 1.159139516e-38
0.2435236322 -0.049800001 0.9252399181 1.251083193e-38
0.2435236322 -0.049800001 0.9238170481 1.269486726e-38
0.2445236222 -0.049866665 0.9222208681 1.287925711e-38
0.2445236222 -0.049866665 0.9207961081 1.297037795e-38
0.2445236222 -0.049866665 0.9193713281 1.30615156e-38
0.2445236222 -0.049866665 0.9179465681 1.315265465e-38
0.2445236222 -0.049866665 0.9165218081 1.315192457e-38
0.2465236522 -0.050000004 0.9147313281 1.342741845e-38
0.2465236522 -0.050000004 0.9133027581 1.370327947e-38
0.2465236522 -0.050000004 0.9118741781 1.379654569e-38
0.2465236522 -0.050000004 0.9104456081 1.379797922e-38
0.2485236222 -0.050133336 0.9086360981 1.389376077e-38
0.2485236222 -0.050133336 0.9072037081 1.407922823e-38
0.2485236222 -0.050133336 0.9057713381 1.407851496e-38
0.2485236222 -0.050133336 0.9043389681 1.416999313e-38
0.2485236222 -0.050133336 0.9029065781 1.435402566e-38
0.2485236222 -0.050133336 0.9014741881 1.453840851e-38
0.2485236222 -0.050133336 0.9000418081 1.499722165e-38
0.2495236122 -0.0502 0.8984056381 1.54560418e-38
0.2495236122 -0.0502 0.8969713381 1.573190983e-38
0.2495236122 -0.0502 0.8955370581 1.609960213e-38
0.2515236422 -0.050333336 0.8936837281 1.619250682e-38
0.2515236422 -0.050333336 0.8922456181 1.637618482e-38
0.2515236422 -0.050333336 0.8908075181 1.610068674e-38
0.2525236322 -0.0504 0.8891542081 1.591702135e-38
0.2545236122 -0.050533336 0.8872799081 1.573335597e-38
0.2545236122 -0.050533336 0.8858360981 1.564008414e-38
0.2545236122 -0.050533336 0.8843922981 1.5823395e-38
0.2565236422 -0.050666671 0.8825027581 1.59141641e-38
0.2565236422 -0.050666671 0.8810551381 1.591525151e-38
0.2565236422 -0.050666671 0.8796075381 1.58244768e-38
0.2565236422 -0.050666671 0.8781598981 1.610032801e-38
0.2575236322 -0.050733335 0.8764818281 1.637657018e-38
0.2575236322 -0.050733335 0.8750322881 1.62847529e-38
0.2615236422 -0.051000003 0.8726456081 1.628473468e-38
0.2615236422 -0.051000003 0.8711884681 1.600921138e-38
0.2635236122 -0.051133335 0.8692551481 1.582553898e-38
0.2635236122 -0.051133335 0.8677941981 1.53652839e-38
0.2665236322 -0.051333334 0.8656075181 1.499685031e-38
0.2685236022 -0.051466666 0.8636532481 1.46205246e-38
0.2735236022 -0.051799998 0.8609541981 1.433604279e-38
0.2735236022 -0.051799998 0.8594741881 1.166957921e-38
0.2735236022 -0.051799998 0.8579941881 9.094949718e-39
0.2755236322 -0.051933337 0.8560113381 9.092791718e-39
0.2755236322 -0.051933337 0.8545275281 9.093164464e-39
0.2715236322 -0.05166667 0.8540646681 1.085527206e-38
0.2715236322 -0.05166667 0.8525884681 1.260303736e-38
0.2695236522 -0.051533338 0.8516303781 1.370544307e-38
0.2695236522 -0.051533338 0.8501579981 1.480782075e-38
0.2695236522 -0.051533338 0.8486856181 1.518017938e-38
0.2685236022 -0.051466666 0.8474780081 1.554860457e-38
0.2695236522 -0.051533338 0.8457408481 1.5823402e-38
0.2695236522 -0.051533338 0.8442684681 1.609854696e-38
0.2695236522 -0.051533338 0.8427960981 1.637405064e-38
0.2695236522 -0.051533338 0.8413237081 1.664954312e-38
0.2715236322 -0.05166667 0.8393027581 1.646621825e-38
0.2735236022 -0.051799998 0.8372741981 1.628362345e-38
0.2735236022 -0.051799998 0.8357941981 1.628434092e-38
0.2735236022 -0.051799998 0.8343141881 1.628433531e-38
0.2715236322 -0.05166667 0.8333980081 1.600954068e-38
0.2715236322 -0.05166667 0.8319218081 1.5735123e-38
0.2715236322 -0.05166667 0.8304456081 1.388945878e-38
0.2695236522 -0.051533338 0.8295446581 1.195444637e-38
0.2695236522 -0.051533338 0.8280722681 1.167964754e-38
0.2695236522 -0.051533338 0.8265998881 1.14059277e-38
0.2685236022 -0.051466666 0.8254208681 1.177541648e-38
0.2665236322 -0.051333334 0.8245408581 1.223710649e-38
0.2665236322 -0.051333334 0.8230741981 1.251261578e-38
0.2645236022 -0.051200002 0.8222056281 1.28803249e-38
0.2635236122 -0.051133335 0.8210437181 1.32465991e-38
0.2635236122 -0.051133335 0.8195827681 1.361107683e-38
0.2635236122 -0.051133335 0.8181218181 1.351924834e-38
0.2635236122 -0.051133335 0.8166608781 1.3518884e-38
0.2615236422 -0.051000003 0.8158170381 1.351923853e-38
0.2615236422 -0.051000003 0.8143598981 1.351959166e-38
0.2615236422 -0.051000003 0.8129027581 1.351958605e-38
0.2615236422 -0.051000003 0.8114456181 1.351958745e-38
0.2595236022 -0.050866667 0.8106208481 1.343241688e-38
0.2595236022 -0.050866667 0.8091675281 1.334202052e-38
0.2575236322 -0.050733335 0.8083541881 1.343457908e-38
0.2575236322 -0.050733335 0.8069046681 1.361574035e-38
0.2575236322 -0.050733335 0.8054551281 1.352390626e-38
0.2565236422 -0.050666671 0.8043313281 1.35231944e-38
0.2565236422 -0.050666671 0.8028837181 1.380050015e-38
0.2565236422 -0.050666671 0.8014360781 1.40767213e-38
0.2565236422 -0.050666671 0.7999884881 1.426110836e-38
0.2565236422 -0.050666671 0.7985408381 1.444549541e-38
0.2575236322 -0.050733335 0.7967580081 1.453876584e-38
0.2565236422 -0.050666671 0.7956456281 1.463168314e-38
0.2565236422 -0.050666671 0.7941979881 1.490827143e-38
0.2565236422 -0.050666671 0.7927503681 1.527667139e-38
0.2565236422 -0.050666671 0.7913027781 1.564399516e-38
0.2565236422 -0.050666671 0.7898551281 1.601138339e-38
0.2565236422 -0.050666671 0.7884075081 1.619581809e-38
0.2545236122 -0.050533336 0.7876570581 1.63798296e-38
0.2565236422 -0.050666671 0.7855122781 1.610430489e-38
0.2565236422 -0.050666671 0.7840646581 1.582699914e-38
0.2565236422 -0.050666671 0.7826170381 1.573551817e-38
0.2575236322 -0.050733335 0.7808132281 1.573624264e-38
0.2575236322 -0.050733335 0.7793636981 1.564405682e-38
0.2595236022 -0.050866667 0.7771942081 1.555185839e-38
0.2615236422 -0.051000003 0.7750170581 1.536925939e-38
0.2615236422 -0.051000003 0.7735599081 1.518702192e-38
0.2615236422 -0.051000003 0.7721027481 1.500263207e-38
0.2635236122 -0.051133335 0.7699103681 1.491042803e-38
0.2635236122 -0.051133335 0.7684494381 1.491041822e-38
0.2645236022 -0.051200002 0.7666170681 1.491077555e-38
0.2645236022 -0.051200002 0.7651541881 1.325450803e-38
0.2645236022 -0.051200002 0.7636913481 1.160149152e-38
0.2435236322 -0.048377145 0.9309313381 1.177649127e-38
0.2415236522 -0.04824762 0.9298360881 1.0666562e-38
0.2435236322 -0.048377145 0.9280856181 9.660686138e-39
0.2435236322 -0.048377145 0.9266627681 1.085599093e-38
0.2435236322 -0.048377145 0.9252399181 1.214276267e-38
0.2435236322 -0.048377145 0.9238170481 1.223208564e-38
0.2445236222 -0.048441906 0.9222208681 1.232392534e-38
0.2445236222 -0.048441906 0.9207961081 1.241612377e-38
0.2445236222 -0.048441906 0.9193713281 1.260266882e-38
0.2445236222 -0.048441906 0.9179465681 1.260267303e-38
0.2465236522 -0.04857143 0.9161599081 1.260196117e-38
0.2465236522 -0.04857143 0.9147313281 1.296858989e-38
0.2465236522 -0.04857143 0.9133027581 1.342776457e-38
0.2465236522 -0.04857143 0.9118741781 1.324444951e-38
0.2485236222 -0.048700955 0.9100684781 1.315189935e-38
0.2485236222 -0.048700955 0.9086360981 1.334346526e-38
0.2485236222 -0.048700955 0.9072037081 1.352713485e-38
0.2485236222 -0.048700955 0.9057713381 1.371080584e-38
0.2485236222 -0.048700955 0.9043389681 1.389447963e-38
0.2485236222 -0.048700955 0.9029065781 1.417034906e-38
0.2485236222 -0.048700955 0.9014741881 1.444513668e-38
0.2485236222 -0.048700955 0.9000418081 1.508762642e-38
0.2495236122 -0.048765715 0.8984056381 1.573226996e-38
0.2495236122 -0.048765715 0.8969713381 1.600921278e-38
0.2495236122 -0.048765715 0.8955370581 1.637512684e-38
0.2495236122 -0.048765715 0.8941027781 1.646912174e-38
0.2495236122 -0.048765715 0.8926684781 1.665171373e-38
0.2515236422 -0.04889524 0.8908075181 1.628365008e-38
0.2515236422 -0.04889524 0.8893694381 1.591667663e-38
0.2525236322 -0.048960004 0.8877141881 1.582520968e-38
0.2545236122 -0.049089525 0.8858360981 1.58244824e-38
0.2545236122 -0.049089525 0.8843922981 1.609890149e-38
0.2545236122 -0.049089525 0.8829484781 1.637477231e-38
0.2545236122 -0.049089525 0.8815046781 1.609999029e-38
0.2565236422 -0.04921905 0.8796075381 1.591666823e-38
0.2565236422 -0.04921905 0.8781598981 1.637619463e-38
0.2565236422 -0.04921905 0.8767122881 1.683538332e-38
0.2575236322 -0.04928381 0.8750322881 1.656024677e-38
0.2595236022 -0.049413335 0.8731142081 1.628472908e-38
0.2595236022 -0.049413335 0.8716608681 1.610104827e-38
0.2595236022 -0.049413335 0.8702075381 1.600992604e-38
0.2615236422 -0.049542859 0.8682741881 1.610283353e-38
0.2635236122 -0.049672384 0.8663332381 1.628578005e-38
0.2645236022 -0.049737141 0.8646284881 1.591807233e-38
0.2735236022 -0.050320003 0.8609541981 1.554031169e-38
0.2735236022 -0.050320003 0.8594741881 1.212480363e-38
0.2735236022 -0.050320003 0.8579941881 8.817646765e-39
0.2735236022 -0.050320003 0.8565141981 9.092074253e-39
0.2735236022 -0.050320003 0.8550341981 9.370110086e-39
0.2715236322 -0.050190475 0.8540646681 1.159355316e-38
0.2715236322 -0.050190475 0.8525884681 1.379833515e-38
0.2695236522 -0.050060954 0.8516303781 1.416712607e-38
0.2695236522 -0.050060954 0.8501579981 1.462630075e-38
0.2695236522 -0.050060954 0.8486856181 1.499400007e-38
0.2685236022 -0.049996193 0.8474780081 1.545748514e-38
0.2685236022 -0.049996193 0.8460075381 1.573120217e-38
0.2685236022 -0.049996193 0.8445370381 1.609854976e-38
0.2695236522 -0.050060954 0.8427960981 1.646625608e-38
0.2695236522 -0.050060954 0.8413237081 1.692505801e-38
0.2715236322 -0.050190475 0.8393027581 1.664953331e-38
0.2715236322 -0.050190475 0.8378265681 1.637546175e-38
0.2715236322 -0.050190475 0.8363503881 1.646801611e-38
0.2715236322 -0.050190475 0.8348741881 1.665132697e-38
0.2715236322 -0.050190475 0.8333980081 1.637510162e-38
0.2715236322 -0.050190475 0.8319218081 1.610031399e-38
0.2715236322 -0.050190475 0.8304456081 1.435615843e-38
0.2695236522 -0.050060954 0.8295446581 1.269522459e-38
0.2695236522 -0.050060954 0.8280722681 1.186332133e-38
0.2695236522 -0.050060954 0.8265998881 1.103858152e-38
0.2685236022 -0.049996193 0.8254208681 1.140555076e-38
0.2665236322 -0.049866669 0.8245408581 1.186832537e-38
0.2665236322 -0.049866669 0.8230741981 1.22360359e-38
0.2645236022 -0.049737141 0.8222056281 1.260267022e-38
0.2635236122 -0.049672384 0.8210437181 1.287782779e-38
0.2635236122 -0.049672384 0.8195827681 1.324445091e-38
0.2635236122 -0.049672384 0.8181218181 1.333592767e-38
0.2635236122 -0.049672384 0.8166608781 1.342847783e-38
0.2615236422 -0.049542859 0.8158170381 1.352102939e-38
0.2615236422 -0.049542859 0.8143598981 1.361285227e-38
0.2615236422 -0.049542859 0.8129027581 1.352100557e-38
0.2615236422 -0.049542859 0.8114456181 1.343025328e-38
0.2595236022 -0.049413335 0.8106208481 1.324766549e-38
0.2595236022 -0.049413335 0.8091675281 1.306579797e-38
0.2575236322 -0.04928381 0.8083541881 1.315979707e-38
0.2575236322 -0.04928381 0.8069046681 1.324911163e-38
0.2565236422 -0.04921905 0.8057789381 1.324874309e-38
0.2565236422 -0.04921905 0.8043313281 1.32487557e-38
0.2565236422 -0.04921905 0.8028837181 1.35242734e-38
0.2565236422 -0.04921905 0.8014360781 1.389304751e-38
0.2565236422 -0.04921905 0.7999884881 1.407707583e-38
0.2565236422 -0.04921905 0.7985408381 1.426182442e-38
0.2565236422 -0.04921905 0.7970932181 1.435545638e-38
0.2565236422 -0.04921905 0.7956456281 1.453949031e-38
0.2565236422 -0.04921905 0.7941979881 1.490898889e-38
0.2565236422 -0.04921905 0.7927503681 1.527703994e-38
0.2565236422 -0.04921905 0.7913027781 1.564509098e-38
0.2565236422 -0.04921905 0.7898551281 1.610429228e-38
0.2565236422 -0.04921905 0.7884075081 1.601248061e-38
0.2565236422 -0.04921905 0.7869599281 1.601246799e-38
0.2565236422 -0.04921905 0.7855122781 1.592061989e-38
0.2565236422 -0.04921905 0.7840646581 1.582842566e-38
0.2565236422 -0.04921905 0.7826170381 1.582842706e-38
0.2575236322 -0.04928381 0.7808132281 1.59206339e-38
0.2575236322 -0.04928381 0.7793636981 1.573733425e-38
0.2595236022 -0.049413335 0.7771942081 1.564513302e-38
0.2615236422 -0.049542859 0.7750170581 1.546109769e-38
0.2615236422 -0.049542859 0.7735599081 1.536926079e-38
0.2615236422 -0.049542859 0.7721027481 1.51855884e-38
0.2615236422 -0.049542859 0.7706456281 1.509410182e-38
0.2635236122 -0.049672384 0.7684494381 1.518592751e-38
0.2635236122 -0.049672384 0.7669884981 1.527632668e-38
0.2645236022 -0.049737141 0.7651541881 1.362221015e-38
0.2645236022 -0.049737141 0.7636913481 1.20585124e-38
0.2645236022 -0.049737141 0.7622284981 1.049481606e-38
0.2415236522 -0.046828575 0.9298360881 1.168752704e-38
0.2435236322 -0.046954285 0.9280856181 1.07616401e-38
0.2435236322 -0.046954285 0.9266627681 1.14059263e-38
0.2445236222 -0.047017142 0.9250703981 1.214239413e-38
0.2445236222 -0.047017142 0.9236456281 1.214023332e-38
0.2445236222 -0.047017142 0.9222208681 1.213808653e-38
0.2445236222 -0.047017142 0.9207961081 1.21409634e-38
0.2445236222 -0.047017142 0.9193713281 1.223565755e-38
0.2465236522 -0.04714286 0.9175884681 1.186615196e-38
0.2465236522 -0.04714286 0.9161599081 1.14048445e-38
0.2465236522 -0.04714286 0.9147313281 1.168001468e-38
0.2465236522 -0.04714286 0.9133027581 1.204735526e-38
0.2465236522 -0.04714286 0.9118741781 1.213883062e-38
0.2465236522 -0.04714286 0.9104456081 1.223067173e-38
0.2485236222 -0.047268573 0.9086360981 1.269451833e-38
0.2485236222 -0.047268573 0.9072037081 1.306687837e-38
0.2485236222 -0.047268573 0.9057713381 1.325018642e-38
0.2485236222 -0.047268573 0.9043389681 1.352533838e-38
0.2485236222 -0.047268573 0.9029065781 1.370829611e-38
0.2485236222 -0.047268573 0.9014741881 1.389125385e-38
0.2495236122 -0.04733143 0.8998399181 1.444370736e-38
0.2495236122 -0.04733143 0.8984056381 1.490647216e-38
0.2495236122 -0.04733143 0.8969713381 1.508978582e-38
0.2495236122 -0.04733143 0.8955370581 1.52731191e-38
0.2515236422 -0.047457144 0.8936837281 1.564227717e-38
0.2495236122 -0.04733143 0.8926684781 1.600888628e-38
0.2515236422 -0.047457144 0.8908075181 1.573372451e-38
0.2515236422 -0.047457144 0.8893694381 1.54589495e-38
0.2515236422 -0.047457144 0.8879313281 1.536641055e-38
0.2545236122 -0.047645714 0.8858360981 1.536639093e-38
0.2545236122 -0.047645714 0.8843922981 1.554788991e-38
0.2545236122 -0.047645714 0.8829484781 1.57326385e-38
0.2545236122 -0.047645714 0.8815046781 1.564116314e-38
0.2565236422 -0.047771432 0.8796075381 1.554968217e-38
0.2565236422 -0.047771432 0.8781598981 1.582518445e-38
0.2565236422 -0.047771432 0.8767122881 1.619252924e-38
0.2565236422 -0.047771432 0.8752646481 1.610141541e-38
0.2575236322 -0.047834288 0.8735827581 1.610212868e-38
