# .PCD v0.7 - Point Cloud Data file format
VERSION 0.7
FIELDS x y z rgb
SIZE 4 4 4 4
TYPE F F F F
COUNT 1 1 1 1
WIDTH 855
HEIGHT 1
VIEWPOINT 0 0 0 1 0 0 0
POINTS 855
DATA ascii
0.3281431852 0.05949691026 0.8208787204 1.150602946e-38
0.3304775152 0.05949691026 0.8208787204 1.196449508e-38
0.3316117852 0.05934834276 0.8178787654 1.159680137e-38
0.3339403852 0.05934834276 0.8178787654 1.132056761e-38
0.3362689402 0.05934834276 0.8178787654 1.150387006e-38
0.3398146402 0.05949691026 0.8208787204 1.177937795e-38
0.3409261102 0.05934834276 0.8178787654 1.177938075e-38
0.3432546202 0.05934834276 0.8178787654 1.187301552e-38
0.3455832202 0.05934834276 0.8178787654 1.205669351e-38
0.3491517652 0.05949691026 0.8208787204 1.23332776e-38
0.3514860502 0.05949691026 0.8208787204 1.251766746e-38
0.3538203352 0.05949691026 0.8208787204 1.279317395e-38
0.3561546202 0.05949691026 0.8208787204 1.288608564e-38
0.3584889352 0.05949691026 0.8208787204 1.297648901e-38
0.3608232202 0.05949691026 0.8208787204 1.306473999e-38
0.3644317852 0.05964548676 0.8238787804 1.325416051e-38
0.3667717852 0.05964548676 0.8238787804 1.307265172e-38
0.3691117852 0.05964548676 0.8238787804 1.298045048e-38
0.3714517852 0.05964548676 0.8238787804 1.334778546e-38
0.3750889102 0.05979405426 0.8268787354 1.3805521e-38
0.3774346402 0.05979405426 0.8268787354 1.334490159e-38
0.3797803552 0.05979405426 0.8268787354 1.297683793e-38
0.3821260402 0.05979405426 0.8268787354 1.297611767e-38
0.3844718152 0.05979405426 0.8268787354 1.297576594e-38
0.3881432152 0.05994262626 0.8298786904 1.270026646e-38
0.3931575202 0.06023977026 0.8358787054 1.242402849e-38
0.3968574952 0.06038834226 0.8388787654 1.223998616e-38
0.4005689152 0.06053691426 0.8418787204 1.214707867e-38
0.4029432502 0.06053691426 0.8418787204 1.196305455e-38
0.4093803202 0.06098263026 0.8508786904 1.177974509e-38
0.4131318052 0.06113119626 0.8538787504 1.159464337e-38
0.4168946302 0.06127976826 0.8568787054 1.150172327e-38
0.4220403502 0.06157691226 0.8628787204 1.122190218e-38
0.4278974902 0.06194834226 0.8703787054 1.104149762e-38
0.4317089602 0.06209691426 0.8733787654 1.04033505e-38
0.4369203502 0.06239405826 0.8793787804 9.869619739e-39
0.4393660852 0.06239405826 0.8793787804 1.282492177e-38
0.2989117552 0.06399119676 0.8628787204 1.012596487e-38
0.3013260652 0.06399119676 0.8628787204 9.667144722e-39
0.3037403602 0.06399119676 0.8628787204 9.208684706e-39
0.3061546252 0.06399119676 0.8628787204 8.746996099e-39
0.3063632002 0.06368262576 0.8568787054 8.375339516e-39
0.3076575052 0.06352834176 0.8538787504 7.729612776e-39
0.3078260752 0.06321977076 0.8478787354 7.17645301e-39
0.3068517652 0.06275691126 0.8388787654 7.452682568e-39
0.3092203402 0.06275691126 0.8388787654 7.820739215e-39
0.3115889602 0.06275691126 0.8388787654 7.913649507e-39
0.3128203102 0.06260262876 0.8358787054 8.006925538e-39
0.3151832002 0.06260262876 0.8358787054 8.37463186e-39
0.3163975252 0.06244834476 0.8328787504 8.650501285e-39
0.3187546552 0.06244834476 0.8328787504 9.018564939e-39
0.3199517752 0.06229405626 0.8298786904 9.388415247e-39
0.3211374802 0.06213977376 0.8268787354 9.572083437e-39
0.3234832102 0.06213977376 0.8268787354 9.755758633e-39
0.3246518002 0.06198548526 0.8238787804 1.012310622e-38
0.3269918002 0.06198548526 0.8238787804 1.058372284e-38
0.3293318152 0.06198548526 0.8238787804 1.104469818e-38
0.3316718152 0.06198548526 0.8238787804 1.150568474e-38
0.3328118002 0.06183119676 0.8208787204 1.131987677e-38
0.3351460852 0.06183119676 0.8208787204 1.122658672e-38
0.3374803552 0.06183119676 0.8208787204 1.132019626e-38
0.3398146402 0.06183119676 0.8208787204 1.141239049e-38
0.3421489252 0.06183119676 0.8208787204 1.159677895e-38
0.3444832552 0.06183119676 0.8208787204 1.178117441e-38
0.3468174952 0.06183119676 0.8208787204 1.196521115e-38
0.3491517652 0.06183119676 0.8208787204 1.214995833e-38
0.3514860502 0.06183119676 0.8208787204 1.242546482e-38
0.3538203352 0.06183119676 0.8208787204 1.260985188e-38
0.3561546202 0.06183119676 0.8208787204 1.279352147e-38
0.3584889352 0.06183119676 0.8208787204 1.306724411e-38
0.3608232202 0.06183119676 0.8208787204 1.334419533e-38
0.3631575052 0.06183119676 0.8208787204 1.362115217e-38
0.3654917902 0.06183119676 0.8208787204 1.316163137e-38
0.3691117852 0.06198548526 0.8238787804 1.279391804e-38
0.3714517852 0.06198548526 0.8238787804 1.316160754e-38
0.3737918002 0.06198548526 0.8238787804 1.352929845e-38
0.3761318002 0.06198548526 0.8238787804 1.30683175e-38
0.3784718002 0.06198548526 0.8238787804 1.260841695e-38
0.3821260402 0.06213977376 0.8268787354 1.270060697e-38
0.3844718152 0.06213977376 0.8268787354 1.288499823e-38
0.3881432152 0.06229405626 0.8298786904 1.242510749e-38
0.3918260752 0.06244834476 0.8328787504 1.205703403e-38
0.3968574952 0.06275691126 0.8388787654 1.205558649e-38
0.4005689152 0.06291119376 0.8418787204 1.21463542e-38
0.4056403852 0.06321977076 0.8478787354 1.196305034e-38
0.4093803202 0.06337405326 0.8508786904 1.187157498e-38
0.4131318052 0.06352834176 0.8538787504 1.168683059e-38
0.4155289402 0.06352834176 0.8538787504 1.150173028e-38
0.4220403502 0.06399119676 0.8628787204 1.131519643e-38
0.4265203552 0.06422263176 0.8673787504 1.113042262e-38
0.4289432452 0.06422263176 0.8673787504 1.021742202e-38
0.4355317702 0.06468548076 0.8763787204 9.398906769e-39
0.4379717752 0.06468548076 0.8763787204 1.124971936e-38
0.3005317702 0.06664548276 0.8673787504 9.666437067e-39
0.3013260652 0.06640548126 0.8628787204 9.3934361e-39
0.3037403602 0.06640548126 0.8628787204 9.207972847e-39
0.3061546252 0.06640548126 0.8628787204 8.839195932e-39
0.3074660902 0.06624548676 0.8598787504 8.558660184e-39
0.3087660652 0.06608548176 0.8568787054 7.638145821e-39
0.3100546402 0.06592548276 0.8538787504 6.719789458e-39
0.3079717702 0.06528548526 0.8418787204 7.087488774e-39
0.3092203402 0.06512548626 0.8388787654 7.545945988e-39
0.3115889602 0.06512548626 0.8388787654 7.636343751e-39
0.3139575202 0.06512548626 0.8388787654 7.822530075e-39
0.3151832002 0.06496548126 0.8358787054 8.190953862e-39
0.3175460452 0.06496548126 0.8358787054 8.558301451e-39
0.3187546552 0.06480548676 0.8328787504 8.833813545e-39
0.3211117852 0.06480548676 0.8328787504 9.112555632e-39
0.3223031752 0.06464548326 0.8298786904 9.204756867e-39
0.3234832102 0.06448548276 0.8268787354 9.388423655e-39
0.3258289402 0.06448548276 0.8268787354 9.755402704e-39
0.3281746552 0.06448548276 0.8268787354 1.012346496e-38
0.3293318152 0.06432548376 0.8238787804 1.05833627e-38
0.3316718152 0.06432548376 0.8238787804 1.104255139e-38
0.3340118152 0.06432548376 0.8238787804 1.104292274e-38
0.3363518152 0.06432548376 0.8238787804 1.113546169e-38
0.3386918302 0.06432548376 0.8238787804 1.113652387e-38
0.3410318302 0.06432548376 0.8238787804 1.113724274e-38
0.3421489252 0.06416548476 0.8208787204 1.141490442e-38
0.3457118002 0.06432548376 0.8238787804 1.169041652e-38
0.3480518002 0.06432548376 0.8238787804 1.187409311e-38
0.3491517652 0.06416548476 0.8208787204 1.20577529e-38
0.3514860502 0.06416548476 0.8208787204 1.224141268e-38
0.3538203352 0.06416548476 0.8208787204 1.251728631e-38
0.3574117702 0.06432548376 0.8238787804 1.279315994e-38
0.3584889352 0.06416548476 0.8208787204 1.31601516e-38
0.3608232202 0.06416548476 0.8208787204 1.361933889e-38
0.3631575052 0.06416548476 0.8208787204 1.407852618e-38
0.3667717852 0.06432548376 0.8238787804 1.334385342e-38
0.3691117852 0.06432548376 0.8238787804 1.260987991e-38
0.3714517852 0.06432548376 0.8238787804 1.288573952e-38
0.3737918002 0.06432548376 0.8238787804 1.32519997e-38
0.3761318002 0.06432548376 0.8238787804 1.279174182e-38
0.3797803552 0.06448548276 0.8268787354 1.23332762e-38
0.3821260402 0.06448548276 0.8268787354 1.251730172e-38
0.3844718152 0.06448548276 0.8268787354 1.279281101e-38
0.3881432152 0.06464548326 0.8298786904 1.224180084e-38
0.3918260752 0.06480548676 0.8328787504 1.168934592e-38
0.3955203652 0.06496548126 0.8358787054 1.187121625e-38
0.3992261152 0.06512548626 0.8388787654 1.2146364e-38
0.4042918252 0.06544548426 0.8448787654 1.205524597e-38
0.4080260752 0.06560548476 0.8478787354 1.196305034e-38
0.4117717852 0.06576548376 0.8508786904 1.177901922e-38
0.4182604102 0.06624548676 0.8598787504 1.159355877e-38
0.4206689452 0.06624548676 0.8598787504 1.140845705e-38
0.4265203552 0.06664548276 0.8673787504 1.122512797e-38
0.4303260952 0.06680548176 0.8703787054 1.003160844e-38
0.4327546102 0.06680548176 0.8703787054 8.93288955e-39
0.4379717752 0.06712548126 0.8763787204 9.769890728e-39
0.3005317702 0.06906833976 0.8673787504 9.574252647e-39
0.3013260652 0.06881977026 0.8628787204 9.482766074e-39
0.3037403602 0.06881977026 0.8628787204 9.391290712e-39
0.3061546252 0.06881977026 0.8628787204 9.022156466e-39
0.3074660902 0.06865406076 0.8598787504 8.741980852e-39
0.3087660652 0.06848833926 0.8568787054 8.004062685e-39
0.3100546402 0.06832262976 0.8538787504 7.269370308e-39
0.3102117802 0.06799119726 0.8478787354 7.362633728e-39
0.3092203402 0.06749406126 0.8388787654 7.547376713e-39
0.3115889602 0.06749406126 0.8388787654 7.455178281e-39
0.3139575202 0.06749406126 0.8388787654 7.454823752e-39
0.3151832002 0.06732833976 0.8358787054 8.007993328e-39
0.3175460452 0.06732833976 0.8358787054 8.558654579e-39
0.3199088902 0.06732833976 0.8358787054 8.834526806e-39
0.3211117852 0.06716263026 0.8328787504 9.112561237e-39
0.3223031752 0.06699691326 0.8298786904 9.296250446e-39
0.3246546202 0.06699691326 0.8298786904 9.480266158e-39
0.3258289402 0.06683120376 0.8268787354 9.755760035e-39
0.3281746552 0.06683120376 0.8268787354 1.012310202e-38
0.3305203402 0.06683120376 0.8268787354 1.049116287e-38
0.3328660702 0.06683120376 0.8268787354 1.085887199e-38
0.3340118152 0.06666548826 0.8238787804 1.08588818e-38
0.3363518152 0.06666548826 0.8238787804 1.095357735e-38
0.3386918302 0.06666548826 0.8238787804 1.104576317e-38
0.3410318302 0.06666548826 0.8238787804 1.11379616e-38
0.3433717852 0.06666548826 0.8238787804 1.141311356e-38
0.3457118002 0.06666548826 0.8238787804 1.159643003e-38
0.3480518002 0.06666548826 0.8238787804 1.187301832e-38
0.3503918002 0.06666548826 0.8238787804 1.205630676e-38
0.3514860502 0.06649977126 0.8208787204 1.224067279e-38
0.3538203352 0.06649977126 0.8208787204 1.242507947e-38
0.3574117702 0.06666548826 0.8238787804 1.270096431e-38
0.3597517702 0.06666548826 0.8238787804 1.306795456e-38
0.3608232202 0.06649977126 0.8208787204 1.3342752e-38
0.3631575052 0.06649977126 0.8208787204 1.361790536e-38
0.3654917902 0.06649977126 0.8208787204 1.325200391e-38
0.3691117852 0.06666548826 0.8238787804 1.288502065e-38
0.3714517852 0.06666548826 0.8238787804 1.306940911e-38
0.3737918002 0.06666548826 0.8238787804 1.334240307e-38
0.3761318002 0.06666548826 0.8238787804 1.297613728e-38
0.3797803552 0.06683120376 0.8268787354 1.260950716e-38
0.3821260402 0.06683120376 0.8268787354 1.279281522e-38
0.3844718152 0.06683120376 0.8268787354 1.297613028e-38
0.3881432152 0.06699691326 0.8298786904 1.288429758e-38
0.3931575202 0.06732833976 0.8358787054 1.279102576e-38
0.3955203652 0.06732833976 0.8358787054 1.26055597e-38
0.3992261152 0.06749406126 0.8388787654 1.251335707e-38
0.4029432502 0.06765977076 0.8418787204 1.223856104e-38
0.4080260752 0.06799119726 0.8478787354 1.205488444e-38
0.4117717852 0.06815691276 0.8508786904 1.177865628e-38
0.4155289402 0.06832262976 0.8538787504 1.159391049e-38
0.4206689452 0.06865406076 0.8598787504 1.15020778e-38
0.4244546602 0.06881977026 0.8628787204 1.150242952e-38
0.4303260952 0.06923405526 0.8703787054 1.067410939e-38
0.4341432352 0.06939977076 0.8733787654 9.844764908e-39
0.4365775252 0.06939977076 0.8733787654 9.944896091e-39
0.2989117552 0.07123405476 0.8628787204 9.574240035e-39
0.3013260652 0.07123405476 0.8628787204 9.572800902e-39
0.3053774902 0.07149120126 0.8673787504 9.572456182e-39
0.3078003802 0.07149120126 0.8673787504 9.296965108e-39
0.3085689202 0.07123405476 0.8628787204 9.018936283e-39
0.3098746702 0.07106262876 0.8598787504 8.462173778e-39
0.3111689152 0.07089120126 0.8568787054 7.912224387e-39
0.3113317702 0.07054834326 0.8508786904 7.72961698e-39
0.3125975152 0.07037691126 0.8478787354 7.54666065e-39
0.3149832052 0.07037691126 0.8478787354 7.364780517e-39
0.3150946402 0.07003405176 0.8418787204 7.179677398e-39
0.3174689302 0.07003405176 0.8418787204 7.8250398e-39
0.3186946552 0.06986262426 0.8388787654 8.559009107e-39
0.3199088902 0.06969119826 0.8358787054 8.835237264e-39
0.3222717952 0.06969119826 0.8358787054 9.112548625e-39
0.3234689002 0.06951977226 0.8328787504 9.297667159e-39
0.3246546202 0.06934833876 0.8298786904 9.572094647e-39
0.3270060652 0.06934833876 0.8298786904 9.847596932e-39
0.3281746552 0.06917691276 0.8268787354 1.012310202e-38
0.3305203402 0.06917691276 0.8268787354 1.039896584e-38
0.3328660702 0.06917691276 0.8268787354 1.067483526e-38
0.3352118002 0.06917691276 0.8268787354 1.07670351e-38
0.3363518152 0.06900548526 0.8238787804 1.086030272e-38
0.3399032002 0.06917691276 0.8268787354 1.104576457e-38
0.3422489302 0.06917691276 0.8268787354 1.122836637e-38
0.3445946602 0.06917691276 0.8268787354 1.141096818e-38
0.3457118002 0.06900548526 0.8238787804 1.159501331e-38
0.3480518002 0.06900548526 0.8238787804 1.187340508e-38
0.3503918002 0.06900548526 0.8238787804 1.214673395e-38
0.3527318002 0.06900548526 0.8238787804 1.223746802e-38
0.3550718152 0.06900548526 0.8238787804 1.233290065e-38
0.3574117702 0.06900548526 0.8238787804 1.260949315e-38
0.3597517702 0.06900548526 0.8238787804 1.297540441e-38
0.3620917702 0.06900548526 0.8238787804 1.306688537e-38
0.3631575052 0.06883405326 0.8208787204 1.325127803e-38
0.3667717852 0.06900548526 0.8238787804 1.316016561e-38
0.3691117852 0.06900548526 0.8238787804 1.316088167e-38
0.3714517852 0.06900548526 0.8238787804 1.325343323e-38
0.3737918002 0.06900548526 0.8238787804 1.343638536e-38
0.3761318002 0.06900548526 0.8238787804 1.316052014e-38
0.3784718002 0.06900548526 0.8238787804 1.2976482e-38
0.3821260402 0.06917691276 0.8268787354 1.306831049e-38
0.3844718152 0.06917691276 0.8268787354 1.315980127e-38
0.3868175452 0.06917691276 0.8268787354 1.352679994e-38
0.3931575202 0.06969119826 0.8358787054 1.398417535e-38
0.3955203652 0.06969119826 0.8358787054 1.343207777e-38
0.3992261152 0.06986262426 0.8388787654 1.288105638e-38
0.4042918252 0.07020548376 0.8448787654 1.251406612e-38
0.4080260752 0.07037691126 0.8478787354 1.2146357e-38
0.4117717852 0.07054834326 0.8508786904 1.187048337e-38
0.4141631902 0.07054834326 0.8508786904 1.168645645e-38
0.4192975252 0.07089120126 0.8568787054 1.168646065e-38
0.4230775252 0.07106262876 0.8598787504 1.177721434e-38
0.4289432452 0.07149120126 0.8673787504 1.131695646e-38
0.4327546102 0.07166262126 0.8703787054 1.085636087e-38
0.4351832152 0.07166262126 0.8703787054 1.021209568e-38
0.2989117552 0.07364834526 0.8628787204 9.48275066e-39
0.3013260652 0.07364834526 0.8628787204 9.664270659e-39
0.3053774902 0.07391405676 0.8673787504 9.849045875e-39
0.3078003802 0.07391405676 0.8673787504 9.481015853e-39
0.3085689202 0.07364834526 0.8628787204 9.204416351e-39
0.3098746702 0.07347120126 0.8598787504 8.556171478e-39
0.3111689152 0.07329405276 0.8568787054 8.00442422e-39
0.3113317702 0.07293976626 0.8508786904 7.729259649e-39
0.3125975152 0.07276262976 0.8478787354 7.54630472e-39
0.3138518002 0.07258548576 0.8448787654 7.546662051e-39
0.3162318052 0.07258548576 0.8448787654 7.547380917e-39
0.3174689302 0.07240834326 0.8418787204 8.006918532e-39
0.3186946552 0.07223119926 0.8388787654 8.466812076e-39
0.3210632302 0.07223119926 0.8388787654 8.744470959e-39
0.3222717952 0.07205405676 0.8358787054 9.020701919e-39
0.3234689002 0.07187691426 0.8328787504 9.296215414e-39
0.3246546202 0.07169977026 0.8298786904 9.57208624e-39
0.3270060652 0.07169977026 0.8298786904 9.755046774e-39
0.3293575102 0.07169977026 0.8298786904 1.003019033e-38
0.3305203402 0.07152263226 0.8268787354 1.030677021e-38
0.3328660702 0.07152263226 0.8268787354 1.067482966e-38
0.3352118002 0.07152263226 0.8268787354 1.076702389e-38
0.3375574702 0.07152263226 0.8268787354 1.085922092e-38
0.3399032002 0.07152263226 0.8268787354 1.104253738e-38
0.3422489302 0.07152263226 0.8268787354 1.122621818e-38
0.3433717852 0.07134548376 0.8238787804 1.131806489e-38
0.3469403752 0.07152263226 0.8268787354 1.150176111e-38
0.3492861052 0.07152263226 0.8268787354 1.177765295e-38
0.3516317902 0.07152263226 0.8268787354 1.196201338e-38
0.3527318002 0.07134548376 0.8238787804 1.205489845e-38
0.3550718152 0.07134548376 0.8238787804 1.224072184e-38
0.3574117702 0.07134548376 0.8238787804 1.242367537e-38
0.3597517702 0.07134548376 0.8238787804 1.260698763e-38
0.3620917702 0.07134548376 0.8238787804 1.279209495e-38
0.3644317852 0.07134548376 0.8238787804 1.288465211e-38
0.3667717852 0.07134548376 0.8238787804 1.288537378e-38
0.3691117852 0.07134548376 0.8238787804 1.288644718e-38
0.3714517852 0.07134548376 0.8238787804 1.306975663e-38
0.3737918002 0.07134548376 0.8238787804 1.325306889e-38
0.3761318002 0.07134548376 0.8238787804 1.306868044e-38
0.3784718002 0.07134548376 0.8238787804 1.2976475e-38
0.3821260402 0.07152263226 0.8268787354 1.306794055e-38
0.3844718152 0.07152263226 0.8268787354 1.306796718e-38
0.3868175452 0.07152263226 0.8268787354 1.325130606e-38
0.3918260752 0.07187691426 0.8328787504 1.343280924e-38
0.3955203652 0.07205405676 0.8358787054 1.297325762e-38
0.3992261152 0.07223119926 0.8388787654 1.260554989e-38
0.4042918252 0.07258548576 0.8448787654 1.242187189e-38
0.4053174952 0.07240834326 0.8418787204 1.214599406e-38
0.4076917402 0.07240834326 0.8418787204 1.18708351e-38
0.4141631902 0.07293976626 0.8508786904 1.150385605e-38
0.4179261202 0.07311691026 0.8538787504 1.159497828e-38
0.4217003452 0.07329405276 0.8568787054 1.168322365e-38
0.4268689102 0.07364834526 0.8628787204 1.131803126e-38
0.4313660752 0.07391405676 0.8673787504 1.09510382e-38
0.4337889652 0.07391405676 0.8673787504 1.048934118e-38
0.4362118102 0.07391405676 0.8673787504 1.002808137e-38
0.4386346852 0.07391405676 0.8673787504 1.040769032e-38
0.3075603652 0.07670263176 0.8733787654 1.012382649e-38
0.3078003802 0.07633691376 0.8673787504 9.756864258e-39
0.3085689202 0.07606262976 0.8628787204 9.387358668e-39
0.3098746702 0.07587976926 0.8598787504 8.742345189e-39
0.3111689152 0.07569691026 0.8568787054 8.096970175e-39
0.3113317702 0.07533119676 0.8508786904 7.820013342e-39
0.3125975152 0.07514834226 0.8478787354 7.635267554e-39
0.3149832052 0.07514834226 0.8478787354 7.726385586e-39
0.3162318052 0.07496548776 0.8448787654 7.912213176e-39
0.3174689302 0.07478262876 0.8418787204 8.098040767e-39
0.3198432352 0.07478262876 0.8418787204 8.373903185e-39
0.3210632302 0.07459977426 0.8388787654 8.65371166e-39
0.3222717952 0.07441690926 0.8358787054 8.929220951e-39
0.3246346402 0.07441690926 0.8358787054 9.204731643e-39
0.3258260752 0.07423405626 0.8328787504 9.571721902e-39
0.3270060652 0.07405119576 0.8298786904 9.754681035e-39
0.3293575102 0.07405119576 0.8298786904 1.003019033e-38
0.3317089252 0.07405119576 0.8298786904 1.030677722e-38
0.3328660702 0.07386834276 0.8268787354 1.067375767e-38
0.3352118002 0.07386834276 0.8268787354 1.076559176e-38
0.3375574702 0.07386834276 0.8268787354 1.094998162e-38
0.3399032002 0.07386834276 0.8268787354 1.104110105e-38
0.3422489302 0.07386834276 0.8268787354 1.122549932e-38
0.3445946602 0.07386834276 0.8268787354 1.131806209e-38
0.3469403752 0.07386834276 0.8268787354 1.150174849e-38
0.3492861052 0.07386834276 0.8268787354 1.16854349e-38
0.3516317902 0.07386834276 0.8268787354 1.187124007e-38
0.3539775052 0.07386834276 0.8268787354 1.196449368e-38
0.3550718152 0.07368548826 0.8238787804 1.214817308e-38
0.3586689202 0.07386834276 0.8268787354 1.224037712e-38
0.3597517702 0.07368548826 0.8238787804 1.233184828e-38
0.3620917702 0.07368548826 0.8238787804 1.242583196e-38
0.3644317852 0.07368548826 0.8238787804 1.260950436e-38
0.3667717852 0.07368548826 0.8238787804 1.261094209e-38
0.3691117852 0.07368548826 0.8238787804 1.270277899e-38
0.3714517852 0.07368548826 0.8238787804 1.288681151e-38
0.3737918002 0.07368548826 0.8238787804 1.306868604e-38
0.3761318002 0.07368548826 0.8238787804 1.306868324e-38
0.3797803552 0.07386834276 0.8268787354 1.30683161e-38
0.3821260402 0.07386834276 0.8268787354 1.306902516e-38
0.3844718152 0.07386834276 0.8268787354 1.306832311e-38
0.3881432152 0.07405119576 0.8298786904 1.297614429e-38
0.3931575202 0.07441690926 0.8358787054 1.288178506e-38
0.3955203652 0.07441690926 0.8358787054 1.260698482e-38
0.3978832102 0.07441690926 0.8358787054 1.242295089e-38
0.4029432502 0.07478262876 0.8418787204 1.233075386e-38
0.4053174952 0.07478262876 0.8418787204 1.223854282e-38
0.4090518052 0.07496548776 0.8448787654 1.177934852e-38
0.4127975002 0.07514834226 0.8478787354 1.141202616e-38
0.4165546552 0.07533119676 0.8508786904 1.150388267e-38
0.4203232102 0.07551405576 0.8538787504 1.15949923e-38
0.4268689102 0.07606262976 0.8628787204 1.131911867e-38
0.4313660752 0.07633691376 0.8673787504 1.113472881e-38
0.4337889652 0.07633691376 0.8673787504 1.076702669e-38
0.4362118102 0.07633691376 0.8673787504 1.048724624e-38
0.4386346852 0.07633691376 0.8673787504 9.64820197e-39
0.3086517952 0.07932548676 0.8763787204 1.039896724e-38
0.3099946552 0.07913691576 0.8733787654 9.849760537e-39
0.3102232552 0.07875976926 0.8673787504 9.301250279e-39
0.3109832152 0.07847690826 0.8628787204 8.744131845e-39
0.3111689152 0.07809976776 0.8568787054 8.189876263e-39
0.3113317702 0.07772262576 0.8508786904 7.912203367e-39
0.3137232352 0.07772262576 0.8508786904 7.634547287e-39
0.3149832052 0.07753405626 0.8478787354 7.726385586e-39
0.3162318052 0.07734548526 0.8448787654 7.818228088e-39
0.3186117802 0.07734548526 0.8448787654 8.005134679e-39
0.3198432352 0.07715690976 0.8418787204 8.189517531e-39
0.3210632302 0.07696834476 0.8388787654 8.466812076e-39
0.3234318052 0.07696834476 0.8388787654 8.744470959e-39
0.3246346402 0.07677976776 0.8358787054 9.020337581e-39
0.3269974852 0.07677976776 0.8358787054 9.296208407e-39
0.3281832502 0.07659120276 0.8328787504 9.57136317e-39
0.3305403652 0.07659120276 0.8328787504 9.846520735e-39
0.3328974952 0.07659120276 0.8328787504 1.012239576e-38
0.3340603702 0.07640262726 0.8298786904 1.049009228e-38
0.3364117702 0.07640262726 0.8298786904 1.067447653e-38
0.3387631702 0.07640262726 0.8298786904 1.085922372e-38
0.3411146152 0.07640262726 0.8298786904 1.095034175e-38
0.3422489302 0.07621405626 0.8268787354 1.113330369e-38
0.3445946602 0.07621405626 0.8268787354 1.113510716e-38
0.3469403752 0.07621405626 0.8268787354 1.122694686e-38
0.3492861052 0.07621405626 0.8268787354 1.141062205e-38
0.3516317902 0.07621405626 0.8268787354 1.168863266e-38
0.3539775052 0.07621405626 0.8268787354 1.177974369e-38
0.3550718152 0.07602548676 0.8238787804 1.187123727e-38
0.3574117702 0.07602548676 0.8238787804 1.205564394e-38
0.3597517702 0.07602548676 0.8238787804 1.224037992e-38
0.3620917702 0.07602548676 0.8238787804 1.233364054e-38
0.3644317852 0.07602548676 0.8238787804 1.24261935e-38
0.3667717852 0.07602548676 0.8238787804 1.251874646e-38
0.3691117852 0.07602548676 0.8238787804 1.261058896e-38
0.3714517852 0.07602548676 0.8238787804 1.279498443e-38
0.3737918002 0.07602548676 0.8238787804 1.297649742e-38
0.3761318002 0.07602548676 0.8238787804 1.306832871e-38
0.3797803552 0.07621405626 0.8268787354 1.30683217e-38
0.3821260402 0.07621405626 0.8268787354 1.316051033e-38
0.3857917702 0.07640262726 0.8298786904 1.325235003e-38
0.3881432152 0.07640262726 0.8298786904 1.297648901e-38
0.3918260752 0.07659120276 0.8328787504 1.279029848e-38
0.3955203652 0.07677976776 0.8358787054 1.251478499e-38
0.3978832102 0.07677976776 0.8358787054 1.23311126e-38
0.4029432502 0.07715690976 0.8418787204 1.223963583e-38
0.4053174952 0.07715690976 0.8418787204 1.223710228e-38
0.4104118102 0.07753405626 0.8478787354 1.187189167e-38
0.4141631902 0.07772262576 0.8508786904 1.159713908e-38
0.4165546552 0.07772262576 0.8508786904 1.159789298e-38
0.4203232102 0.07791120276 0.8538787504 1.159895517e-38
0.4241031952 0.07809976776 0.8568787054 1.141132551e-38
0.4278946702 0.07828834326 0.8598787504 1.122801885e-38
0.4316975152 0.07847690826 0.8628787204 1.094964811e-38
0.4362118102 0.07875976926 0.8673787504 1.076309885e-38
0.4386346852 0.07875976926 0.8673787504 1.021674239e-38
0.4410574852 0.07875976926 0.8673787504 9.670803513e-39
0.3097432402 0.08195977326 0.8793787804 1.076631343e-38
0.3099946552 0.08157120426 0.8733787654 9.942680638e-39
0.3113260552 0.08137691226 0.8703787054 9.206549127e-39
0.3109832152 0.08089119726 0.8628787204 8.746282838e-39
0.3122832502 0.08069691726 0.8598787504 8.283146689e-39
0.3135717802 0.08050262376 0.8568787054 7.912563501e-39
0.3137232352 0.08011405626 0.8508786904 7.634550089e-39
0.3149832052 0.07991976876 0.8478787354 7.726391191e-39
0.3173689402 0.07991976876 0.8478787354 7.817514827e-39
0.3186117802 0.07972548726 0.8448787654 7.91258452e-39
0.3198432352 0.07953120126 0.8418787204 8.005490609e-39
0.3210632302 0.07933691976 0.8388787654 8.281351626e-39
0.3234318052 0.07933691976 0.8388787654 8.558290241e-39
0.3246346402 0.07914262626 0.8358787054 8.743753494e-39
0.3281689402 0.07933691976 0.8388787654 9.019985855e-39
0.3293603302 0.07914262626 0.8358787054 9.296218216e-39
0.3317232202 0.07914262626 0.8358787054 9.662853946e-39
0.3328974952 0.07894834026 0.8328787504 9.938014314e-39
0.3340603702 0.07875405276 0.8298786904 1.030606536e-38
0.3364117702 0.07875405276 0.8298786904 1.058407456e-38
0.3387631702 0.07875405276 0.8298786904 1.085958105e-38
0.3411146152 0.07875405276 0.8298786904 1.095141655e-38
0.3434660302 0.07875405276 0.8298786904 1.104146819e-38
0.3458175202 0.07875405276 0.8298786904 1.104399053e-38
0.3469403752 0.07855977126 0.8268787354 1.104327026e-38
0.3492861052 0.07855977126 0.8268787354 1.122801465e-38
0.3516317902 0.07855977126 0.8268787354 1.150351693e-38
0.3539775052 0.07855977126 0.8268787354 1.159534822e-38
0.3550718152 0.07836548976 0.8238787804 1.168719353e-38
0.3574117702 0.07836548976 0.8238787804 1.196270843e-38
0.3597517702 0.07836548976 0.8238787804 1.223964704e-38
0.3620917702 0.07836548976 0.8238787804 1.224179803e-38
0.3644317852 0.07836548976 0.8238787804 1.233470833e-38
0.3667717852 0.07836548976 0.8238787804 1.242690115e-38
0.3691117852 0.07836548976 0.8238787804 1.251910239e-38
0.3714517852 0.07836548976 0.8238787804 1.270314052e-38
0.3737918002 0.07836548976 0.8238787804 1.297649462e-38
0.3761318002 0.07836548976 0.8238787804 1.306797278e-38
0.3797803552 0.07855977126 0.8268787354 1.315980267e-38
0.3821260402 0.07855977126 0.8268787354 1.325235143e-38
0.3857917702 0.07875405276 0.8298786904 1.343601962e-38
0.3881432152 0.07875405276 0.8298786904 1.306867483e-38
0.3918260752 0.07894834026 0.8328787504 1.270024264e-38
0.3955203652 0.07914262626 0.8358787054 1.242400607e-38
0.3978832102 0.07914262626 0.8358787054 1.224034349e-38
0.4029432502 0.07953120126 0.8418787204 1.224035189e-38
0.4053174952 0.07953120126 0.8418787204 1.224033928e-38
0.4104118102 0.07991976876 0.8478787354 1.205665568e-38
0.4141631902 0.08011405626 0.8508786904 1.187264417e-38
0.4165546552 0.08011405626 0.8508786904 1.178190309e-38
0.4203232102 0.08030834226 0.8538787504 1.168862145e-38
0.4241031952 0.08050262376 0.8568787054 1.150350432e-38
0.4265060602 0.08050262376 0.8568787054 1.131876974e-38
0.4303032502 0.08069691726 0.8598787504 1.11322415e-38
0.4362118102 0.08118262476 0.8673787504 1.104112067e-38
0.4400403502 0.08137691226 0.8703787054 1.067449335e-38
0.4424689552 0.08137691226 0.8703787054 1.040115046e-38
0.4463146552 0.08157120426 0.8733787654 1.012780758e-38
0.4487489452 0.08157120426 0.8733787654 9.86242267e-39
0.4511832202 0.08157120426 0.8733787654 1.18932839e-38
0.3097432402 0.08440549026 0.8793787804 1.030749888e-38
0.3099946552 0.08400548826 0.8733787654 9.664671431e-39
0.3113260552 0.08380547976 0.8703787054 8.930329378e-39
0.3109832152 0.08330548176 0.8628787204 8.654088609e-39
0.3122832502 0.08310548376 0.8598787504 8.376417115e-39
0.3135717802 0.08290548726 0.8568787054 7.821088138e-39
0.3137232352 0.08250547926 0.8508786904 7.359047805e-39
0.3161145952 0.08250547926 0.8508786904 7.450174244e-39
0.3173689402 0.08230548726 0.8478787354 7.633489307e-39
0.3186117802 0.08210548926 0.8448787654 7.727481401e-39
0.3209918002 0.08210548926 0.8448787654 7.82182382e-39
0.3222174802 0.08190548676 0.8418787204 8.005849341e-39
0.3234318052 0.08170548276 0.8388787654 8.281351626e-39
0.3258003652 0.08170548276 0.8388787654 8.650841801e-39
0.3281689402 0.08170548276 0.8388787654 9.018193594e-39
0.3305375152 0.08170548276 0.8388787654 9.201874396e-39
0.3317232202 0.08150548476 0.8358787054 9.477394897e-39
0.3328974952 0.08130548676 0.8328787504 9.753634265e-39
0.3340603702 0.08110548426 0.8298786904 1.012239717e-38
0.3364117702 0.08110548426 0.8298786904 1.039932597e-38
0.3387631702 0.08110548426 0.8298786904 1.067626739e-38
0.3411146152 0.08110548426 0.8298786904 1.067519119e-38
0.3434660302 0.08110548426 0.8298786904 1.067448494e-38
0.3458175202 0.08110548426 0.8298786904 1.076705051e-38
0.3469403752 0.08090548026 0.8268787354 1.095142916e-38
0.3492861052 0.08090548026 0.8268787354 1.113616654e-38
0.3516317902 0.08090548026 0.8268787354 1.131911867e-38
0.3539775052 0.08090548026 0.8268787354 1.150386586e-38
0.3550718152 0.08070548826 0.8238787804 1.168825431e-38
0.3574117702 0.08070548826 0.8238787804 1.178009121e-38
0.3597517702 0.08070548826 0.8238787804 1.196376781e-38
0.3620917702 0.08070548826 0.8238787804 1.196628454e-38
0.3644317852 0.08070548826 0.8238787804 1.196771667e-38
0.3667717852 0.08070548826 0.8238787804 1.215174499e-38
0.3703975102 0.08090548026 0.8268787354 1.233614045e-38
0.3727432252 0.08090548026 0.8268787354 1.251838492e-38
0.3750889102 0.08090548026 0.8268787354 1.279282082e-38
0.3774346402 0.08090548026 0.8268787354 1.288430459e-38
0.3797803552 0.08090548026 0.8268787354 1.297613588e-38
0.3821260402 0.08090548026 0.8268787354 1.325163957e-38
0.3857917702 0.08110548426 0.8298786904 1.361897174e-38
0.3881432152 0.08110548426 0.8298786904 1.306794896e-38
0.3918260752 0.08130548676 0.8328787504 1.260875326e-38
0.3955203652 0.08150548476 0.8358787054 1.233179363e-38
0.3978832102 0.08150548476 0.8358787054 1.205666269e-38
0.4029432502 0.08190548676 0.8418787204 1.223999316e-38
0.4053174952 0.08190548676 0.8418787204 1.242330122e-38
0.4104118102 0.08230548726 0.8478787354 1.223962742e-38
0.4127975002 0.08230548726 0.8478787354 1.196447967e-38
0.4165546552 0.08250547926 0.8508786904 1.187264417e-38
0.4189460752 0.08250547926 0.8508786904 1.177792901e-38
0.4227203902 0.08270548926 0.8538787504 1.159353214e-38
0.4265060602 0.08290548726 0.8568787054 1.140952063e-38
0.4289089552 0.08290548726 0.8568787054 1.122551053e-38
0.4341117652 0.08330548176 0.8628787204 1.104184234e-38
0.4386346852 0.08360548776 0.8673787504 1.085781542e-38
0.4424689552 0.08380547976 0.8703787054 1.057940964e-38
0.4463146552 0.08400548826 0.8733787654 1.012594245e-38
0.4487489452 0.08400548826 0.8733787654 9.573948565e-39
0.4511832202 0.08400548826 0.8733787654 1.10545325e-38
0.3113260552 0.08623405176 0.8703787054 8.745935316e-39
0.3109832152 0.08571977226 0.8628787204 8.653735482e-39
0.3133975252 0.08571977226 0.8628787204 8.559014712e-39
0.3135717802 0.08530834326 0.8568787054 7.821804202e-39
0.3137232352 0.08489690976 0.8508786904 7.083548323e-39
0.3161145952 0.08489690976 0.8508786904 7.2657998e-39
0.3173689402 0.08469120126 0.8478787354 7.541656613e-39
0.3197546302 0.08469120126 0.8478787354 7.542725804e-39
0.3209918002 0.08448549276 0.8448787654 7.638504554e-39
0.3222174802 0.08427976626 0.8418787204 7.822531476e-39
0.3234318052 0.08407405776 0.8388787654 8.098395295e-39
0.3269660602 0.08427976626 0.8418787204 8.55828884e-39
0.3281689402 0.08407405776 0.8388787654 9.0171202e-39
0.3305375152 0.08407405776 0.8388787654 9.108250843e-39
0.3317232202 0.08386834326 0.8358787054 9.293365173e-39
0.3340860652 0.08386834326 0.8358787054 9.569238801e-39
0.3352546252 0.08366262426 0.8328787504 9.937289843e-39
0.3376117852 0.08366262426 0.8328787504 1.021494032e-38
0.3399689602 0.08366262426 0.8328787504 1.049008387e-38
0.3423260902 0.08366262426 0.8328787504 1.039824557e-38
0.3446832052 0.08366262426 0.8328787504 1.039861131e-38
0.3458175202 0.08345690976 0.8298786904 1.058264804e-38
0.3481689202 0.08345690976 0.8298786904 1.085886078e-38
0.3505203652 0.08345690976 0.8298786904 1.095247733e-38
0.3516317902 0.08325120126 0.8268787354 1.113508053e-38
0.3539775052 0.08325120126 0.8268787354 1.141274642e-38
0.3550718152 0.08304549276 0.8238787804 1.168824731e-38
0.3574117702 0.08304549276 0.8238787804 1.168895917e-38
0.3597517702 0.08304549276 0.8238787804 1.178080167e-38
0.3620917702 0.08304549276 0.8238787804 1.169076544e-38
0.3644317852 0.08304549276 0.8238787804 1.169076964e-38
0.3680517802 0.08325120126 0.8268787354 1.196627893e-38
0.3703975102 0.08325120126 0.8268787354 1.22414323e-38
0.3727432252 0.08325120126 0.8268787354 1.242511029e-38
0.3750889102 0.08325120126 0.8268787354 1.260915263e-38
0.3774346402 0.08325120126 0.8268787354 1.270135947e-38
0.3797803552 0.08325120126 0.8268787354 1.288394586e-38
0.3821260402 0.08325120126 0.8268787354 1.334203873e-38
0.3857917702 0.08345690976 0.8298786904 1.380121201e-38
0.3881432152 0.08345690976 0.8298786904 1.315871807e-38
0.3904946302 0.08345690976 0.8298786904 1.251549825e-38
0.3941832502 0.08366262426 0.8328787504 1.214814365e-38
0.3978832102 0.08386834326 0.8358787054 1.187336864e-38
0.4015946752 0.08407405776 0.8388787654 1.223893238e-38
0.4053174952 0.08427976626 0.8418787204 1.269666792e-38
0.4090518052 0.08448549276 0.8448787654 1.242007963e-38
0.4127975002 0.08469120126 0.8478787354 1.214564794e-38
0.4151831902 0.08469120126 0.8478787354 1.205524737e-38
0.4189460752 0.08489690976 0.8508786904 1.196232727e-38
0.4227203902 0.08510262876 0.8538787504 1.168286632e-38
0.4251175252 0.08510262876 0.8538787504 1.150243933e-38
0.4289089552 0.08530834326 0.8568787054 1.131842502e-38
0.4313117602 0.08530834326 0.8568787054 1.113403236e-38
0.4365260752 0.08571977226 0.8628787204 1.094928237e-38
0.4410574852 0.08602834326 0.8673787504 1.085815173e-38
0.4434803752 0.08602834326 0.8673787504 1.012453274e-38
0.4487489452 0.08643977676 0.8733787654 9.389530681e-39
0.4526118202 0.08664548676 0.8763787204 1.021609219e-38
0.4550517802 0.08664548676 0.8763787204 1.105558207e-38
0.5360318302 0.09024548526 0.9288787654 2.309622931e-39
0.5385717802 0.09024548526 0.9288787654 1.288280941e-39
0.5411118352 0.09024548526 0.9288787654 2.769988713e-40
0.3109832152 0.08813405676 0.8628787204 8.098782054e-39
0.3133975252 0.08813405676 0.8628787204 8.190958065e-39
0.3146917702 0.08792263176 0.8598787504 7.820728005e-39
0.3137232352 0.08728833876 0.8508786904 7.543091543e-39
0.3161145952 0.08728833876 0.8508786904 7.541679034e-39
0.3173689402 0.08707691376 0.8478787354 7.541659416e-39
0.3197546302 0.08707691376 0.8478787354 7.544152326e-39
0.3209918002 0.08686548876 0.8448787654 7.547020783e-39
0.3233717602 0.08686548876 0.8448787654 7.823244737e-39
0.3245918152 0.08665405776 0.8418787204 8.007993328e-39
0.3269660602 0.08665405776 0.8418787204 8.374977981e-39
0.3293403502 0.08665405776 0.8418787204 8.741617915e-39
0.3305375152 0.08644263276 0.8388787654 8.649797833e-39
0.3329060752 0.08644263276 0.8388787654 8.650157967e-39
0.3340860652 0.08623119726 0.8358787054 9.201531078e-39
0.3364489252 0.08623119726 0.8358787054 9.752539851e-39
0.3388117702 0.08623119726 0.8358787054 1.0028761e-38
0.3399689602 0.08601977076 0.8328787504 1.039717218e-38
0.3423260902 0.08601977076 0.8328787504 1.039824277e-38
0.3446832052 0.08601977076 0.8328787504 1.03986029e-38
0.3470403352 0.08601977076 0.8328787504 1.058263543e-38
0.3481689202 0.08580834126 0.8298786904 1.067481565e-38
0.3505203652 0.08580834126 0.8298786904 1.085883136e-38
0.3528717652 0.08580834126 0.8298786904 1.10428765e-38
0.3539775052 0.08559691026 0.8268787354 1.131911727e-38
0.3563232352 0.08559691026 0.8268787354 1.159568734e-38
0.3574117702 0.08538549126 0.8238787804 1.168822909e-38
0.3610146502 0.08559691026 0.8268787354 1.178150652e-38
0.3633603652 0.08559691026 0.8268787354 1.17811548e-38
0.3657060502 0.08559691026 0.8268787354 1.178080447e-38
0.3680517802 0.08559691026 0.8268787354 1.196340908e-38
0.3703975102 0.08559691026 0.8268787354 1.22382023e-38
0.3727432252 0.08559691026 0.8268787354 1.242474736e-38
0.3750889102 0.08559691026 0.8268787354 1.270206713e-38
0.3774346402 0.08559691026 0.8268787354 1.270101055e-38
0.3797803552 0.08559691026 0.8268787354 1.269992034e-38
0.3821260402 0.08559691026 0.8268787354 1.279281802e-38
0.3857917702 0.08580834126 0.8298786904 1.288608985e-38
0.3881432152 0.08580834126 0.8298786904 1.270026786e-38
0.3904946302 0.08580834126 0.8298786904 1.260770789e-38
0.3941832502 0.08601977076 0.8328787504 1.242367256e-38
0.3978832102 0.08623119726 0.8358787054 1.224108898e-38
0.4015946752 0.08644263276 0.8388787654 1.242226005e-38
0.4053174952 0.08665405776 0.8418787204 1.260376884e-38
0.4076917402 0.08665405776 0.8418787204 1.242044817e-38
0.4114318102 0.08686548876 0.8448787654 1.223713451e-38
0.4138117852 0.08686548876 0.8448787654 1.233076227e-38
0.4175689252 0.08707691376 0.8478787354 1.251442486e-38
0.4213374802 0.08728833876 0.8508786904 1.205488164e-38
0.4237289452 0.08728833876 0.8508786904 1.168755086e-38
0.4261203052 0.08728833876 0.8508786904 1.150281628e-38
0.4313117602 0.08771119476 0.8568787054 1.131805928e-38
0.4351203652 0.08792263176 0.8598787504 1.113473722e-38
0.4410574852 0.08845120026 0.8673787504 1.104326606e-38
0.4463146552 0.08887406076 0.8733787654 1.012348317e-38
0.4487489452 0.08887406076 0.8733787654 9.200450677e-39
0.4526118202 0.08908548576 0.8763787204 9.935839499e-39
0.4550517802 0.08908548576 0.8763787204 1.076316191e-38
0.4574917852 0.08908548576 0.8763787204 1.151730431e-38
0.5350460602 0.09299691726 0.9318787204 3.857455176e-39
0.5360318302 0.09278548176 0.9288787654 1.377899583e-39
0.5385717802 0.09278548176 0.9288787654 1.010561802e-39
0.5411118352 0.09278548176 0.9288787654 5.513787158e-40
0.3124289302 0.09130835076 0.8733787654 7.26652287e-39
0.3148632202 0.09130835076 0.8733787654 7.556744394e-39
0.3161831752 0.09109119126 0.8703787054 7.826851679e-39
0.3186117802 0.09109119126 0.8703787054 7.911853043e-39
0.3137232352 0.08967976926 0.8508786904 8.002985087e-39
0.3161145952 0.08967976926 0.8508786904 7.725698949e-39
0.3173689402 0.08946262776 0.8478787354 7.542015345e-39
0.3197546302 0.08946262776 0.8478787354 7.54594879e-39
0.3221403652 0.08946262776 0.8478787354 7.546306121e-39
0.3233717602 0.08924549076 0.8448787654 7.732128107e-39
0.3257518252 0.08924549076 0.8448787654 8.007637398e-39
0.3269660602 0.08902834326 0.8418787204 8.191669925e-39
0.3293403502 0.08902834326 0.8418787204 8.466470159e-39
0.3317146402 0.08902834326 0.8418787204 8.19061755e-39
0.3329060752 0.08881120176 0.8388787654 8.007664022e-39
0.3352746502 0.08881120176 0.8388787654 8.743066858e-39
0.3364489252 0.08859405576 0.8358787054 9.569223387e-39
0.3388117702 0.08859405576 0.8358787054 9.937280034e-39
0.3411746602 0.08859405576 0.8358787054 1.039680784e-38
0.3435375052 0.08859405576 0.8358787054 1.039823436e-38
0.3446832052 0.08837691876 0.8328787504 1.0490437e-38
0.3470403352 0.08837691876 0.8328787504 1.049080414e-38
0.3493975102 0.08837691876 0.8328787504 1.058262982e-38
0.3505203652 0.08815976676 0.8298786904 1.076629241e-38
0.3528717652 0.08815976676 0.8298786904 1.095033615e-38
0.3539775052 0.08794262976 0.8268787354 1.122621538e-38
0.3563232352 0.08794262976 0.8268787354 1.159462095e-38
0.3574117702 0.08772548826 0.8238787804 1.168752003e-38
0.3597517702 0.08772548826 0.8238787804 1.187119663e-38
0.3633603652 0.08794262976 0.8268787354 1.187156237e-38
0.3657060502 0.08794262976 0.8268787354 1.187120924e-38
0.3680517802 0.08794262976 0.8268787354 1.205452711e-38
0.3703975102 0.08794262976 0.8268787354 1.23300392e-38
0.3727432252 0.08794262976 0.8268787354 1.251622692e-38
0.3750889102 0.08794262976 0.8268787354 1.279210336e-38
0.3774346402 0.08794262976 0.8268787354 1.270099513e-38
0.3797803552 0.08794262976 0.8268787354 1.260843377e-38
0.3821260402 0.08794262976 0.8268787354 1.224323577e-38
0.3844718152 0.08794262976 0.8268787354 1.19670006e-38
0.3881432152 0.08815976676 0.8298786904 1.233397124e-38
0.3904946302 0.08815976676 0.8298786904 1.269916784e-38
0.3941832502 0.08837691876 0.8328787504 1.260769808e-38
0.3965403652 0.08837691876 0.8328787504 1.260770369e-38
0.4015946752 0.08881120176 0.8388787654 1.251408154e-38
0.4053174952 0.08902834326 0.8418787204 1.251407593e-38
0.4076917402 0.08902834326 0.8418787204 1.242259356e-38
0.4100660752 0.08902834326 0.8418787204 1.233075667e-38
0.4138117852 0.08924549076 0.8448787654 1.269809865e-38
0.4175689252 0.08946262776 0.8478787354 1.306543643e-38
0.4213374802 0.08967976926 0.8508786904 1.242401868e-38
0.4237289452 0.08967976926 0.8508786904 1.187121905e-38
0.4261203052 0.08967976926 0.8508786904 1.16879124e-38
0.4299117802 0.08989691526 0.8538787504 1.150279526e-38
0.4337146252 0.09011405226 0.8568787054 1.13183956e-38
0.4389403702 0.09054834126 0.8628787204 1.122549091e-38
0.4434803752 0.09087406176 0.8673787504 1.01227545e-38
0.4473260752 0.09109119126 0.8703787054 9.018204805e-39
0.4526118202 0.09152548026 0.8763787204 9.750366437e-39
0.4550517802 0.09152548026 0.8763787204 1.04879609e-38
0.4589318152 0.09174263376 0.8793787804 1.003743364e-38
0.4613775352 0.09174263376 0.8793787804 9.683429212e-39
0.5334918202 0.09532548876 0.9288787654 5.51374512e-40
0.5360318302 0.09532548876 0.9288787654 5.513759133e-40
0.5385717802 0.09532548876 0.9288787654 7.350497082e-40
0.5411118352 0.09532548876 0.9288787654 9.187178979e-40
0.3088975402 0.09351976926 0.8703787054 5.792129875e-39
0.3124289302 0.09374262726 0.8733787654 7.169311993e-39
0.3137546602 0.09351976926 0.8703787054 7.460969847e-39
0.3161831752 0.09351976926 0.8703787054 7.83044601e-39
0.3186117802 0.09351976926 0.8703787054 8.098400901e-39
0.3199146652 0.09329691126 0.8673787504 8.462878631e-39
0.3161145952 0.09207119826 0.8508786904 8.001914495e-39
0.3185060602 0.09207119826 0.8508786904 7.634206771e-39
0.3197546302 0.09184834626 0.8478787354 7.361921868e-39
0.3221403652 0.09184834626 0.8478787354 7.086413978e-39
0.3233717602 0.09162549276 0.8448787654 7.454472026e-39
0.3257518252 0.09162549276 0.8448787654 7.822893011e-39
0.3281317852 0.09162549276 0.8448787654 8.189163002e-39
0.3293403502 0.09140262426 0.8418787204 8.55579593e-39
0.3317146402 0.09140262426 0.8418787204 8.372492078e-39
0.3340889302 0.09140262426 0.8418787204 8.281015314e-39
0.3352746502 0.09117977226 0.8388787654 8.740911661e-39
0.3364489252 0.09095691426 0.8358787054 9.292996631e-39
0.3400117852 0.09117977226 0.8388787654 9.661051877e-39
0.3411746602 0.09095691426 0.8358787054 9.937624753e-39
0.3435375052 0.09095691426 0.8358787054 1.002873298e-38
0.3446832052 0.09073406076 0.8328787504 1.012022375e-38
0.3470403352 0.09073406076 0.8328787504 1.021494312e-38
0.3493975102 0.09073406076 0.8328787504 1.039789244e-38
0.3517546702 0.09073406076 0.8328787504 1.067339473e-38
0.3541118002 0.09073406076 0.8328787504 1.094927116e-38
0.3552232252 0.09051119826 0.8298786904 1.140917872e-38
0.3563232352 0.09028833876 0.8268787354 1.186906105e-38
0.3586689202 0.09028833876 0.8268787354 1.177757168e-38
0.3610146502 0.09028833876 0.8268787354 1.168609912e-38
0.3633603652 0.09028833876 0.8268787354 1.168610472e-38
0.3657060502 0.09028833876 0.8268787354 1.168646626e-38
0.3680517802 0.09028833876 0.8268787354 1.196233428e-38
0.3703975102 0.09028833876 0.8268787354 1.223820651e-38
0.3740346202 0.09051119826 0.8298786904 1.260627296e-38
0.3763860202 0.09051119826 0.8298786904 1.297469255e-38
0.3774346402 0.09028833876 0.8268787354 1.279174042e-38
0.3797803552 0.09028833876 0.8268787354 1.260914282e-38
0.3821260402 0.09028833876 0.8268787354 1.260878129e-38
0.3844718152 0.09028833876 0.8268787354 1.260875606e-38
0.3868175452 0.09028833876 0.8268787354 1.269984887e-38
0.3904946302 0.09051119826 0.8298786904 1.279098652e-38
0.3928460752 0.09051119826 0.8298786904 1.279100614e-38
0.3965403652 0.09073406076 0.8328787504 1.279100754e-38
0.4015946752 0.09117977226 0.8388787654 1.260733935e-38
0.4053174952 0.09140262426 0.8418787204 1.242402429e-38
0.4076917402 0.09140262426 0.8418787204 1.2148515e-38
0.4100660752 0.09140262426 0.8418787204 1.187336724e-38
0.4124403202 0.09140262426 0.8418787204 1.223963303e-38
0.4161918352 0.09162549276 0.8448787654 1.260625755e-38
0.4199546302 0.09184834626 0.8478787354 1.223855683e-38
0.4237289452 0.09207119826 0.8508786904 1.187121485e-38
0.4261203052 0.09207119826 0.8508786904 1.177938075e-38
0.4299117802 0.09229405626 0.8538787504 1.168753264e-38
0.4323089152 0.09229405626 0.8538787504 1.150277284e-38
0.4389403702 0.09296263026 0.8628787204 1.140735703e-38
0.4434803752 0.09329691126 0.8673787504 1.05812033e-38
0.4473260752 0.09351976926 0.8703787054 9.754315296e-39
0.4526118202 0.09396548676 0.8763787204 1.002945324e-38
0.4550517802 0.09396548676 0.8763787204 1.030459539e-38
0.4589318152 0.09418834476 0.8793787804 1.003267062e-38
0.4613775352 0.09418834476 0.8793787804 9.85484725e-39
0.5334918202 0.09786548526 0.9288787654 2.296247538e-39
0.5360318302 0.09786548526 0.9288787654 4.316628453e-39
0.5385717802 0.09786548526 0.9288787654 4.500299445e-39
0.5411118352 0.09786548526 0.9288787654 4.775805934e-39
0.3088975402 0.09594834276 0.8703787054 6.434609807e-39
0.3124289302 0.09617691126 0.8733787654 7.081768674e-39
0.3137546602 0.09594834276 0.8703787054 7.457009778e-39
0.3172975402 0.09617691126 0.8733787654 7.919045908e-39
0.3197317852 0.09617691126 0.8733787654 8.377135981e-39
0.3199146652 0.09571977426 0.8673787504 8.923486838e-39
0.3183774952 0.09491975976 0.8568787054 8.27813004e-39
0.3196432252 0.09469120176 0.8538787504 7.728191859e-39
0.3208975102 0.09446262276 0.8508786904 7.178253678e-39
0.3232889302 0.09446262276 0.8508786904 6.626876364e-39
0.3245261002 0.09423405276 0.8478787354 7.177885137e-39
0.3269117902 0.09423405276 0.8478787354 7.729621184e-39
0.3292975252 0.09423405276 0.8478787354 8.189521735e-39
0.3305118052 0.09400549626 0.8448787654 8.647269891e-39
0.3328917652 0.09400549626 0.8448787654 8.555438599e-39
0.3340889302 0.09377691576 0.8418787204 8.55687493e-39
0.3352746502 0.09354834726 0.8388787654 8.832742953e-39
0.3376432552 0.09354834726 0.8388787654 9.109324237e-39
0.3400117852 0.09354834726 0.8388787654 9.293352561e-39
0.3423803602 0.09354834726 0.8388787654 9.56957231e-39
0.3435375052 0.09331977726 0.8358787054 9.662121067e-39
0.3459003502 0.09331977726 0.8358787054 9.75468664e-39
0.3470403352 0.09309119826 0.8328787504 9.939087709e-39
0.3493975102 0.09309119826 0.8328787504 1.021458719e-38
0.3517546702 0.09309119826 0.8328787504 1.058192077e-38
0.3541118002 0.09309119826 0.8328787504 1.094926836e-38
0.3552232252 0.09286262826 0.8298786904 1.150064707e-38
0.3563232352 0.09263404926 0.8268787354 1.2144206e-38
0.3586689202 0.09263404926 0.8268787354 1.186905124e-38
0.3610146502 0.09263404926 0.8268787354 1.159318882e-38
0.3633603652 0.09263404926 0.8268787354 1.159319163e-38
0.3657060502 0.09263404926 0.8268787354 1.159390629e-38
0.3693317752 0.09286262826 0.8298786904 1.186976731e-38
0.3716832202 0.09286262826 0.8298786904 1.223747783e-38
0.3740346202 0.09286262826 0.8298786904 1.269702526e-38
0.3763860202 0.09286262826 0.8298786904 1.324947596e-38
0.3774346402 0.09263404926 0.8268787354 1.288249692e-38
0.3797803552 0.09263404926 0.8268787354 1.260699463e-38
0.3821260402 0.09263404926 0.8268787354 1.297469955e-38
0.3844718152 0.09263404926 0.8268787354 1.334201772e-38
0.3868175452 0.09263404926 0.8268787354 1.306648881e-38
0.3904946302 0.09286262826 0.8298786904 1.288247029e-38
0.3928460752 0.09286262826 0.8298786904 1.288104657e-38
0.3965403652 0.09309119826 0.8328787504 1.297503026e-38
0.4002460702 0.09331977726 0.8358787054 1.269844337e-38
0.4039632052 0.09354834726 0.8388787654 1.242401308e-38
0.4076917402 0.09377691576 0.8418787204 1.187479516e-38
