# .PCD v0.7 - Point Cloud Data file format
VERSION 0.7
FIELDS x y z rgb
SIZE 4 4 4 4
TYPE F F F F
COUNT 1 1 1 1
WIDTH 853
HEIGHT 1
VIEWPOINT 0 0 0 1 0 0 0
POINTS 853
DATA ascii
0.2305257972 -0.1386309633 0.7390825366 1.288788911e-38
0.2326915122 -0.1386309633 0.7390825366 1.298008755e-38
0.2358686322 -0.1390423983 0.7420825816 1.31633984e-38
0.2380400922 -0.1390423983 0.7420825816 1.325308151e-38
0.2402115222 -0.1390423983 0.7420825816 1.334782329e-38
0.04812008224 -0.1311909663 0.7000825816 1.502501781e-38
0.05021150224 -0.1311909663 0.7000825816 1.484167332e-38
0.05340006724 -0.1320023913 0.7060825966 1.474944826e-38
0.05550294724 -0.1320023913 0.7060825966 1.456540452e-38
0.05704577224 -0.1315966728 0.7030825516 1.419984219e-38
0.05970864724 -0.1320023913 0.7060825966 1.383428125e-38
0.06181149724 -0.1320023913 0.7060825966 1.345939328e-38
0.06420293224 -0.1322052558 0.7075825816 1.30845025e-38
0.06630864724 -0.1322052558 0.7075825816 1.271104805e-38
0.06841436224 -0.1322052558 0.7075825816 1.233793412e-38
0.07111436224 -0.1326109623 0.7105825366 1.19605168e-38
0.07322577724 -0.1326109623 0.7105825366 1.158312049e-38
0.07533720724 -0.1326109623 0.7105825366 1.130939926e-38
0.07744865224 -0.1326109623 0.7105825366 1.103605077e-38
0.07956008224 -0.1326109623 0.7105825366 1.131479146e-38
0.08167149724 -0.1326109623 0.7105825366 1.159355316e-38
0.08409722224 -0.1328138133 0.7120825216 1.177653331e-38
0.08621148724 -0.1328138133 0.7120825216 1.195984137e-38
0.08896578724 -0.1332195333 0.7150825666 1.251300394e-38
0.09108579724 -0.1332195333 0.7150825666 1.30661637e-38
0.09320579224 -0.1332195333 0.7150825666 1.325054656e-38
0.09565436224 -0.1334223933 0.7165825516 1.343744754e-38
0.09777722224 -0.1334223933 0.7165825516 1.361789275e-38
0.09990005224 -0.1334223933 0.7165825516 1.380193929e-38
0.1026972372 -0.1338281133 0.7195825966 1.398598583e-38
0.1048257972 -0.1338281133 0.7195825966 1.426183563e-38
0.1069543722 -0.1338281133 0.7195825966 1.435401445e-38
0.1097743572 -0.1342338183 0.7225825666 1.444654359e-38
0.1119086322 -0.1342338183 0.7225825666 1.463019076e-38
0.1143943572 -0.1344366783 0.7240825516 1.481388277e-38
0.1165315122 -0.1344366783 0.7240825516 1.499757618e-38
0.1186686372 -0.1344366783 0.7240825516 1.509085081e-38
0.1208057772 -0.1344366783 0.7240825516 1.536600277e-38
0.1236686472 -0.1348423983 0.7270825966 1.554967797e-38
0.1258115172 -0.1348423983 0.7270825966 1.564223653e-38
0.1286914872 -0.1352481033 0.7300825516 1.582662359e-38
0.1312114872 -0.1354509633 0.7315825366 1.591809895e-38
0.1341115122 -0.1358566833 0.7345825816 1.610176994e-38
0.1374000672 -0.1364652333 0.7390825366 1.573442796e-38
0.1395657822 -0.1364652333 0.7390825366 1.545892007e-38
0.1417314972 -0.1364652333 0.7390825366 1.545891867e-38
0.1446686472 -0.1368709683 0.7420825816 1.545891586e-38
0.1468400772 -0.1368709683 0.7420825816 1.499901812e-38
0.1490115222 -0.1368709683 0.7420825816 1.45394819e-38
0.1511829222 -0.1368709683 0.7420825816 1.417142245e-38
0.1533543522 -0.1368709683 0.7420825816 1.389555723e-38
0.1547257872 -0.1364652333 0.7390825366 1.407886949e-38
0.1568915022 -0.1364652333 0.7390825366 1.425930629e-38
0.1590572022 -0.1364652333 0.7390825366 1.398379419e-38
0.1612229322 -0.1364652333 0.7390825366 1.370828911e-38
0.1633886322 -0.1364652333 0.7390825366 1.250259229e-38
0.1655543622 -0.1364652333 0.7390825366 1.131051469e-38
0.1677200622 -0.1364652333 0.7390825366 1.140521164e-38
0.1698857772 -0.1364652333 0.7390825366 1.159032597e-38
0.1720514922 -0.1364652333 0.7390825366 1.168073635e-38
0.1742172072 -0.1364652333 0.7390825366 1.177148444e-38
0.1763829372 -0.1364652333 0.7390825366 1.195909167e-38
0.1785486372 -0.1364652333 0.7390825366 1.214635279e-38
0.1807143672 -0.1364652333 0.7390825366 1.22371149e-38
0.1828800672 -0.1364652333 0.7390825366 1.232789381e-38
0.1850457672 -0.1364652333 0.7390825366 1.205240694e-38
0.1863257922 -0.1360595283 0.7360825666 1.186478008e-38
0.1893771972 -0.1364652333 0.7390825366 1.002232063e-38
0.1906458072 -0.1360595283 0.7360825666 8.185606507e-39
0.1928057772 -0.1360595283 0.7360825666 9.200457683e-39
0.1945115172 -0.1358566833 0.7345825816 1.021424247e-38
0.1971257922 -0.1360595283 0.7360825666 1.067486329e-38
0.1988258022 -0.1358566833 0.7345825816 1.113475123e-38
0.2014458072 -0.1360595283 0.7360825666 1.214924087e-38
0.2031400872 -0.1358566833 0.7345825816 1.325557862e-38
0.2052972372 -0.1358566833 0.7345825816 1.380444621e-38
0.2074543722 -0.1358566833 0.7345825816 1.435546339e-38
0.2096115222 -0.1358566833 0.7345825816 1.42636335e-38
0.2122457922 -0.1360595283 0.7360825666 1.426399223e-38
0.2144058072 -0.1360595283 0.7360825666 1.398812701e-38
0.2165657922 -0.1360595283 0.7360825666 1.362078082e-38
0.2182400772 -0.1358566833 0.7345825816 1.343710563e-38
0.2208857772 -0.1360595283 0.7360825666 1.316409205e-38
0.2230458072 -0.1360595283 0.7360825666 1.288677508e-38
0.2247115122 -0.1358566833 0.7345825816 1.260984908e-38
0.2273658072 -0.1360595283 0.7360825666 1.251910659e-38
0.2290258122 -0.1358566833 0.7345825816 1.251982406e-38
0.2311829472 -0.1358566833 0.7345825816 1.270385518e-38
0.2348572122 -0.1364652333 0.7390825366 1.288788911e-38
0.2380400922 -0.1368709683 0.7420825816 1.297829388e-38
0.2402115222 -0.1368709683 0.7420825816 1.306941332e-38
0.05340006724 -0.1298995383 0.7060825966 1.520757477e-38
0.05550294724 -0.1298995383 0.7060825966 1.539231495e-38
0.05760579724 -0.1298995383 0.7060825966 1.539302541e-38
0.05970864724 -0.1298995383 0.7060825966 1.539229673e-38
0.06209721724 -0.1300995423 0.7075825816 1.502422748e-38
0.06420293224 -0.1300995423 0.7075825816 1.474728185e-38
0.06630864724 -0.1300995423 0.7075825816 1.419518848e-38
0.06841436224 -0.1300995423 0.7075825816 1.373456065e-38
0.07111436224 -0.1304995383 0.7105825366 1.345796255e-38
0.07322577724 -0.1304995383 0.7105825366 1.317167307e-38
0.07533720724 -0.1304995383 0.7105825366 1.242656484e-38
0.07744865224 -0.1304995383 0.7105825366 1.177148864e-38
0.07956008224 -0.1304995383 0.7105825366 1.139192033e-38
0.08167149724 -0.1304995383 0.7105825366 1.103033908e-38
0.08472579724 -0.1310995368 0.7150825666 1.121977221e-38
0.08716293724 -0.1312995288 0.7165825516 1.149921074e-38
0.08928579724 -0.1312995288 0.7165825516 1.204949224e-38
0.09205436224 -0.1316995473 0.7195825966 1.260373381e-38
0.09418295224 -0.1316995473 0.7195825966 1.26987979e-38
0.09631152724 -0.1316995473 0.7195825966 1.279064601e-38
0.09844008724 -0.1316995473 0.7195825966 1.297468974e-38
0.1005686622 -0.1316995473 0.7195825966 1.315836914e-38
0.1033715022 -0.1320995313 0.7225825666 1.352571954e-38
0.1055057772 -0.1320995313 0.7225825666 1.398488721e-38
0.1076400822 -0.1320995313 0.7225825666 1.407707023e-38
0.1101200772 -0.1322995233 0.7240825516 1.4261802e-38
0.1122572172 -0.1322995233 0.7240825516 1.444689111e-38
0.1143943572 -0.1322995233 0.7240825516 1.472205428e-38
0.1172400822 -0.1326995433 0.7270825966 1.472206969e-38
0.1186686372 -0.1322995233 0.7240825516 1.481426392e-38
0.1215257922 -0.1326995433 0.7270825966 1.499865378e-38
0.1236686472 -0.1326995433 0.7270825966 1.518232898e-38
0.1258115172 -0.1326995433 0.7270825966 1.53663629e-38
0.1286914872 -0.1330995333 0.7300825516 1.554931783e-38
0.1312114872 -0.1332995283 0.7315825366 1.591594375e-38
0.1341115122 -0.1336995333 0.7345825816 1.628364587e-38
0.1366458072 -0.1338995283 0.7360825666 1.582518866e-38
0.1395657822 -0.1342995333 0.7390825366 1.545785088e-38
0.1417314972 -0.1342995333 0.7390825366 1.564152607e-38
0.1438971972 -0.1342995333 0.7390825366 1.582518726e-38
0.1460629272 -0.1342995333 0.7390825366 1.518233038e-38
0.1490115222 -0.1346995383 0.7420825816 1.46302412e-38
0.1511829222 -0.1346995383 0.7420825816 1.426218175e-38
0.1533543522 -0.1346995383 0.7420825816 1.398667386e-38
0.1547257872 -0.1342995333 0.7390825366 1.417034486e-38
0.1568915022 -0.1342995333 0.7390825366 1.444512547e-38
0.1590572022 -0.1342995333 0.7390825366 1.407741635e-38
0.1612229322 -0.1342995333 0.7390825366 1.371007997e-38
0.1633886322 -0.1342995333 0.7390825366 1.232071636e-38
0.1655543622 -0.1342995333 0.7390825366 1.094317271e-38
0.1677200622 -0.1342995333 0.7390825366 1.103643333e-38
0.1707257922 -0.1346995383 0.7420825816 1.112863036e-38
0.1728972372 -0.1346995383 0.7420825816 1.122082879e-38
0.1750686522 -0.1346995383 0.7420825816 1.131266148e-38
0.1772400822 -0.1346995383 0.7420825816 1.149632967e-38
0.1785486372 -0.1342995333 0.7390825366 1.168502292e-38
0.1815829272 -0.1346995383 0.7420825816 1.168574178e-38
0.1828800672 -0.1342995333 0.7390825366 1.177722836e-38
0.1850457672 -0.1342995333 0.7390825366 1.168540267e-38
0.1872114972 -0.1342995333 0.7390825366 1.167965454e-38
0.1893771972 -0.1342995333 0.7390825366 9.560972542e-39
0.1906458072 -0.1338995283 0.7360825666 7.448395996e-39
0.1928057772 -0.1338995283 0.7360825666 8.650867024e-39
0.1945115172 -0.1336995333 0.7345825816 9.845815882e-39
0.1971257922 -0.1338995283 0.7360825666 1.049046923e-38
0.1988258022 -0.1336995333 0.7345825816 1.122551333e-38
0.2009829222 -0.1336995333 0.7345825816 1.177724657e-38
0.2031400872 -0.1336995333 0.7345825816 1.233148954e-38
0.2043600672 -0.1332995283 0.7315825366 1.32530745e-38
0.2074543722 -0.1336995333 0.7345825816 1.426291743e-38
0.2096115222 -0.1336995333 0.7345825816 1.407889892e-38
0.2117686422 -0.1336995333 0.7345825816 1.398848854e-38
0.2144058072 -0.1338995283 0.7360825666 1.352858379e-38
0.2160829272 -0.1336995333 0.7345825816 1.306904477e-38
0.2182400772 -0.1336995333 0.7345825816 1.279317535e-38
0.2203972422 -0.1336995333 0.7345825816 1.260876587e-38
0.2225543922 -0.1336995333 0.7345825816 1.23325209e-38
0.2237229072 -0.1332995283 0.7315825366 1.205918502e-38
0.2258743572 -0.1332995283 0.7315825366 1.205992211e-38
0.2280258072 -0.1332995283 0.7315825366 1.215211633e-38
0.2301771972 -0.1332995283 0.7315825366 1.242834029e-38
0.2338457922 -0.1338995283 0.7360825666 1.270384257e-38
0.2370229122 -0.1342995333 0.7390825366 1.279531373e-38
0.2391886722 -0.1342995333 0.7390825366 1.288680871e-38
0.05550294724 -0.1277966868 0.7060825966 1.539270591e-38
0.05760579724 -0.1277966868 0.7060825966 1.539234718e-38
0.05970864724 -0.1277966868 0.7060825966 1.548417427e-38
0.06266864224 -0.1283881038 0.7105825366 1.539304923e-38
0.06478005724 -0.1283881038 0.7105825366 1.53948485e-38
0.06689151724 -0.1283881038 0.7105825366 1.511719662e-38
0.06900293224 -0.1283881038 0.7105825366 1.483989647e-38
0.07111436224 -0.1283881038 0.7105825366 1.465443182e-38
0.07322577724 -0.1283881038 0.7105825366 1.456112916e-38
0.07533720724 -0.1283881038 0.7105825366 1.428415551e-38
0.07744865224 -0.1283881038 0.7105825366 1.400714683e-38
0.07956008224 -0.1283881038 0.7105825366 1.3634358e-38
0.08260580224 -0.1289795298 0.7150825666 1.326201058e-38
0.08504007724 -0.1291766718 0.7165825516 1.297683653e-38
0.08716293724 -0.1291766718 0.7165825516 1.269161905e-38
0.08992581724 -0.1295709573 0.7195825966 1.278378945e-38
0.09205436224 -0.1295709573 0.7195825966 1.287634662e-38
0.09418295224 -0.1295709573 0.7195825966 1.214346192e-38
0.09631152724 -0.1295709573 0.7195825966 1.150243093e-38
0.09844008724 -0.1295709573 0.7195825966 1.177688644e-38
0.1012371972 -0.1299652533 0.7225825666 1.205131673e-38
0.1037086272 -0.1301623953 0.7240825516 1.186800587e-38
0.1058457672 -0.1301623953 0.7240825516 1.168468801e-38
0.1079829072 -0.1301623953 0.7240825516 1.232932454e-38
0.1108115022 -0.1305566808 0.7270825966 1.288212277e-38
0.1129543572 -0.1305566808 0.7270825966 1.315833832e-38
0.1150972272 -0.1305566808 0.7270825966 1.352640617e-38
0.1172400822 -0.1305566808 0.7270825966 1.38919629e-38
0.1193829522 -0.1305566808 0.7270825966 1.434970265e-38
0.1215257922 -0.1305566808 0.7270825966 1.463022999e-38
0.1236686472 -0.1305566808 0.7270825966 1.490573928e-38
0.1265429322 -0.1309509543 0.7300825516 1.518124998e-38
0.1286914872 -0.1309509543 0.7300825516 1.545676067e-38
0.1312114872 -0.1311480963 0.7315825366 1.55489591e-38
0.1341115122 -0.1315424028 0.7345825816 1.563936247e-38
0.1366458072 -0.1317395343 0.7360825666 1.536601258e-38
0.1395657822 -0.1321338198 0.7390825366 1.508872224e-38
0.1417314972 -0.1321338198 0.7390825366 1.518056754e-38
0.1438971972 -0.1321338198 0.7390825366 1.527274636e-38
0.1460629272 -0.1321338198 0.7390825366 1.490503023e-38
0.1490115222 -0.1325281038 0.7420825816 1.444549401e-38
0.1511829222 -0.1325281038 0.7420825816 1.416998752e-38
0.1533543522 -0.1325281038 0.7420825816 1.398559767e-38
0.1555257972 -0.1325281038 0.7420825816 1.398631373e-38
0.1568915022 -0.1321338198 0.7390825366 1.398701998e-38
0.1598686572 -0.1325281038 0.7420825816 1.371150369e-38
0.1620400872 -0.1325281038 0.7420825816 1.343636574e-38
0.1642115172 -0.1325281038 0.7420825816 1.241901044e-38
0.1663829472 -0.1325281038 0.7420825816 1.140091526e-38
0.1685543622 -0.1325281038 0.7420825816 1.112575629e-38
0.1707257922 -0.1325281038 0.7420825816 1.085096447e-38
0.1728972372 -0.1325281038 0.7420825816 1.0852398e-38
0.1750686522 -0.1325281038 0.7420825816 1.085383713e-38
0.1772400822 -0.1325281038 0.7420825816 1.103751373e-38
0.1794115272 -0.1325281038 0.7420825816 1.131552994e-38
0.1815829272 -0.1325281038 0.7420825816 1.122405318e-38
0.1837543572 -0.1325281038 0.7420825816 1.122477064e-38
0.1859258022 -0.1325281038 0.7420825816 1.122512937e-38
0.1872114972 -0.1321338198 0.7390825366 1.121938125e-38
0.1893771972 -0.1321338198 0.7390825366 8.919182049e-39
0.1906458072 -0.1317395343 0.7360825666 6.619351391e-39
0.1928057772 -0.1317395343 0.7360825666 8.373914396e-39
0.1945115172 -0.1315424028 0.7345825816 1.012023777e-38
0.1971257922 -0.1317395343 0.7360825666 1.058050546e-38
0.1988258022 -0.1315424028 0.7345825816 1.113260444e-38
0.2009829222 -0.1315424028 0.7345825816 1.168291116e-38
0.2031400872 -0.1315424028 0.7345825816 1.214136697e-38
0.2043600672 -0.1311480963 0.7315825366 1.288609125e-38
0.2065114872 -0.1311480963 0.7315825366 1.371155273e-38
0.2086629072 -0.1311480963 0.7315825366 1.352825869e-38
0.2108143572 -0.1311480963 0.7315825366 1.34378385e-38
0.2139258072 -0.1315424028 0.7345825816 1.270134125e-38
0.2151171972 -0.1311480963 0.7315825366 1.196521955e-38
0.2172686622 -0.1311480963 0.7315825366 1.205705225e-38
0.2194200672 -0.1311480963 0.7315825366 1.224105675e-38
0.2215715172 -0.1311480963 0.7315825366 1.187368954e-38
0.2237229072 -0.1311480963 0.7315825366 1.160035647e-38
0.2253772272 -0.1309509543 0.7300825516 1.187624411e-38
0.2275257972 -0.1309509543 0.7300825516 1.215210933e-38
0.2296743822 -0.1309509543 0.7300825516 1.242797455e-38
0.2333401122 -0.1315424028 0.7345825816 1.261199026e-38
0.2360057772 -0.1317395343 0.7360825666 1.261161752e-38
0.2381658072 -0.1317395343 0.7360825666 1.251981565e-38
0.2346686472 -0.1295709573 0.7195825966 1.279499704e-38
0.2367972522 -0.1295709573 0.7195825966 1.307050493e-38
0.2389258122 -0.1295709573 0.7195825966 1.307086506e-38
0.2410543572 -0.1295709573 0.7195825966 1.317422904e-38
0.06266864224 -0.1262766798 0.7105825366 1.576147442e-38
0.06478005724 -0.1262766798 0.7105825366 1.603806131e-38
0.06689151724 -0.1262766798 0.7105825366 1.594658875e-38
0.06900293224 -0.1262766798 0.7105825366 1.594659155e-38
0.07111436224 -0.1262766798 0.7105825366 1.594695309e-38
0.07322577724 -0.1262766798 0.7105825366 1.60391291e-38
0.07533720724 -0.1262766798 0.7105825366 1.613130651e-38
0.07744865224 -0.1262766798 0.7105825366 1.631350614e-38
0.07956008224 -0.1262766798 0.7105825366 1.585321743e-38
0.08260580224 -0.1268595348 0.7150825666 1.548301399e-38
0.08504007724 -0.1270538163 0.7165825516 1.474546857e-38
0.08716293724 -0.1270538163 0.7165825516 1.400143514e-38
0.08992581724 -0.1274423898 0.7195825966 1.362510383e-38
0.09205436224 -0.1274423898 0.7195825966 1.324841098e-38
0.09418295224 -0.1274423898 0.7195825966 1.167785808e-38
0.09696864724 -0.1278309633 0.7225825666 1.020742796e-38
0.09910295224 -0.1278309633 0.7225825666 1.057406649e-38
0.1012371972 -0.1278309633 0.7225825666 1.10414752e-38
0.1037086272 -0.1280252448 0.7240825516 1.020848033e-38
0.1058457672 -0.1280252448 0.7240825516 9.475585821e-39
0.1079829072 -0.1280252448 0.7240825516 1.048756714e-38
0.1108115022 -0.1284138183 0.7270825966 1.159174128e-38
0.1129543572 -0.1284138183 0.7270825966 1.196123146e-38
0.1150972272 -0.1284138183 0.7270825966 1.232929931e-38
0.1172400822 -0.1284138183 0.7270825966 1.315654605e-38
0.1193829522 -0.1284138183 0.7270825966 1.398199633e-38
0.1222457772 -0.1288023933 0.7300825516 1.435400884e-38
0.1243943622 -0.1288023933 0.7300825516 1.472278155e-38
0.1265429322 -0.1288023933 0.7300825516 1.499971877e-38
0.1286914872 -0.1288023933 0.7300825516 1.536598876e-38
0.1319543772 -0.1293852483 0.7345825816 1.518196324e-38
0.1341115122 -0.1293852483 0.7345825816 1.499829925e-38
0.1374000672 -0.1299681033 0.7390825366 1.490682949e-38
0.1395657822 -0.1299681033 0.7390825366 1.481320874e-38
0.1417314972 -0.1299681033 0.7390825366 1.481321575e-38
0.1438971972 -0.1299681033 0.7390825366 1.481320874e-38
0.1468400772 -0.1303566768 0.7420825816 1.453805258e-38
0.1490115222 -0.1303566768 0.7420825816 1.435401865e-38
0.1511829222 -0.1303566768 0.7420825816 1.416998472e-38
0.1533543522 -0.1303566768 0.7420825816 1.3985955e-38
0.1555257972 -0.1303566768 0.7420825816 1.38022826e-38
0.1576972122 -0.1303566768 0.7420825816 1.36186032e-38
0.1598686572 -0.1303566768 0.7420825816 1.334344844e-38
0.1620400872 -0.1303566768 0.7420825816 1.315979286e-38
0.1642115172 -0.1303566768 0.7420825816 1.251731994e-38
0.1663829472 -0.1303566768 0.7420825816 1.195910429e-38
0.1685543622 -0.1303566768 0.7420825816 1.130690215e-38
0.1707257922 -0.1303566768 0.7420825816 1.066692213e-38
0.1733200722 -0.1305509583 0.7435825666 1.048253227e-38
0.1750686522 -0.1303566768 0.7420825816 1.039393097e-38
0.1772400822 -0.1303566768 0.7420825816 1.067051926e-38
0.1794115272 -0.1303566768 0.7420825816 1.094638168e-38
0.1815829272 -0.1303566768 0.7420825816 1.085490212e-38
0.1837543572 -0.1303566768 0.7420825816 1.076378689e-38
0.1859258022 -0.1303566768 0.7420825816 1.076486729e-38
0.1872114972 -0.1299681033 0.7390825366 1.076091282e-38
0.1893771972 -0.1299681033 0.7390825366 8.277401365e-39
0.1915429272 -0.1299681033 0.7390825366 5.792108856e-39
0.1928057772 -0.1295795403 0.7360825666 8.097330309e-39
0.1949658072 -0.1295795403 0.7360825666 1.039537851e-38
0.1971257922 -0.1295795403 0.7360825666 1.076308904e-38
0.1988258022 -0.1293852483 0.7345825816 1.112972617e-38
0.2009829222 -0.1293852483 0.7345825816 1.15881988e-38
0.2022086472 -0.1289966733 0.7315825366 1.204951887e-38
0.2043600672 -0.1289966733 0.7315825366 1.261092527e-38
0.2065114872 -0.1289966733 0.7315825366 1.316051593e-38
0.2086629072 -0.1289966733 0.7315825366 1.306977065e-38
0.2108143572 -0.1289966733 0.7315825366 1.2976482e-38
0.2129657772 -0.1289966733 0.7315825366 1.187120784e-38
0.2151171972 -0.1289966733 0.7315825366 1.086138312e-38
0.2167829172 -0.1288023933 0.7300825516 1.132128648e-38
0.2189315322 -0.1288023933 0.7300825516 1.187300711e-38
0.2215715172 -0.1289966733 0.7315825366 1.150673151e-38
0.2232286422 -0.1288023933 0.7300825516 1.123231383e-38
0.2228915172 -0.1278309633 0.7225825666 1.169258012e-38
0.2250257922 -0.1278309633 0.7225825666 1.224395183e-38
0.2271600822 -0.1278309633 0.7225825666 1.242762282e-38
0.2267658372 -0.1268595348 0.7150825666 1.261236301e-38
0.2288857572 -0.1268595348 0.7150825666 1.242904374e-38
0.2310057822 -0.1268595348 0.7150825666 1.224538956e-38
0.2331257922 -0.1268595348 0.7150825666 1.270458246e-38
0.2357628972 -0.1270538163 0.7165825516 1.32541507e-38
0.2378858322 -0.1270538163 0.7165825516 1.334633652e-38
0.2379172122 -0.1262766798 0.7105825366 1.353039987e-38
0.2400286422 -0.1262766798 0.7105825366 1.343895814e-38
0.06900293224 -0.1241652438 0.7105825366 1.530303122e-38
0.07111436224 -0.1241652438 0.7105825366 1.539451359e-38
0.07322577724 -0.1241652438 0.7105825366 1.557818178e-38
0.07533720724 -0.1241652438 0.7105825366 1.567073194e-38
0.08566865224 -0.1253138223 0.7195825966 1.511719662e-38
0.08779722724 -0.1253138223 0.7195825966 1.484167052e-38
0.08992581724 -0.1253138223 0.7195825966 1.465511145e-38
0.09205436224 -0.1253138223 0.7195825966 1.446851875e-38
0.09418295224 -0.1253138223 0.7195825966 1.354329742e-38
0.09696864724 -0.1256966853 0.7225825666 1.271032358e-38
0.09910295224 -0.1256966853 0.7225825666 1.279427116e-38
0.1012371972 -0.1256966853 0.7225825666 1.287853404e-38
0.1037086272 -0.1258881048 0.7240825516 1.204300843e-38
0.1058457672 -0.1258881048 0.7240825516 1.129971349e-38
0.1079829072 -0.1258881048 0.7240825516 1.149020039e-38
0.1108115022 -0.1262709678 0.7270825966 1.168104603e-38
0.1129543572 -0.1262709678 0.7270825966 1.177790378e-38
0.1150972272 -0.1262709678 0.7270825966 1.177647726e-38
0.1179486372 -0.1266538203 0.7300825516 1.19605168e-38
0.1193829522 -0.1262709678 0.7270825966 1.214492207e-38
0.1222457772 -0.1266538203 0.7300825516 1.260770369e-38
0.1243943622 -0.1266538203 0.7300825516 1.297862039e-38
0.1265429322 -0.1266538203 0.7300825516 1.343778666e-38
0.1286914872 -0.1266538203 0.7300825516 1.398880244e-38
0.1319543772 -0.1272281028 0.7345825816 1.417140143e-38
0.1344857772 -0.1274195343 0.7360825666 1.444620167e-38
0.1374000672 -0.1278023868 0.7390825366 1.444585415e-38
0.1395657822 -0.1278023868 0.7390825366 1.453769525e-38
0.1417314972 -0.1278023868 0.7390825366 1.462953635e-38
0.1446686472 -0.1281852498 0.7420825816 1.472101311e-38
0.1468400772 -0.1281852498 0.7420825816 1.444622409e-38
0.1490115222 -0.1281852498 0.7420825816 1.417106793e-38
0.1511829222 -0.1281852498 0.7420825816 1.407850656e-38
0.1533543522 -0.1281852498 0.7420825816 1.398451867e-38
0.1555257972 -0.1281852498 0.7420825816 1.380192387e-38
0.1576972122 -0.1281852498 0.7420825816 1.361573615e-38
0.1598686572 -0.1281852498 0.7420825816 1.343170082e-38
0.1620400872 -0.1281852498 0.7420825816 1.324769351e-38
0.1642115172 -0.1281852498 0.7420825816 1.279104958e-38
0.1663829472 -0.1281852498 0.7420825816 1.233398105e-38
0.1689714972 -0.1283766813 0.7435825666 1.140087602e-38
0.1719857772 -0.1287595338 0.7465825216 1.048323853e-38
0.1741657872 -0.1287595338 0.7465825216 1.020629711e-38
0.1754943522 -0.1283766813 0.7435825666 1.002586031e-38
0.1776686472 -0.1283766813 0.7435825666 1.021133057e-38
0.1798429422 -0.1283766813 0.7435825666 1.039463723e-38
0.1820172222 -0.1283766813 0.7435825666 1.030208006e-38
0.1841915172 -0.1283766813 0.7435825666 1.020953411e-38
0.1863657972 -0.1283766813 0.7435825666 1.020989985e-38
0.1880972322 -0.1281852498 0.7420825816 1.02106089e-38
0.1902686322 -0.1281852498 0.7420825816 7.907539846e-39
0.1915429272 -0.1278023868 0.7390825366 5.607716195e-39
0.1937086422 -0.1278023868 0.7390825366 7.543087339e-39
0.1949658072 -0.1274195343 0.7360825666 9.568494712e-39
0.1971257922 -0.1274195343 0.7360825666 1.030318288e-38
0.1988258022 -0.1272281028 0.7345825816 1.103788087e-38
0.2009829222 -0.1272281028 0.7345825816 1.149779123e-38
0.2031400872 -0.1272281028 0.7345825816 1.195802949e-38
0.2043600672 -0.1268452413 0.7315825366 1.242400747e-38
0.2065114872 -0.1268452413 0.7315825366 1.288498702e-38
0.2086629072 -0.1268452413 0.7315825366 1.288392064e-38
0.2108143572 -0.1268452413 0.7315825366 1.288282622e-38
0.2124857922 -0.1266538203 0.7300825516 1.223780714e-38
0.2146343622 -0.1266538203 0.7300825516 1.158672463e-38
0.2167829172 -0.1266538203 0.7300825516 1.187121765e-38
0.2189315322 -0.1266538203 0.7300825516 1.214816467e-38
0.2210800872 -0.1266538203 0.7300825516 1.205705225e-38
0.2222400972 -0.1262709678 0.7270825966 1.187446166e-38
0.2194114572 -0.1243566753 0.7120825216 1.224288404e-38
0.2225258022 -0.1247395383 0.7150825666 1.261130222e-38
0.2231372322 -0.1241652438 0.7105825366 1.279497322e-38
0.2252486622 -0.1241652438 0.7105825366 1.288860237e-38
0.2273600772 -0.1241652438 0.7105825366 1.288860237e-38
0.2294715072 -0.1241652438 0.7105825366 1.298043647e-38
0.2320971672 -0.1243566753 0.7120825216 1.334705959e-38
0.2342115072 -0.1243566753 0.7120825216 1.371330435e-38
0.2358057672 -0.1241652438 0.7105825366 1.38058377e-38
0.2379172122 -0.1241652438 0.7105825366 1.399024577e-38
0.2400286422 -0.1241652438 0.7105825366 1.380623707e-38
0.08566865224 -0.1231852548 0.7195825966 1.548705814e-38
0.08716293724 -0.1228081023 0.7165825516 1.567107526e-38
0.08992581724 -0.1231852548 0.7195825966 1.567142278e-38
0.09205436224 -0.1231852548 0.7195825966 1.567139755e-38
0.09418295224 -0.1231852548 0.7195825966 1.548806007e-38
0.09696864724 -0.1235623848 0.7225825666 1.530044302e-38
0.09910295224 -0.1235623848 0.7225825666 1.502134921e-38
0.1012371972 -0.1235623848 0.7225825666 1.474079945e-38
0.1043829372 -0.1241281068 0.7270825966 1.390959544e-38
0.1058457672 -0.1237509543 0.7240825516 1.317058566e-38
0.1086686622 -0.1241281068 0.7270825966 1.252341278e-38
0.1108115022 -0.1241281068 0.7270825966 1.187552804e-38
0.1136514972 -0.1245052473 0.7300825516 1.159498389e-38
0.1158000822 -0.1245052473 0.7300825516 1.131662436e-38
0.1179486372 -0.1245052473 0.7300825516 1.085459383e-38
0.1200972222 -0.1245052473 0.7300825516 1.039361568e-38
0.1222457772 -0.1245052473 0.7300825516 1.085135263e-38
0.1243943622 -0.1245052473 0.7300825516 1.132558566e-38
0.1265429322 -0.1245052473 0.7300825516 1.195622742e-38
0.1290600672 -0.1246938183 0.7315825366 1.260840294e-38
0.1319543772 -0.1250709588 0.7345825816 1.325053394e-38
0.1344857772 -0.1252595403 0.7360825666 1.389374676e-38
0.1374000672 -0.1256366703 0.7390825366 1.407814082e-38
0.1395657822 -0.1256366703 0.7390825366 1.435401164e-38
0.1424972172 -0.1260138228 0.7420825816 1.444621148e-38
0.1446686472 -0.1260138228 0.7420825816 1.462988667e-38
0.1468400772 -0.1260138228 0.7420825816 1.435474312e-38
0.1490115222 -0.1260138228 0.7420825816 1.407923523e-38
0.1511829222 -0.1260138228 0.7420825816 1.398739693e-38
0.1525600572 -0.1256366703 0.7390825366 1.398596761e-38
0.1555257972 -0.1260138228 0.7420825816 1.380158476e-38
0.1576972122 -0.1260138228 0.7420825816 1.370830172e-38
0.1598686572 -0.1260138228 0.7420825816 1.352354192e-38
0.1620400872 -0.1260138228 0.7420825816 1.343099596e-38
0.1642115172 -0.1260138228 0.7420825816 1.306509592e-38
0.1667972322 -0.1262023938 0.7435825666 1.26988021e-38
0.1698057672 -0.1265795343 0.7465825216 1.149486952e-38
0.1719857772 -0.1265795343 0.7465825216 1.029921161e-38
0.1741657872 -0.1265795343 0.7465825216 9.930431888e-39
0.1763457822 -0.1265795343 0.7465825216 9.657816278e-39
0.1785257922 -0.1265795343 0.7465825216 9.752544055e-39
0.1807057722 -0.1265795343 0.7465825216 9.934766104e-39
0.1820172222 -0.1262023938 0.7435825666 9.842200532e-39
0.1841915172 -0.1262023938 0.7435825666 9.750007704e-39
0.1872457722 -0.1265795343 0.7465825216 9.750010507e-39
0.1885400922 -0.1262023938 0.7435825666 9.748931507e-39
0.1902686322 -0.1260138228 0.7420825816 7.538062282e-39
0.1915429272 -0.1256366703 0.7390825366 5.423692075e-39
0.1937086422 -0.1256366703 0.7390825366 7.080675661e-39
0.1949658072 -0.1252595403 0.7360825666 8.829508756e-39
0.1971257922 -0.1252595403 0.7360825666 9.844375347e-39
0.1992857772 -0.1252595403 0.7360825666 1.09474845e-38
0.2009829222 -0.1250709588 0.7345825816 1.140810532e-38
0.2031400872 -0.1250709588 0.7345825816 1.196054622e-38
0.2043600672 -0.1246938183 0.7315825366 1.223747923e-38
0.2065114872 -0.1246938183 0.7315825366 1.260805261e-38
0.2086629072 -0.1246938183 0.7315825366 1.269953358e-38
0.2108143572 -0.1246938183 0.7315825366 1.279135927e-38
0.2129657772 -0.1246938183 0.7315825366 1.260444987e-38
0.2151171972 -0.1246938183 0.7315825366 1.242114602e-38
0.2172686622 -0.1246938183 0.7315825366 1.242151456e-38
0.2032971972 -0.1184709588 0.6820825516 1.251442906e-38
0.2083029222 -0.1196023818 0.6910825216 1.251586679e-38
0.2103771972 -0.1196023818 0.6910825216 1.260842396e-38
0.2124515172 -0.1196023818 0.6910825216 1.279317675e-38
0.2210257722 -0.1220538213 0.7105825366 1.307012097e-38
0.2231372322 -0.1220538213 0.7105825366 1.316267814e-38
0.2252486622 -0.1220538213 0.7105825366 1.325451223e-38
0.2273600772 -0.1220538213 0.7105825366 1.343854196e-38
0.2294715072 -0.1220538213 0.7105825366 1.371404844e-38
0.2305543722 -0.1216766793 0.7075825816 1.398991367e-38
0.2336943372 -0.1220538213 0.7105825366 1.426576627e-38
0.2347657872 -0.1216766793 0.7075825816 1.435830662e-38
0.2363486922 -0.1214881098 0.7060825966 1.444943867e-38
0.2384514972 -0.1214881098 0.7060825966 1.408175056e-38
0.2405543622 -0.1214881098 0.7060825966 1.380770563e-38
0.08716293724 -0.1206852453 0.7165825516 1.557782024e-38
0.08992581724 -0.1210566753 0.7195825966 1.557817477e-38
0.09205436224 -0.1210566753 0.7195825966 1.557889364e-38
0.09418295224 -0.1210566753 0.7195825966 1.539450658e-38
0.09631152724 -0.1210566753 0.7195825966 1.521047265e-38
0.09910295224 -0.1214281053 0.7225825666 1.512114548e-38
0.1012371972 -0.1214281053 0.7225825666 1.512401114e-38
0.1043829372 -0.1219852563 0.7270825966 1.466411199e-38
0.1065258072 -0.1219852563 0.7270825966 1.420417781e-38
0.1086686622 -0.1219852563 0.7270825966 1.383320926e-38
0.1108115022 -0.1219852563 0.7270825966 1.355408602e-38
0.1136514972 -0.1223566758 0.7300825516 1.336464588e-38
0.1158000822 -0.1223566758 0.7300825516 1.317525899e-38
0.1179486372 -0.1223566758 0.7300825516 1.280148365e-38
0.1200972222 -0.1223566758 0.7300825516 1.251984928e-38
0.1222457772 -0.1223566758 0.7300825516 1.270349085e-38
0.1243943622 -0.1223566758 0.7300825516 1.297898893e-38
0.1265429322 -0.1223566758 0.7300825516 1.288427516e-38
0.1290600672 -0.1225423848 0.7315825366 1.27895656e-38
0.1319543772 -0.1229138268 0.7345825816 1.205523757e-38
0.1352343522 -0.1234709553 0.7390825366 1.141274642e-38
0.1381543722 -0.1238423853 0.7420825816 1.187335883e-38
0.1403257872 -0.1238423853 0.7420825816 1.242617108e-38
0.1424972172 -0.1238423853 0.7420825816 1.270168317e-38
0.1446686472 -0.1238423853 0.7420825816 1.30693923e-38
0.1468400772 -0.1238423853 0.7420825816 1.334526733e-38
0.1490115222 -0.1238423853 0.7420825816 1.362113675e-38
0.1511829222 -0.1238423853 0.7420825816 1.371190025e-38
0.1525600572 -0.1234709553 0.7390825366 1.38030295e-38
0.1547257872 -0.1234709553 0.7390825366 1.371012901e-38
0.1568915022 -0.1234709553 0.7390825366 1.37090332e-38
0.1598686572 -0.1238423853 0.7420825816 1.379905541e-38
0.1620400872 -0.1238423853 0.7420825816 1.398199913e-38
0.1646229372 -0.1240281048 0.7435825666 1.315547126e-38
0.1667972322 -0.1240281048 0.7435825666 1.232894058e-38
0.1698057672 -0.1243995348 0.7465825216 1.158886442e-38
0.1719857772 -0.1243995348 0.7465825216 1.094206288e-38
0.1741657872 -0.1243995348 0.7465825216 9.928638226e-39
0.1763457822 -0.1243995348 0.7465825216 8.915615744e-39
0.1785257922 -0.1243995348 0.7465825216 9.197977385e-39
0.1807057722 -0.1243995348 0.7465825216 9.475255115e-39
0.1828857672 -0.1243995348 0.7465825216 9.382679733e-39
0.1850657772 -0.1243995348 0.7465825216 9.380165803e-39
0.1872457722 -0.1243995348 0.7465825216 9.287968772e-39
0.1885400922 -0.1240281048 0.7435825666 9.195778747e-39
0.1902686322 -0.1238423853 0.7420825816 7.905422484e-39
0.1924400922 -0.1238423853 0.7420825816 6.61755913e-39
0.1937086422 -0.1234709553 0.7390825366 8.272379111e-39
0.1949658072 -0.1230995358 0.7360825666 1.001942695e-38
0.1989543672 -0.1238423853 0.7420825816 1.058588644e-38
0.1992857772 -0.1230995358 0.7360825666 1.123160618e-38
0.1870972122 -0.1173423858 0.6895825366 1.159751463e-38
0.1882372272 -0.1169709678 0.6865825816 1.196378042e-38
0.1903029222 -0.1169709678 0.6865825816 1.223928691e-38
0.1923686472 -0.1169709678 0.6865825816 1.251514933e-38
0.1930115022 -0.1164138168 0.6820825516 1.269989371e-38
0.1950686472 -0.1164138168 0.6820825516 1.28835633e-38
0.1971257922 -0.1164138168 0.6820825516 1.279208514e-38
0.1991829372 -0.1164138168 0.6820825516 1.279244387e-38
0.2012400522 -0.1164138168 0.6820825516 1.279352147e-38
0.2032971972 -0.1164138168 0.6820825516 1.288643316e-38
0.2083029222 -0.1175281068 0.6910825216 1.297862739e-38
0.2103771972 -0.1175281068 0.6910825216 1.307118596e-38
0.2124515172 -0.1175281068 0.6910825216 1.325342903e-38
0.2145257772 -0.1175281068 0.6910825216 1.343710563e-38
0.2181086322 -0.1180852458 0.6955825516 1.352930686e-38
0.2217086622 -0.1186423863 0.7000825816 1.362185842e-38
0.2263429422 -0.1195709673 0.7075825816 1.380588814e-38
0.2279372472 -0.1193852568 0.7060825966 1.398991787e-38
0.2300400972 -0.1193852568 0.7060825966 1.426542576e-38
0.2321429022 -0.1193852568 0.7060825966 1.454236297e-38
0.2342457972 -0.1193852568 0.7060825966 1.463419427e-38
0.2363486922 -0.1193852568 0.7060825966 1.47263941e-38
0.2384514972 -0.1193852568 0.7060825966 1.463528307e-38
0.2405543622 -0.1193852568 0.7060825966 1.445232674e-38
0.2426572572 -0.1193852568 0.7060825966 1.334922319e-38
0.09418295224 -0.1189281078 0.7195825966 1.530230955e-38
0.09631152724 -0.1189281078 0.7195825966 1.511863716e-38
0.1043829372 -0.1198423953 0.7270825966 1.539664777e-38
0.1065258072 -0.1198423953 0.7270825966 1.521295435e-38
0.1086686622 -0.1198423953 0.7270825966 1.521329207e-38
0.1108115022 -0.1198423953 0.7270825966 1.521220045e-38
0.1129543572 -0.1198423953 0.7270825966 1.511963208e-38
0.1158000822 -0.1202081028 0.7300825516 1.511928876e-38
0.1179486372 -0.1202081028 0.7300825516 1.484379769e-38
0.1200972222 -0.1202081028 0.7300825516 1.465508903e-38
0.1222457772 -0.1202081028 0.7300825516 1.465041009e-38
0.1243943622 -0.1202081028 0.7300825516 1.474295605e-38
0.1269086472 -0.1203909633 0.7315825366 1.382531154e-38
0.1290600672 -0.1203909633 0.7315825366 1.298872655e-38
0.1319543772 -0.1207566813 0.7345825816 1.095828011e-38
0.1352343522 -0.1213052493 0.7390825366 9.026473867e-39
0.1381543722 -0.1216709688 0.7420825816 9.74677631e-39
0.1403257872 -0.1216709688 0.7420825816 1.048470288e-38
0.1424972172 -0.1216709688 0.7420825816 1.103895987e-38
0.1446686472 -0.1216709688 0.7420825816 1.159428324e-38
0.1468400772 -0.1216709688 0.7420825816 1.242870042e-38
0.1490115222 -0.1216709688 0.7420825816 1.325343183e-38
0.1511829222 -0.1216709688 0.7420825816 1.343639096e-38
0.1525600572 -0.1213052493 0.7390825366 1.361899276e-38
0.1547257872 -0.1213052493 0.7390825366 1.361899977e-38
0.1576972122 -0.1216709688 0.7420825816 1.370938632e-38
0.1598686572 -0.1216709688 0.7420825816 1.407492204e-38
0.1620400872 -0.1216709688 0.7420825816 1.453337364e-38
0.1646229372 -0.1218538173 0.7435825666 1.324623336e-38
0.1676257872 -0.1222195248 0.7465825216 1.19616014e-38
0.1698057672 -0.1222195248 0.7465825216 1.177504934e-38
0.1719857772 -0.1222195248 0.7465825216 1.158850568e-38
0.1741657872 -0.1222195248 0.7465825216 9.835020278e-39
0.1763457822 -0.1222195248 0.7465825216 8.181286303e-39
0.1793829372 -0.1225852443 0.7495825816 8.551877899e-39
0.1815686472 -0.1225852443 0.7495825816 9.014628691e-39
0.1837543572 -0.1225852443 0.7495825816 9.014974812e-39
0.1859400672 -0.1225852443 0.7495825816 9.013532876e-39
0.1872457722 -0.1222195248 0.7465825216 8.826986419e-39
0.1894257822 -0.1222195248 0.7465825216 8.736601267e-39
0.1916057622 -0.1222195248 0.7465825216 8.27277708e-39
0.1924400922 -0.1216709688 0.7420825816 7.82148891e-39
0.1950629322 -0.1218538173 0.7435825666 9.58070983e-39
0.1813371972 -0.1154538093 0.6910825216 1.132631433e-38
0.1829543472 -0.1152709608 0.6895825366 1.141924004e-38
0.1850257872 -0.1152709608 0.6895825366 1.150819867e-38
0.1870972122 -0.1152709608 0.6895825366 1.169186266e-38
0.1891686372 -0.1152709608 0.6895825366 1.196377061e-38
0.1903029222 -0.1149052533 0.6865825816 1.214779053e-38
0.1918972272 -0.1147223928 0.6850825966 1.242402008e-38
0.1930115022 -0.1143566748 0.6820825516 1.270025104e-38
0.1950686472 -0.1143566748 0.6820825516 1.297575613e-38
0.1971257922 -0.1143566748 0.6820825516 1.306866642e-38
0.1991829372 -0.1143566748 0.6820825516 1.325234022e-38
0.2012400522 -0.1143566748 0.6820825516 1.325234302e-38
0.2032971972 -0.1143566748 0.6820825516 1.325270456e-38
0.2068286622 -0.1149052533 0.6865825816 1.334633652e-38
0.2103771972 -0.1154538093 0.6910825216 1.352964878e-38
0.2124515172 -0.1154538093 0.6910825216 1.362112694e-38
0.2145257772 -0.1154538093 0.6910825216 1.3804442e-38
0.2176058022 -0.1158195393 0.6940825666 1.38962817e-38
0.2201915022 -0.1160023878 0.6955825516 1.40810317e-38
0.2238000672 -0.1165509678 0.7000825816 1.417322873e-38
0.2269143372 -0.1169166753 0.7030825516 1.435725985e-38
0.2290115172 -0.1169166753 0.7030825516 1.463312648e-38
0.2311086372 -0.1169166753 0.7030825516 1.491005528e-38
0.2332057722 -0.1169166753 0.7030825516 1.500259703e-38
0.2353029522 -0.1169166753 0.7030825516 1.509444094e-38
0.2384514972 -0.1172823948 0.7060825966 1.509480808e-38
0.2384401122 -0.1165509678 0.7000825816 1.518664497e-38
0.2405315172 -0.1165509678 0.7000825816 1.380732027e-38
0.1065258072 -0.1176995343 0.7270825966 1.493531789e-38
0.1086686622 -0.1176995343 0.7270825966 1.493531369e-38
0.1108115022 -0.1176995343 0.7270825966 1.493531229e-38
0.1129543572 -0.1176995343 0.7270825966 1.511934201e-38
0.1158000822 -0.1180595313 0.7300825516 1.521154184e-38
0.1179486372 -0.1180595313 0.7300825516 1.502716039e-38
0.1200972222 -0.1180595313 0.7300825516 1.475093504e-38
0.1222457772 -0.1180595313 0.7300825516 1.4843488e-38
0.1243943622 -0.1180595313 0.7300825516 1.484419986e-38
0.1269086472 -0.1182395403 0.7315825366 1.447326495e-38
0.1297972122 -0.1185995373 0.7345825816 1.401081964e-38
0.1330686372 -0.1191395328 0.7390825366 1.31738591e-38
0.1359829422 -0.1194995418 0.7420825816 1.233436081e-38
0.1385315022 -0.1196795298 0.7435825666 1.076556093e-38
0.1407057972 -0.1196795298 0.7435825666 9.105011041e-39
0.1428800772 -0.1196795298 0.7435825666 8.923157533e-39
0.1450543722 -0.1196795298 0.7435825666 8.64980484e-39
0.1472286372 -0.1196795298 0.7435825666 9.665737819e-39
0.1490115222 -0.1194995418 0.7420825816 1.077386923e-38
0.1511829222 -0.1194995418 0.7420825816 1.15993195e-38
0.1533543522 -0.1194995418 0.7420825816 1.242512431e-38
0.1555257972 -0.1194995418 0.7420825816 1.306761685e-38
0.1576972122 -0.1194995418 0.7420825816 1.371009959e-38
0.1598686572 -0.1194995418 0.7420825816 1.389089371e-38
0.1620400872 -0.1194995418 0.7420825816 1.407491503e-38
0.1646229372 -0.1196795298 0.7435825666 1.324802982e-38
0.1676257872 -0.1200395268 0.7465825216 1.232930492e-38
0.1706400972 -0.1203995343 0.7495825816 1.195979933e-38
0.1728258072 -0.1203995343 0.7495825816 1.150026592e-38
0.1750115172 -0.1203995343 0.7495825816 1.020739713e-38
0.1771972272 -0.1203995343 0.7495825816 8.824487904e-39
0.1793829372 -0.1203995343 0.7495825816 8.919557597e-39
0.1815686472 -0.1203995343 0.7495825816 8.921704386e-39
0.1846229172 -0.1207595313 0.7525825366 8.922776379e-39
0.1868143572 -0.1207595313 0.7525825366 8.830931074e-39
0.1881257922 -0.1203995343 0.7495825816 9.013517461e-39
0.1903115022 -0.1203995343 0.7495825816 9.196138881e-39
0.1924972122 -0.1203995343 0.7495825816 9.386295083e-39
0.1767400722 -0.1131995358 0.6895825366 9.576431666e-39
0.1788114972 -0.1131995358 0.6895825366 1.040511193e-38
0.1813371972 -0.1133795238 0.6910825216 1.123414673e-38
0.1829543472 -0.1131995358 0.6895825366 1.123415234e-38
0.1850257872 -0.1131995358 0.6895825366 1.132597242e-38
0.1861715172 -0.1128395388 0.6865825816 1.141456391e-38
0.1891686372 -0.1131995358 0.6895825366 1.141274923e-38
0.1903029222 -0.1128395388 0.6865825816 1.177971146e-38
0.1918972272 -0.1126595403 0.6850825966 1.214563393e-38
0.1930115022 -0.1122995313 0.6820825516 1.242294949e-38
0.1945915122 -0.1121195328 0.6805825666 1.270060697e-38
0.1966457922 -0.1121195328 0.6805825666 1.306866642e-38
0.1987000872 -0.1121195328 0.6805825666 1.334417712e-38
0.2012400522 -0.1122995313 0.6820825516 1.352749358e-38
0.2032971972 -0.1122995313 0.6820825516 1.361933468e-38
0.2068286622 -0.1128395388 0.6865825816 1.380301268e-38
0.2098829172 -0.1131995358 0.6895825366 1.39870368e-38
0.2119543422 -0.1131995358 0.6895825366 1.408030162e-38
0.2145257772 -0.1133795238 0.6910825216 1.417393218e-38
0.2166000672 -0.1133795238 0.6910825216 1.426541034e-38
0.2196857922 -0.1137395313 0.6940825666 1.435689271e-38
0.2217658122 -0.1137395313 0.6940825666 1.444909395e-38
0.2253800472 -0.1142795268 0.6985825216 1.454164831e-38
0.2279829372 -0.1144595373 0.7000825816 1.48171576e-38
0.2311086372 -0.1148195343 0.7030825516 1.500260124e-38
0.2332057722 -0.1148195343 0.7030825516 1.527808811e-38
0.2353029522 -0.1148195343 0.7030825516 1.555503933e-38
0.2363486472 -0.1144595373 0.7000825816 1.546213885e-38
0.2384401122 -0.1144595373 0.7000825816 1.537030756e-38
0.2405315172 -0.1144595373 0.7000825816 1.463491173e-38
0.2436915072 -0.1148195343 0.7030825516 1.380587693e-38
0.2457886422 -0.1148195343 0.7030825516 1.380587413e-38
0.1158000822 -0.1159109583 0.7300825516 1.539198565e-38
0.1179486372 -0.1159109583 0.7300825516 1.51157659e-38
0.1200972222 -0.1159109583 0.7300825516 1.493388717e-38
0.1222457772 -0.1159109583 0.7300825516 1.49342459e-38
0.1243943622 -0.1159109583 0.7300825516 1.502643452e-38
0.1269086472 -0.1160880963 0.7315825366 1.502714638e-38
0.1309029222 -0.1169738178 0.7390825366 1.511430434e-38
0.1341829272 -0.1175052528 0.7435825666 1.538943809e-38
0.1363572222 -0.1175052528 0.7435825666 1.574810884e-38
0.1392857922 -0.1178595273 0.7465825216 1.179051127e-38
0.1407057972 -0.1175052528 0.7435825666 7.825790896e-39
0.1436457822 -0.1178595273 0.7465825216 6.801600065e-39
0.1450543722 -0.1175052528 0.7435825666 5.793199066e-39
0.1472286372 -0.1175052528 0.7435825666 6.989210108e-39
0.1494029322 -0.1175052528 0.7435825666 8.282808976e-39
0.1511829222 -0.1173281043 0.7420825816 9.760437569e-39
0.1533543522 -0.1173281043 0.7420825816 1.132200534e-38
0.1555257972 -0.1173281043 0.7420825816 1.251658846e-38
0.1576972122 -0.1173281043 0.7420825816 1.370865485e-38
0.1598686572 -0.1173281043 0.7420825816 1.370721852e-38
0.1620400872 -0.1173281043 0.7420825816 1.370721291e-38
0.1646229372 -0.1175052528 0.7435825666 1.324838856e-38
0.1676257872 -0.1178595273 0.7465825216 1.27884838e-38
0.1698057672 -0.1178595273 0.7465825216 1.214455072e-38
0.1728258072 -0.1182138243 0.7495825816 1.150026592e-38
0.1750115172 -0.1182138243 0.7495825816 1.048792307e-38
0.1771972272 -0.1182138243 0.7495825816 9.566336712e-39
0.1793829372 -0.1182138243 0.7495825816 9.195764735e-39
0.1815686472 -0.1182138243 0.7495825816 8.921338647e-39
0.1846229172 -0.1185681003 0.7525825366 8.830942285e-39
0.1868143572 -0.1185681003 0.7525825366 8.739466922e-39
0.1881257922 -0.1182138243 0.7495825816 9.19936467e-39
0.1903115022 -0.1182138243 0.7495825816 9.751465055e-39
0.1746686472 -0.1111280988 0.6895825366 1.058732417e-38
0.1767400722 -0.1111280988 0.6895825366 1.141348771e-38
0.1788114972 -0.1111280988 0.6895825366 1.122946079e-38
0.1808829222 -0.1111280988 0.6895825366 1.113834696e-38
0.1829543472 -0.1111280988 0.6895825366 1.113942876e-38
0.1836458172 -0.1105966758 0.6850825966 1.123017685e-38
0.1857086622 -0.1105966758 0.6850825966 1.104577859e-38
0.1882372272 -0.1107738243 0.6865825816 1.095321441e-38
0.1898343822 -0.1105966758 0.6850825966 1.141202195e-38
0.1918972272 -0.1105966758 0.6850825966 1.196089515e-38
0.1930115022 -0.1102423893 0.6820825516 1.223210946e-38
0.1950686472 -0.1102423893 0.6820825516 1.251729752e-38
0.1966457922 -0.1100652513 0.6805825666 1.297683093e-38
0.1987000872 -0.1100652513 0.6805825666 1.352748938e-38
0.2012400522 -0.1102423893 0.6820825516 1.380264274e-38
0.2032971972 -0.1102423893 0.6820825516 1.407815343e-38
0.2063372322 -0.1105966758 0.6850825966 1.426182722e-38
0.2088943722 -0.1107738243 0.6865825816 1.444693595e-38
0.2119543422 -0.1111280988 0.6895825366 1.444765482e-38
0.2140257822 -0.1111280988 0.6895825366 1.454091823e-38
0.2166000672 -0.1113052473 0.6910825216 1.463310406e-38
0.2196857922 -0.1116595338 0.6940825666 1.472494656e-38
0.2217658122 -0.1116595338 0.6940825666 1.47253123e-38
0.2243572272 -0.1118366718 0.6955825516 1.481750933e-38
0.2279829372 -0.1123681068 0.7000825816 1.500154326e-38
0.2300743422 -0.1123681068 0.7000825816 1.518663937e-38
0.2332057722 -0.1127223933 0.7030825516 1.555397154e-38
0.2353029522 -0.1127223933 0.7030825516 1.601315043e-38
0.2374000722 -0.1127223933 0.7030825516 1.582948224e-38
0.2394972072 -0.1127223933 0.7030825516 1.564617278e-38
0.2415943422 -0.1127223933 0.7030825516 1.546286332e-38
0.2436915072 -0.1127223933 0.7030825516 1.527632247e-38
0.2457886422 -0.1127223933 0.7030825516 1.463168034e-38
0.2478857772 -0.1127223933 0.7030825516 1.408033805e-38
0.1309029222 -0.1148081013 0.7390825366 1.50239276e-38
0.1341829272 -0.1153309638 0.7435825666 1.520724967e-38
0.1363572222 -0.1153309638 0.7435825666 1.539696026e-38
0.1407943572 -0.1163766798 0.7525825366 1.345221302e-38
0.1429857822 -0.1163766798 0.7525825366 1.159788177e-38
0.1451771922 -0.1163766798 0.7525825366 1.030245561e-38
0.1465972272 -0.1160281038 0.7495825816 9.092800126e-39
0.1480057872 -0.1156795278 0.7465825216 8.819437624e-39
0.1494029322 -0.1153309638 0.7435825666 8.637931638e-39
0.1511829222 -0.1151566878 0.7420825816 9.940144288e-39
0.1533543522 -0.1151566878 0.7420825816 1.131302022e-38
0.1547257872 -0.1148081013 0.7390825366 1.223963303e-38
0.1568915022 -0.1148081013 0.7390825366 1.315619853e-38
0.1590572022 -0.1148081013 0.7390825366 1.334023246e-38
0.1620400872 -0.1151566878 0.7420825816 1.343278122e-38
0.1642115172 -0.1151566878 0.7420825816 1.324874729e-38
0.1667972322 -0.1153309638 0.7435825666 1.315582859e-38
0.1698057672 -0.1156795278 0.7465825216 1.223567436e-38
0.1728258072 -0.1160281038 0.7495825816 1.131659633e-38
0.1750115172 -0.1160281038 0.7495825816 1.057939703e-38
0.1771972272 -0.1160281038 0.7495825816 9.844344518e-39
0.1793829372 -0.1160281038 0.7495825816 9.282919894e-39
0.1815686472 -0.1160281038 0.7495825816 8.73192093e-39
0.1846229172 -0.1163766798 0.7525825366 9.659616947e-39
0.1868143572 -0.1163766798 0.7525825366 1.067197241e-38
0.1881257922 -0.1160281038 0.7495825816 1.094856771e-38
0.1730400522 -0.1092309498 0.6910825216 1.122550492e-38
0.1746686472 -0.1090566738 0.6895825366 1.113510155e-38
0.1767400722 -0.1090566738 0.6895825366 1.113653368e-38
0.1788114972 -0.1090566738 0.6895825366 1.104397792e-38
0.1813371972 -0.1092309498 0.6910825216 1.104326606e-38
0.1829543472 -0.1090566738 0.6895825366 1.122694265e-38
0.1841057922 -0.1087081098 0.6865825816 1.141060664e-38
0.1861715172 -0.1087081098 0.6865825816 1.131912427e-38
0.1877715222 -0.1085338218 0.6850825966 1.131984034e-38
0.1898343822 -0.1085338218 0.6850825966 1.159498669e-38
0.1918972272 -0.1085338218 0.6850825966 1.186835059e-38
0.1925372022 -0.1080109593 0.6805825666 1.18672842e-38
0.1945915122 -0.1080109593 0.6805825666 1.187481058e-38
0.1966457922 -0.1080109593 0.6805825666 1.270024824e-38
0.1987000872 -0.1080109593 0.6805825666 1.343422035e-38
0.2012400522 -0.1081852473 0.6820825516 1.389448104e-38
0.2032971972 -0.1081852473 0.6820825516 1.435509345e-38
0.2063372322 -0.1085338218 0.6850825966 1.47231543e-38
0.2084001072 -0.1085338218 0.6850825966 1.509122356e-38
0.2109600972 -0.1087081098 0.6865825816 1.49986804e-38
0.2140257822 -0.1090566738 0.6895825366 1.481642753e-38
0.2160972072 -0.1090566738 0.6895825366 1.490860494e-38
0.2186743422 -0.1092309498 0.6910825216 1.500188237e-38
0.2217658122 -0.1095795258 0.6940825666 1.500189078e-38
0.2238458022 -0.1095795258 0.6940825666 1.509408921e-38
0.2274686172 -0.1101023778 0.6985825216 1.518557018e-38
0.2300743422 -0.1102766763 0.7000825816 1.52788406e-38
0.2332057722 -0.1106252523 0.7030825516 1.555434849e-38
0.2353029522 -0.1106252523 0.7030825516 1.582984798e-38
0.2374000722 -0.1106252523 0.7030825516 1.573800687e-38
0.2394972072 -0.1106252523 0.7030825516 1.564653011e-38
0.2405315172 -0.1102766763 0.7000825816 1.537066629e-38
0.2436915072 -0.1106252523 0.7030825516 1.518556317e-38
0.2447143722 -0.1102766763 0.7000825816 1.472567243e-38
0.2468057772 -0.1102766763 0.7000825816 1.426613622e-38
0.2488972272 -0.1102766763 0.7000825816 1.362328915e-38
0.1415972022 -0.1155566838 0.7645825666 1.511574067e-38
0.1438115022 -0.1155566838 0.7645825666 1.520611321e-38
0.1448857722 -0.1150423803 0.7600825216 1.537286913e-38
0.1463258022 -0.1146995283 0.7570825666 1.389555583e-38
0.1477543572 -0.1143566748 0.7540825216 1.251190252e-38
