# .PCD v0.7 - Point Cloud Data file format
VERSION 0.7
FIELDS x y z rgb
SIZE 4 4 4 4
TYPE F F F F
COUNT 1 1 1 1
WIDTH 864
HEIGHT 1
VIEWPOINT 0 0 0 1 0 0 0
POINTS 864
DATA ascii
0.04463584665 0.1378966472 0.6507637296 1.186653311e-38
0.04682154165 0.1381766222 0.6522637146 1.168250198e-38
0.04877584665 0.1381766222 0.6522637146 1.159030775e-38
0.05121013665 0.1387366472 0.6552637596 1.177362001e-38
0.05317014165 0.1387366472 0.6552637596 1.195549174e-38
0.05537584665 0.1390166372 0.6567637446 1.140303963e-38
0.05808442665 0.1398566372 0.6612637746 1.094529848e-38
0.06005584665 0.1398566372 0.6612637746 1.056396733e-38
0.06329871165 0.1412566622 0.6687637596 1.020093014e-38
0.06528441165 0.1412566622 0.6687637596 1.057293424e-38
0.06779011665 0.1418166272 0.6717637296 1.094459503e-38
0.06978154665 0.1418166272 0.6717637296 1.149598075e-38
0.07203870165 0.1420966172 0.6732636996 1.205093978e-38
0.07403296665 0.1420966172 0.6732636996 1.251406332e-38
0.07602726165 0.1420966172 0.6732636996 1.29764722e-38
0.07857013665 0.1426566422 0.6762637596 1.353071657e-38
0.08084725665 0.1429366472 0.6777637296 1.407957435e-38
0.08285013165 0.1429366472 0.6777637296 1.389410689e-38
0.08541868665 0.1434966272 0.6807636996 1.370468217e-38
0.08742727665 0.1434966272 0.6807636996 1.27809322e-38
0.08943582165 0.1434966272 0.6807636996 1.195441134e-38
0.09144439665 0.1434966272 0.6807636996 1.223027656e-38
0.09345298665 0.1434966272 0.6807636996 1.260085134e-38
0.09575871165 0.1437766472 0.6822637746 1.278775513e-38
0.09777013665 0.1437766472 0.6822637746 1.296999399e-38
0.09978157665 0.1437766472 0.6822637746 1.287672777e-38
0.1017929867 0.1437766472 0.6822637746 1.287780957e-38
0.1041129917 0.1440566522 0.6837637446 1.29710856e-38
0.1061272517 0.1440566522 0.6837637446 1.306471336e-38
0.1087701317 0.1446166472 0.6867637146 1.315870125e-38
0.1107901517 0.1446166472 0.6867637146 1.325018362e-38
0.1128101417 0.1446166472 0.6867637146 1.3157995e-38
0.1151529767 0.1448966522 0.6882636846 1.306616511e-38
0.1171758317 0.1448966522 0.6882636846 1.297469395e-38
0.1191986867 0.1448966522 0.6882636846 1.297252894e-38
0.1222158467 0.1457366522 0.6927637296 1.278812927e-38
0.1249158467 0.1462966472 0.6957637746 1.26037282e-38
0.1269529967 0.1462966472 0.6957637746 1.232749304e-38
0.1289901467 0.1462966472 0.6957637746 1.214311019e-38
0.1313701517 0.1465766522 0.6972637596 1.186689184e-38
0.1334101367 0.1465766522 0.6972637596 1.159174549e-38
0.1361472767 0.1471366322 0.7002637146 1.140843323e-38
0.1381929767 0.1471366322 0.7002637146 1.122404197e-38
0.1402386917 0.1471366322 0.7002637146 1.113184353e-38
0.1433558567 0.1479766472 0.7047637446 1.113076594e-38
0.1457701217 0.1482566522 0.7062637296 1.076234635e-38
0.1478272667 0.1482566522 0.7062637296 1.048612941e-38
0.1506158567 0.1488166472 0.7092637746 1.021027119e-38
0.1526787167 0.1488166472 0.7092637746 9.934405971e-39
0.1547415767 0.1488166472 0.7092637746 9.749658781e-39
0.1571787017 0.1490966522 0.7107637596 9.659247004e-39
0.1599987167 0.1496566472 0.7137637146 9.75250622e-39
0.1624501217 0.1499366372 0.7152636996 9.842905385e-39
0.1645244267 0.1499366372 0.7152636996 9.74999229e-39
0.1673701367 0.1504966322 0.7182637446 9.752143283e-39
0.1694501267 0.1504966322 0.7182637446 9.754295678e-39
0.1715301317 0.1504966322 0.7182637446 9.754302684e-39
0.1736101367 0.1504966322 0.7182637446 9.570998832e-39
0.2297272667 0.1608566372 0.7737637596 8.192383186e-39
0.2328158417 0.1614166472 0.7767637146 7.733560234e-39
0.2354615417 0.1616966372 0.7782636996 7.365499383e-39
0.2385701417 0.1622566472 0.7812637446 7.916869691e-39
0.2407701467 0.1622566472 0.7812637446 8.465730274e-39
0.2429701367 0.1622566472 0.7812637446 8.556489572e-39
0.2451701417 0.1622566472 0.7812637446 8.64832647e-39
0.2473701317 0.1622566472 0.7812637446 8.648688005e-39
0.2495701217 0.1622566472 0.7812637446 8.739804635e-39
0.2517701417 0.1622566472 0.7812637446 8.463938013e-39
0.2539701467 0.1622566472 0.7812637446 8.279566371e-39
0.2561701217 0.1622566472 0.7812637446 8.095552061e-39
0.2583701417 0.1622566472 0.7812637446 7.911865654e-39
0.2615415617 0.1628166272 0.7842636996 7.269003168e-39
0.2637472667 0.1628166272 0.7842636996 6.715836395e-39
0.2674272617 0.1636566422 0.7887637446 7.081024584e-39
0.2686529867 0.1630966472 0.7857637746 7.448010639e-39
0.2718558617 0.1636566422 0.7887637446 7.355820614e-39
0.2740701167 0.1636566422 0.7887637446 7.355819213e-39
0.2762844017 0.1636566422 0.7887637446 7.356176544e-39
0.2784987017 0.1636566422 0.7887637446 7.356892608e-39
0.2807130017 0.1636566422 0.7887637446 7.265057112e-39
0.2829272567 0.1636566422 0.7887637446 7.172508355e-39
0.2851415567 0.1636566422 0.7887637446 6.896288605e-39
0.2873558567 0.1636566422 0.7887637446 6.62294432e-39
0.2895700967 0.1636566422 0.7887637446 7.084284005e-39
0.2917844417 0.1636566422 0.7887637446 7.543448874e-39
0.2939986967 0.1636566422 0.7887637446 7.543436262e-39
0.2962129517 0.1636566422 0.7887637446 7.5427216e-39
0.3005529917 0.1647766472 0.7947637446 7.542367071e-39
0.3017100917 0.1642166522 0.7917636996 7.633489307e-39
0.3050044217 0.1647766472 0.7947637446 7.724611542e-39
0.3072301217 0.1647766472 0.7947637446 7.817883369e-39
0.3094558667 0.1647766472 0.7947637446 7.63600744e-39
0.3116815667 0.1647766472 0.7947637446 7.543804803e-39
0.3144558617 0.1650566522 0.7962637296 7.635274561e-39
0.3166844267 0.1650566522 0.7962637296 7.819658814e-39
0.3189129767 0.1650566522 0.7962637296 7.820730807e-39
0.3211415867 0.1650566522 0.7962637296 7.910772641e-39
0.3233701367 0.1650566522 0.7962637296 8.001892074e-39
0.3267244667 0.1656166622 0.7992637746 8.185207137e-39
0.3289587467 0.1656166622 0.7992637746 8.18521134e-39
0.3311930267 0.1656166622 0.7992637746 8.185214143e-39
0.3334273067 0.1656166622 0.7992637746 8.187728073e-39
0.3356615867 0.1656166622 0.7992637746 8.28027683e-39
0.3390501617 0.1661766422 0.8022637446 8.464659682e-39
0.3412901567 0.1661766422 0.8022637446 8.648329273e-39
0.3435301217 0.1661766422 0.8022637446 8.556492375e-39
0.3457701167 0.1661766422 0.8022637446 8.555776312e-39
0.3491872517 0.1667366222 0.8052636996 8.647254477e-39
0.3502501667 0.1661766422 0.8022637446 8.739452909e-39
0.3524901167 0.1661766422 0.8022637446 8.739817247e-39
0.3547301267 0.1661766422 0.8022637446 8.831295412e-39
0.3581701067 0.1667366222 0.8052636996 9.014609073e-39
0.3604158767 0.1667366222 0.8052636996 9.198633192e-39
0.3626615567 0.1667366222 0.8052636996 9.108228422e-39
0.3649072817 0.1667366222 0.8052636996 9.108585753e-39
0.3671530067 0.1667366222 0.8052636996 9.476285069e-39
0.3706273067 0.1672966472 0.8082637596 9.843628455e-39
0.3728787167 0.1672966472 0.8082637596 9.843988589e-39
0.3751301567 0.1672966472 0.8082637596 9.843996996e-39
0.3773815517 0.1672966472 0.8082637596 1.021098866e-38
0.3802586717 0.1675766522 0.8097637296 1.05779621e-38
0.3825129767 0.1675766522 0.8097637296 1.03942827e-38
0.3847672967 0.1675766522 0.8097637296 1.030246122e-38
0.3870215567 0.1675766522 0.8097637296 1.01195217e-38
0.3892758617 0.1675766522 0.8097637296 9.935123435e-39
0.3928101167 0.1681366322 0.8127636996 1.003017912e-38
0.3950701517 0.1681366322 0.8127636996 1.012094122e-38
0.3999129617 0.1692566522 0.8187637146 1.011986782e-38
0.4021843967 0.1692566522 0.8187637146 1.021205925e-38
0.4044558617 0.1692566522 0.8187637146 1.012093841e-38
0.4067272967 0.1692566522 0.8187637146 1.012093421e-38
0.4103130017 0.1698166472 0.8217637596 9.937257613e-39
0.4132501517 0.1700966522 0.8232637446 9.753959366e-39
0.4155301217 0.1700966522 0.8232637446 9.846167608e-39
0.4178101367 0.1700966522 0.8232637446 9.935477964e-39
0.4214272367 0.1706566322 0.8262636996 9.933670289e-39
0.4237129667 0.1706566322 0.8262636996 9.933675894e-39
0.4273472717 0.1712166572 0.8292637596 9.935835295e-39
0.4309929767 0.1717766372 0.8322637146 1.002731346e-38
0.4332901517 0.1717766372 0.8322637146 9.84364527e-39
0.4369530167 0.1723366472 0.8352637596 9.750733577e-39
0.4392558767 0.1723366472 0.8352637596 9.749655979e-39
0.4415587367 0.1723366472 0.8352637596 9.75001331e-39
0.4452444467 0.1728966572 0.8382637296 9.658895278e-39
0.4475530217 0.1728966572 0.8382637296 9.567051374e-39
0.4512558467 0.1734566522 0.8412637746 8.924553226e-39
0.4535701517 0.1734566522 0.8412637746 8.282081702e-39
0.4558844117 0.1734566522 0.8412637746 8.650518101e-39
0.4596101267 0.1740166622 0.8442637446 9.018557932e-39
0.4619301467 0.1740166622 0.8442637446 9.019254377e-39
0.4642501217 0.1740166622 0.8442637446 9.017464919e-39
0.4665701567 0.1740166622 0.8442637446 9.109304619e-39
0.4703243867 0.1745766272 0.8472636996 9.292621083e-39
0.4726501367 0.1745766272 0.8472636996 9.476656413e-39
0.4756986917 0.1748566322 0.8487637746 9.660695947e-39
0.4794786767 0.1754166272 0.8517637296 9.66106589e-39
0.4818130067 0.1754166272 0.8517637296 9.658543552e-39
0.4856101667 0.1759766522 0.8547637896 9.475578814e-39
0.4879501667 0.1759766522 0.8547637896 9.383381783e-39
0.4902901817 0.1759766522 0.8547637896 9.199349256e-39
0.4955900867 0.1770966422 0.8607636996 9.107515161e-39
0.4994272967 0.1776566522 0.8637637596 9.199350657e-39
0.5017844267 0.1776566522 0.8637637596 9.380510523e-39
0.5041415567 0.1776566522 0.8637637596 9.471988688e-39
0.5064987167 0.1776566522 0.8637637596 9.564540247e-39
0.5088558917 0.1776566522 0.8637637596 9.381945452e-39
0.5112130217 0.1776566522 0.8637637596 9.196487805e-39
0.5135701367 0.1776566522 0.8637637596 9.195777346e-39
0.5159272667 0.1776566522 0.8637637596 9.195766136e-39
0.5182844417 0.1776566522 0.8637637596 8.736577445e-39
0.5237159117 0.1787766422 0.8697637746 8.369239664e-39
0.5260844267 0.1787766422 0.8697637746 8.185572875e-39
0.5300015717 0.1793366372 0.8727637296 7.999392158e-39
0.5323758617 0.1793366372 0.8727637296 7.905405668e-39
0.5363101367 0.1798966322 0.8757637746 7.901809936e-39
0.5386901867 0.1798966322 0.8757637746 7.072054873e-39
0.5410701617 0.1798966322 0.8757637746 6.245217313e-39
-0.02154416385 0.1361709272 0.6312637146 1.223281711e-38
-0.01976987235 0.1358880722 0.6297637296 1.213452583e-38
-0.01785844635 0.1358880722 0.6297637296 1.213919076e-38
-0.01580130285 0.1361709272 0.6312637146 1.223245698e-38
-0.01388702235 0.1361709272 0.6312637146 1.223317024e-38
-0.01197272985 0.1361709272 0.6312637146 1.2325719e-38
-0.01005844785 0.1361709272 0.6312637146 1.241719296e-38
-0.008144155349 0.1361709272 0.6312637146 1.260086815e-38
-0.006069880349 0.1364537672 0.6327636846 1.250867813e-38
-0.004152727349 0.1364537672 0.6327636846 1.241650352e-38
-0.002235595349 0.1364537672 0.6327636846 1.25998368e-38
-0.0001498768486 0.1367366522 0.6342637596 1.278564477e-38
0.001770127651 0.1367366522 0.6342637596 1.278455316e-38
0.004038694651 0.1373023472 0.6372637146 1.287496494e-38
0.005964409651 0.1373023472 0.6372637146 1.29696815e-38
0.007890123151 0.1373023472 0.6372637146 1.315405595e-38
0.009815838151 0.1373023472 0.6372637146 1.287745925e-38
0.01192726215 0.1375852172 0.6387636996 1.26012409e-38
0.01385583615 0.1375852172 0.6387636996 1.250941241e-38
0.01578441165 0.1375852172 0.6387636996 1.250943203e-38
0.01771297665 0.1375852172 0.6387636996 1.241761755e-38
0.01983870465 0.1378680722 0.6402637746 1.232612397e-38
0.02177013015 0.1378680722 0.6402637746 1.232754349e-38
0.02410726215 0.1384337822 0.6432637296 1.241973632e-38
0.02604440865 0.1384337822 0.6432637296 1.232718335e-38
0.02819012115 0.1387166372 0.6447637146 1.223499893e-38
0.03013012815 0.1387166372 0.6447637146 1.223357381e-38
0.03207012615 0.1387166372 0.6447637146 1.223212347e-38
0.03466156515 0.1395652172 0.6492637446 1.223210946e-38
0.03661012665 0.1395652172 0.6492637446 1.223245838e-38
0.03878155665 0.1398480872 0.6507637296 1.195873575e-38
0.04073298165 0.1398480872 0.6507637296 1.168322645e-38
0.04268440665 0.1398480872 0.6507637296 1.140448997e-38
0.04486725165 0.1401309272 0.6522637146 1.112610522e-38
0.04682154165 0.1401309272 0.6522637146 1.103785004e-38
0.04925013165 0.1406966522 0.6552637596 1.094960467e-38
0.05145013665 0.1409794772 0.6567637446 1.048540914e-38
0.05341299165 0.1409794772 0.6567637446 1.011591056e-38
0.05586726165 0.1415452022 0.6597636996 9.930443099e-39
0.05833299165 0.1421109272 0.6627637446 9.745344183e-39
0.06106153665 0.1429594922 0.6672636996 1.038497247e-38
0.06329871165 0.1432423772 0.6687637596 1.102494688e-38
0.06579870165 0.1438080722 0.6717637296 1.131157127e-38
0.06805012665 0.1440909422 0.6732636996 1.149704854e-38
0.06978154665 0.1438080722 0.6717637296 1.204986919e-38
0.07177297665 0.1438080722 0.6717637296 1.251120047e-38
0.07403296665 0.1440909422 0.6732636996 1.325055076e-38
0.07602726165 0.1440909422 0.6732636996 1.398740254e-38
0.07857013665 0.1446566372 0.6762637596 1.407961218e-38
0.08084725665 0.1449394922 0.6777637296 1.42636349e-38
0.08285013165 0.1449394922 0.6777637296 1.435367113e-38
0.08541868665 0.1455052022 0.6807636996 1.453802455e-38
0.08742727665 0.1455052022 0.6807636996 1.37993609e-38
0.08943582165 0.1455052022 0.6807636996 1.30610896e-38
0.09144439665 0.1455052022 0.6807636996 1.287598368e-38
0.09345298665 0.1455052022 0.6807636996 1.26912449e-38
0.09575871165 0.1457880872 0.6822637746 1.259941921e-38
0.09777013665 0.1457880872 0.6822637746 1.250794525e-38
0.09978157665 0.1457880872 0.6822637746 1.250830679e-38
0.1017929867 0.1457880872 0.6822637746 1.241683843e-38
0.1041129917 0.1460709422 0.6837637446 1.241720557e-38
0.1061272517 0.1460709422 0.6837637446 1.24175573e-38
0.1087701317 0.1466366372 0.6867637146 1.260194015e-38
0.1107901517 0.1466366372 0.6867637146 1.269486305e-38
0.1131301067 0.1469195072 0.6882636846 1.260375623e-38
0.1151529767 0.1469195072 0.6882636846 1.25126368e-38
0.1171758317 0.1469195072 0.6882636846 1.251407033e-38
0.1198558367 0.1474852022 0.6912637446 1.242222642e-38
0.1222158467 0.1477680722 0.6927637296 1.223747223e-38
0.1242472817 0.1477680722 0.6927637296 1.214490665e-38
0.1269529967 0.1483337822 0.6957637746 1.186902882e-38
0.1289901467 0.1483337822 0.6957637746 1.168249778e-38
0.1313701517 0.1486166522 0.6972637596 1.14070025e-38
0.1334101367 0.1486166522 0.6972637596 1.112897928e-38
0.1361472767 0.1491823472 0.7002637146 1.085633845e-38
0.1381929767 0.1491823472 0.7002637146 1.067302198e-38
0.1405929917 0.1494652172 0.7017636996 1.057938862e-38
0.1433558567 0.1500309272 0.7047637446 1.03932009e-38
0.1457701217 0.1503137972 0.7062637296 1.020880824e-38
0.1478272667 0.1503137972 0.7062637296 9.932950022e-39
0.1506158567 0.1508794922 0.7092637746 9.658526737e-39
0.1530472817 0.1511623622 0.7107637596 9.291547688e-39
0.1551130067 0.1511623622 0.7107637596 9.475222885e-39
0.1579272917 0.1517280722 0.7137637146 9.56704717e-39
0.1603758317 0.1520109122 0.7152636996 9.844696244e-39
0.1624501217 0.1520109122 0.7152636996 1.012199639e-38
0.1652901467 0.1525766672 0.7182637446 9.935815677e-39
0.1673701367 0.1525766672 0.7182637446 9.660307787e-39
0.1694501267 0.1525766672 0.7182637446 9.661741315e-39
0.1715301317 0.1525766672 0.7182637446 9.570983418e-39
0.1736101367 0.1525766672 0.7182637446 9.478790591e-39
0.2372787017 0.1650223622 0.7842636996 7.915797698e-39
0.2394844067 0.1650223622 0.7842636996 8.557925903e-39
0.2416901267 0.1650223622 0.7842636996 9.291891007e-39
0.2438958467 0.1650223622 0.7842636996 9.108218613e-39
0.2461015517 0.1650223622 0.7842636996 8.924549022e-39
0.2483072717 0.1650223622 0.7842636996 9.016027187e-39
0.2505129767 0.1650223622 0.7842636996 9.017104786e-39
0.2527187267 0.1650223622 0.7842636996 8.741240966e-39
0.2549243867 0.1650223622 0.7842636996 8.465759701e-39
0.2571301067 0.1650223622 0.7842636996 8.373590696e-39
0.2593358417 0.1650223622 0.7842636996 8.18989448e-39
0.2620272617 0.1653052172 0.7857637746 7.913287972e-39
0.2637472667 0.1650223622 0.7842636996 7.637059815e-39
0.2674272617 0.1658709422 0.7887637446 7.728891107e-39
0.2696415617 0.1658709422 0.7887637446 7.912563501e-39
0.2718558617 0.1658709422 0.7887637446 7.819294476e-39
0.2750701217 0.1664366372 0.7917636996 7.726024051e-39
0.2772901067 0.1664366372 0.7917636996 7.633829822e-39
0.2784987017 0.1658709422 0.7887637446 7.541634192e-39
0.2817300917 0.1664366372 0.7917636996 7.357961799e-39
0.2839501667 0.1664366372 0.7917636996 7.266126302e-39
0.2861701367 0.1664366372 0.7917636996 7.082456711e-39
0.2883901517 0.1664366372 0.7917636996 6.990640833e-39
0.2906101367 0.1664366372 0.7917636996 7.173974113e-39
0.2928301067 0.1664366372 0.7917636996 7.449465187e-39
0.2950501217 0.1664366372 0.7917636996 7.265780182e-39
0.2983272917 0.1670023622 0.7947637446 7.174304819e-39
0.3005529917 0.1670023622 0.7947637446 7.174306221e-39
0.3027786917 0.1670023622 0.7947637446 7.174306221e-39
0.3050044217 0.1670023622 0.7947637446 7.266141717e-39
0.3077701367 0.1672852022 0.7962637296 7.359054811e-39
0.3099987017 0.1672852022 0.7962637296 7.359773677e-39
0.3122273117 0.1672852022 0.7962637296 7.355464685e-39
0.3144558617 0.1672852022 0.7962637296 7.542361466e-39
0.3166844267 0.1672852022 0.7962637296 7.726386987e-39
0.3200215817 0.1678509422 0.7992637746 7.726025452e-39
0.3222558617 0.1678509422 0.7992637746 7.726026853e-39
0.3244901867 0.1678509422 0.7992637746 7.817863751e-39
0.3267244667 0.1678509422 0.7992637746 7.909699247e-39
0.3289587467 0.1678509422 0.7992637746 7.909699247e-39
0.3311930267 0.1678509422 0.7992637746 7.909706253e-39
0.3334273067 0.1678509422 0.7992637746 8.000832692e-39
0.3356615867 0.1678509422 0.7992637746 8.092303851e-39
0.3390501617 0.1684166522 0.8022637446 8.095526837e-39
0.3424501217 0.1689823472 0.8052636996 8.187718263e-39
0.3446958467 0.1689823472 0.8052636996 8.187356728e-39
0.3469415717 0.1689823472 0.8052636996 8.279189422e-39
0.3491872517 0.1689823472 0.8052636996 8.371382249e-39
0.3514329767 0.1689823472 0.8052636996 8.463945019e-39
0.3536787017 0.1689823472 0.8052636996 8.462880032e-39
0.3559244267 0.1689823472 0.8052636996 8.553649141e-39
0.3581701067 0.1689823472 0.8052636996 8.739125005e-39
0.3604158767 0.1689823472 0.8052636996 8.923136513e-39
0.3626615567 0.1689823472 0.8052636996 8.923477029e-39
0.3649072817 0.1689823472 0.8052636996 8.923831557e-39
0.3683758667 0.1695480722 0.8082637596 9.198976511e-39
0.3706273067 0.1695480722 0.8082637596 9.565962565e-39
0.3728787167 0.1695480722 0.8082637596 9.476640999e-39
0.3757501517 0.1698309122 0.8097637296 9.477008139e-39
0.3780044567 0.1698309122 0.8097637296 9.659612743e-39
0.3802586717 0.1698309122 0.8097637296 9.933673092e-39
0.3825129767 0.1698309122 0.8097637296 9.842903984e-39
0.3847672967 0.1698309122 0.8097637296 9.84364527e-39
0.3870215567 0.1698309122 0.8097637296 9.842951628e-39
0.3905501267 0.1703966372 0.8127636996 9.842222952e-39
0.3928101167 0.1703966372 0.8127636996 9.842570474e-39
0.3963558167 0.1709623622 0.8157637446 9.842923602e-39
0.3999129617 0.1715280722 0.8187637146 9.842560665e-39
0.4021843967 0.1715280722 0.8187637146 9.842562067e-39
0.4044558617 0.1715280722 0.8187637146 9.75180557e-39
0.4080358517 0.1720937972 0.8217637596 9.662471392e-39
0.4103130017 0.1720937972 0.8217637596 9.569192558e-39
0.4132501517 0.1723766672 0.8232637446 9.567405903e-39
0.4155301217 0.1723766672 0.8232637446 9.567771642e-39
0.4191415817 0.1729423622 0.8262636996 9.568123368e-39
0.4214272367 0.1729423622 0.8262636996 9.566681432e-39
0.4250558567 0.1735080572 0.8292637596 9.565613642e-39
0.4273472717 0.1735080572 0.8292637596 9.657458947e-39
0.4309929767 0.1740737822 0.8322637146 9.657816278e-39
0.4332901517 0.1740737822 0.8322637146 9.565979381e-39
0.4369530167 0.1746395072 0.8352637596 9.474143885e-39
0.4392558767 0.1746395072 0.8352637596 9.474143885e-39
0.4429358717 0.1752052022 0.8382637296 9.474143885e-39
0.4452444467 0.1752052022 0.8382637296 9.382308389e-39
0.4489416017 0.1757709272 0.8412637746 9.382657312e-39
0.4512558467 0.1757709272 0.8412637746 9.291170739e-39
0.4549701317 0.1763366372 0.8442637446 9.291543485e-39
0.4572901517 0.1763366372 0.8442637446 9.291198765e-39
0.4596101267 0.1763366372 0.8442637446 9.199350657e-39
0.4619301467 0.1763366372 0.8442637446 9.107861282e-39
0.4642501217 0.1763366372 0.8442637446 9.108582951e-39
0.4679986967 0.1769023472 0.8472636996 9.01675306e-39
0.4703243867 0.1769023472 0.8472636996 9.016761467e-39
0.4733701817 0.1771852172 0.8487637746 9.108606773e-39
0.4756986917 0.1771852172 0.8487637746 9.199740218e-39
0.4794786767 0.1777509422 0.8517637296 9.291232396e-39
0.4818130067 0.1777509422 0.8517637296 9.290854046e-39
0.4856101667 0.1783166672 0.8547637896 9.198998931e-39
0.4879501667 0.1783166672 0.8547637896 9.014604869e-39
0.4917644117 0.1788823622 0.8577637446 8.923839965e-39
0.4955900867 0.1794480872 0.8607636996 8.924197296e-39
0.4994272967 0.1800137822 0.8637637596 8.922044902e-39
0.5017844267 0.1800137822 0.8637637596 9.012448271e-39
0.5041415567 0.1800137822 0.8637637596 9.012809806e-39
0.5080015667 0.1805794772 0.8667637146 9.103211774e-39
0.5088558917 0.1800137822 0.8637637596 8.919543584e-39
0.5127272567 0.1805794772 0.8667637146 8.73587119e-39
0.5150901467 0.1805794772 0.8667637146 8.644753159e-39
0.5174529917 0.1805794772 0.8667637146 8.551472924e-39
0.5182844417 0.1800137822 0.8637637596 8.275240563e-39
0.5252529917 0.1817109272 0.8727637296 8.09085631e-39
0.5276272817 0.1817109272 0.8727637296 7.445502315e-39
0.5315501567 0.1822766522 0.8757637746 6.800142715e-39
0.5339301617 0.1822766522 0.8757637746 7.073496809e-39
0.5363101367 0.1822766522 0.8757637746 7.347206833e-39
0.5402558417 0.1828423472 0.8787637446 8.174082228e-39
0.5426415767 0.1828423472 0.8787637446 9.001399032e-39
-0.02550416085 0.1377995072 0.6297637296 1.131196083e-38
-0.02359273485 0.1377995072 0.6297637296 1.103645014e-38
-0.02168130885 0.1377995072 0.6297637296 1.140378932e-38
-0.01976987235 0.1377995072 0.6297637296 1.186332414e-38
-0.01771559685 0.1380851972 0.6312637146 1.186368287e-38
-0.01580130285 0.1380851972 0.6312637146 1.19558757e-38
-0.01388702235 0.1380851972 0.6312637146 1.214169908e-38
-0.01197272985 0.1380851972 0.6312637146 1.232499873e-38
-0.01005844785 0.1380851972 0.6312637146 1.250865711e-38
-0.008144155349 0.1380851972 0.6312637146 1.269018412e-38
-0.006229874849 0.1380851972 0.6312637146 1.259656196e-38
-0.004152727349 0.1383709172 0.6327636846 1.250653414e-38
-0.002235595349 0.1383709172 0.6327636846 1.269237154e-38
-0.0001498768486 0.1386566522 0.6342637596 1.287603413e-38
0.001770127651 0.1386566522 0.6342637596 1.287638305e-38
0.003690130651 0.1386566522 0.6342637596 1.287639006e-38
0.005964409651 0.1392280622 0.6372637146 1.26930834e-38
0.007890123151 0.1392280622 0.6372637146 1.260088357e-38
0.009815838151 0.1392280622 0.6372637146 1.241720697e-38
0.01174155165 0.1392280622 0.6372637146 1.232465541e-38
0.01385583615 0.1395137672 0.6387636996 1.232429668e-38
0.01578441165 0.1395137672 0.6387636996 1.232430789e-38
0.01771297665 0.1395137672 0.6387636996 1.223248501e-38
0.01964155215 0.1395137672 0.6387636996 1.214135997e-38
0.02177013015 0.1397995172 0.6402637746 1.205166986e-38
0.02410726215 0.1403709422 0.6432637296 1.205094819e-38
0.02604440865 0.1403709422 0.6432637296 1.205058666e-38
0.02819012115 0.1406566322 0.6447637146 1.205059086e-38
0.03013012815 0.1406566322 0.6447637146 1.205059646e-38
0.03207012615 0.1406566322 0.6447637146 1.204843566e-38
0.03466156515 0.1415137772 0.6492637446 1.204950485e-38
0.03661012665 0.1415137772 0.6492637446 1.204842165e-38
0.03855870165 0.1415137772 0.6492637446 1.159138956e-38
0.04073298165 0.1417994972 0.6507637296 1.113041561e-38
0.04268440665 0.1417994972 0.6507637296 1.075374518e-38
0.04486725165 0.1420852022 0.6522637146 1.048253648e-38
0.04682154165 0.1420852022 0.6522637146 1.038818285e-38
0.04925013165 0.1426566422 0.6552637596 1.038962058e-38
0.05145013665 0.1429423622 0.6567637446 9.289033759e-39
0.05341299165 0.1429423622 0.6567637446 8.276685302e-39
0.05586726165 0.1435137872 0.6597636996 8.458199696e-39
0.05833299165 0.1440852122 0.6627637446 8.642960898e-39
0.06106153665 0.1449423572 0.6672636996 1.029673131e-38
0.06329871165 0.1452280772 0.6687637596 1.195406942e-38
0.06579870165 0.1457995022 0.6717637296 1.205056283e-38
0.06805012665 0.1460852222 0.6732636996 1.21452794e-38
0.06978154665 0.1457995022 0.6717637296 1.261020781e-38
0.07177297665 0.1457995022 0.6717637296 1.306902936e-38
0.07403296665 0.1460852222 0.6732636996 1.398702979e-38
0.07602726165 0.1460852222 0.6732636996 1.49965168e-38
0.07802155665 0.1460852222 0.6732636996 1.472030686e-38
0.08057011665 0.1466566472 0.6762637596 1.444514649e-38
0.08257012665 0.1466566472 0.6762637596 1.490503023e-38
0.08541868665 0.1475137922 0.6807636996 1.536346782e-38
0.08742727665 0.1475137922 0.6807636996 1.47202396e-38
0.08943582165 0.1475137922 0.6807636996 1.416563369e-38
0.09144439665 0.1475137922 0.6807636996 1.351919229e-38
0.09345298665 0.1475137922 0.6807636996 1.287527743e-38
0.09575871165 0.1477995122 0.6822637746 1.250686905e-38
0.09777013665 0.1477995122 0.6822637746 1.214024874e-38
0.09978157665 0.1477995122 0.6822637746 1.204662378e-38
0.1017929867 0.1477995122 0.6822637746 1.204806292e-38
0.1041129917 0.1480852322 0.6837637446 1.195659036e-38
0.1061272517 0.1480852322 0.6837637446 1.186618839e-38
0.1087701317 0.1486566572 0.6867637146 1.204985798e-38
0.1107901517 0.1486566572 0.6867637146 1.223353458e-38
0.1128101417 0.1486566572 0.6867637146 1.214206482e-38
0.1151529767 0.1489423622 0.6882636846 1.205166706e-38
0.1171758317 0.1489423622 0.6882636846 1.196306155e-38
0.1198558367 0.1495137872 0.6912637446 1.196269301e-38
0.1218844067 0.1495137872 0.6912637446 1.177901361e-38
0.1242472817 0.1497995072 0.6927637296 1.168644804e-38
0.1269529967 0.1503709322 0.6957637746 1.15024057e-38
0.1293301367 0.1506566522 0.6972637596 1.1314081e-38
0.1313701517 0.1506566522 0.6972637596 1.094746629e-38
0.1341015617 0.1512280472 0.7002637146 1.06708766e-38
0.1361472767 0.1512280472 0.7002637146 1.03964393e-38
0.1385444117 0.1515137672 0.7017636996 1.021169351e-38
0.1413015617 0.1520852222 0.7047637446 9.935112225e-39
0.1437129917 0.1523709122 0.7062637296 9.751075494e-39
0.1457701217 0.1523709122 0.7062637296 9.567038763e-39
0.1478272667 0.1523709122 0.7062637296 9.474848738e-39
0.1506158567 0.1529423672 0.7092637746 9.107152225e-39
0.1530472817 0.1532280872 0.7107637596 8.740530508e-39
0.1551130067 0.1532280872 0.7107637596 9.10859276e-39
0.1571787017 0.1532280872 0.7107637596 9.568479297e-39
0.1599987167 0.1537994822 0.7137637146 1.002872457e-38
0.1620701417 0.1537994822 0.7137637146 1.048755313e-38
0.1652901467 0.1546566422 0.7182637446 1.002802532e-38
0.1673701367 0.1546566422 0.7182637446 9.66067773e-39
0.1694501267 0.1546566422 0.7182637446 9.56919396e-39
0.1715301317 0.1546566422 0.7182637446 9.479153527e-39
0.2394844067 0.1672280672 0.7842636996 9.292612675e-39
0.2421501467 0.1675138022 0.7857637746 1.011912934e-38
0.2443587167 0.1675138022 0.7857637746 9.659947653e-39
0.2465672717 0.1675138022 0.7857637746 9.292248338e-39
0.2483072717 0.1672280672 0.7842636996 9.291892408e-39
0.2505129767 0.1672280672 0.7842636996 9.383727904e-39
0.2527187267 0.1672280672 0.7842636996 9.016027187e-39
0.2549243867 0.1672280672 0.7842636996 8.741252176e-39
0.2571301067 0.1672280672 0.7842636996 8.649430693e-39
0.2593358417 0.1672280672 0.7842636996 8.557939916e-39
0.2629987067 0.1680851972 0.7887637446 8.558284636e-39
0.2642358767 0.1675138022 0.7857637746 8.557564368e-39
0.2664444167 0.1675138022 0.7857637746 8.465368739e-39
0.2706301367 0.1686566372 0.7917636996 8.372815778e-39
0.2728501067 0.1686566372 0.7917636996 8.188787454e-39
0.2750701217 0.1686566372 0.7917636996 8.094799564e-39
0.2772901067 0.1686566372 0.7917636996 7.909693642e-39
0.2795101217 0.1686566372 0.7917636996 7.725303783e-39
0.2817300917 0.1686566372 0.7917636996 7.541274058e-39
0.2849730167 0.1692280622 0.7947637446 7.449438562e-39
0.2861701367 0.1686566372 0.7917636996 7.357604467e-39
0.2883901517 0.1686566372 0.7917636996 7.358691875e-39
0.2906101367 0.1686566372 0.7917636996 7.354757029e-39
0.2928301067 0.1686566372 0.7917636996 7.35761848e-39
0.2961015917 0.1692280622 0.7947637446 7.080670056e-39
0.2988558167 0.1695137822 0.7962637296 6.807315962e-39
0.3010844267 0.1695137822 0.7962637296 6.716916797e-39
0.3033129767 0.1695137822 0.7962637296 6.714764402e-39
0.3055415417 0.1695137822 0.7962637296 6.807318764e-39
0.3077701367 0.1695137822 0.7962637296 6.991351292e-39
0.3099987017 0.1695137822 0.7962637296 7.083548323e-39
0.3122273117 0.1695137822 0.7962637296 7.263629189e-39
0.3155530217 0.1700852222 0.7992637746 7.449449773e-39
0.3177873017 0.1700852222 0.7992637746 7.63275923e-39
0.3211301417 0.1706566322 0.8022637446 7.632399096e-39
0.3233701367 0.1706566322 0.8022637446 7.63311516e-39
0.3244901867 0.1700852222 0.7992637746 7.633831223e-39
0.3278501417 0.1706566322 0.8022637446 7.633116561e-39
0.3300901517 0.1706566322 0.8022637446 7.63275923e-39
0.3323301467 0.1706566322 0.8022637446 7.723522733e-39
0.3357129467 0.1712280572 0.8052636996 7.814286236e-39
0.3368101517 0.1706566322 0.8022637446 7.999030623e-39
0.3402043967 0.1712280572 0.8052636996 7.818586821e-39
0.3436101317 0.1717994972 0.8082637596 7.726391191e-39
0.3446958467 0.1712280572 0.8052636996 7.818226687e-39
0.3481129817 0.1717994972 0.8082637596 8.002620749e-39
0.3503644217 0.1717994972 0.8082637596 8.095539449e-39
0.3526158767 0.1717994972 0.8082637596 8.186653277e-39
0.3548672717 0.1717994972 0.8082637596 8.186291742e-39
0.3571187267 0.1717994972 0.8082637596 8.27920904e-39
0.3593701667 0.1717994972 0.8082637596 8.463963236e-39
0.3616215767 0.1717994972 0.8082637596 8.647621617e-39
0.3638730167 0.1717994972 0.8082637596 8.647610406e-39
0.3661244117 0.1717994972 0.8082637596 8.7394431e-39
0.3683758667 0.1717994972 0.8082637596 9.014946786e-39
0.3706273067 0.1717994972 0.8082637596 9.290816211e-39
0.3734958467 0.1720852172 0.8097637296 9.201494644e-39
0.3757501517 0.1720852172 0.8097637296 9.108958499e-39
0.3780044567 0.1720852172 0.8097637296 9.200453479e-39
0.3802586717 0.1720852172 0.8097637296 9.383748924e-39
0.3825129767 0.1720852172 0.8097637296 9.383374777e-39
0.3860301167 0.1726566422 0.8127636996 9.381595128e-39
0.3882901517 0.1726566422 0.8127636996 9.563845203e-39
0.3918244067 0.1732280672 0.8157637446 9.749304253e-39
0.3953701067 0.1737994922 0.8187637146 9.657821884e-39
0.3976415417 0.1737994922 0.8187637146 9.567062585e-39
0.4012044467 0.1743709322 0.8217637596 9.47522849e-39
0.4021843967 0.1737994922 0.8187637146 9.474875363e-39
0.4057587467 0.1743709322 0.8217637596 9.291209976e-39
0.4080358517 0.1743709322 0.8217637596 9.200079332e-39
0.4103130017 0.1743709322 0.8217637596 9.292978414e-39
0.4132501517 0.1746566522 0.8232637446 9.475578814e-39
0.4168558517 0.1752280472 0.8262636996 9.292270758e-39
0.4191415817 0.1752280472 0.8262636996 9.200070925e-39
0.4214272367 0.1752280472 0.8262636996 9.199706587e-39
0.4250558567 0.1757995022 0.8292637596 9.290109956e-39
0.4273472717 0.1757995022 0.8292637596 9.29047009e-39
0.4309929767 0.1763709122 0.8322637146 9.381945452e-39
0.4346501567 0.1769423672 0.8352637596 9.290109956e-39
0.4383186617 0.1775137922 0.8382637296 9.19827446e-39
0.4406272817 0.1775137922 0.8382637296 9.198633192e-39
0.4429358717 0.1775137922 0.8382637296 9.198637396e-39
0.4452444467 0.1775137922 0.8382637296 9.1986416e-39
0.4489416017 0.1780852322 0.8412637746 9.198277263e-39
0.4526501117 0.1786566572 0.8442637446 9.749284634e-39
0.4549701317 0.1786566572 0.8442637446 1.039214432e-38
0.4572901517 0.1786566572 0.8442637446 9.933335379e-39
0.4596101267 0.1786566572 0.8442637446 9.473787955e-39
0.4619301467 0.1786566572 0.8442637446 9.290104351e-39
0.4642501217 0.1786566572 0.8442637446 9.19863039e-39
0.4679986967 0.1792280822 0.8472636996 9.015679665e-39
0.4703243867 0.1792280822 0.8472636996 8.832371609e-39
0.4733701817 0.1795138022 0.8487637746 8.833093278e-39
0.4756986917 0.1795138022 0.8487637746 8.832384221e-39
0.4794786767 0.1800852272 0.8517637296 8.923512061e-39
0.4832701667 0.1806566672 0.8547637896 9.015334946e-39
0.4856101667 0.1806566672 0.8547637896 8.832010074e-39
0.4879501667 0.1806566672 0.8547637896 8.740173176e-39
0.4917644117 0.1812280922 0.8577637446 8.740173176e-39
0.4970701817 0.1823709272 0.8637637596 8.738376712e-39
0.4994272967 0.1823709272 0.8637637596 8.644744751e-39
0.5032758167 0.1829423522 0.8667637146 8.645103483e-39
0.5056387217 0.1829423522 0.8667637146 8.645820948e-39
0.5080015667 0.1829423522 0.8667637146 8.644747554e-39
0.5103644117 0.1829423522 0.8667637146 8.459645836e-39
0.5127272567 0.1829423522 0.8667637146 8.277051041e-39
0.5150901467 0.1829423522 0.8667637146 8.094097513e-39
0.5189787317 0.1835137922 0.8697637746 7.909341916e-39
0.5213472917 0.1835137922 0.8697637746 7.816421815e-39
0.5267901617 0.1846566422 0.8757637746 7.812477159e-39
0.5291701817 0.1846566422 0.8757637746 6.706507952e-39
0.5330986817 0.1852280672 0.8787637446 5.695284737e-39
0.5354844167 0.1852280672 0.8787637446 6.245623689e-39
0.5363101367 0.1846566422 0.8757637746 6.815296357e-39
0.5386901867 0.1846566422 0.8757637746 9.313874577e-39
0.5410701617 0.1846566422 0.8757637746 1.189356135e-38
-0.02537273235 0.1399994972 0.6312637146 1.094498879e-38
-0.02345844585 0.1399994972 0.6312637146 1.085206869e-38
-0.02154416385 0.1399994972 0.6312637146 1.112756817e-38
-0.01962987735 0.1399994972 0.6312637146 1.149490735e-38
-0.01771559685 0.1399994972 0.6312637146 1.158709878e-38
-0.01580130285 0.1399994972 0.6312637146 1.177113131e-38
-0.01388702235 0.1399994972 0.6312637146 1.195552257e-38
-0.01212416235 0.1397109122 0.6297637296 1.213989001e-38
-0.01005844785 0.1399994972 0.6312637146 1.223026955e-38
-0.008144155349 0.1399994972 0.6312637146 1.241251683e-38
-0.006229874849 0.1399994972 0.6312637146 1.24132455e-38
-0.004315582349 0.1399994972 0.6312637146 1.241110011e-38
-0.002401310849 0.1399994972 0.6312637146 1.241146725e-38
-0.0001498768486 0.1405766372 0.6342637596 1.250365868e-38
0.001770127651 0.1405766372 0.6342637596 1.241325531e-38
0.003690130651 0.1405766372 0.6342637596 1.241469164e-38
0.005964409651 0.1411537772 0.6372637146 1.223138078e-38
0.007890123151 0.1411537772 0.6372637146 1.213990682e-38
0.009815838151 0.1411537772 0.6372637146 1.195552117e-38
0.01174155165 0.1411537772 0.6372637146 1.186332133e-38
0.01385583615 0.1414423622 0.6387636996 1.177148163e-38
0.01578441165 0.1414423622 0.6387636996 1.177184317e-38
0.01771297665 0.1414423622 0.6387636996 1.16814454e-38
0.01964155215 0.1414423622 0.6387636996 1.168144681e-38
0.02177013015 0.1417309472 0.6402637746 1.158961411e-38
0.02410726215 0.1423080722 0.6432637296 1.149813174e-38
0.02604440865 0.1423080722 0.6432637296 1.149848487e-38
0.02819012115 0.1425966272 0.6447637146 1.14988422e-38
0.03013012815 0.1425966272 0.6447637146 1.149812474e-38
0.03207012615 0.1425966272 0.6447637146 1.149740587e-38
0.03466156515 0.1434623672 0.6492637446 1.149740587e-38
0.03661012665 0.1434623672 0.6492637446 1.149740167e-38
0.03855870165 0.1434623672 0.6492637446 1.112933801e-38
0.04050727665 0.1434623672 0.6492637446 1.085311266e-38
0.04268440665 0.1437509222 0.6507637296 1.020846912e-38
0.04486725165 0.1440394772 0.6522637146 9.655655476e-39
0.04729012665 0.1446166472 0.6552637596 1.011554342e-38
0.04925013165 0.1446166472 0.6552637596 1.05757999e-38
0.05145013665 0.1449052172 0.6567637446 9.932238162e-39
0.05341299165 0.1449052172 0.6567637446 9.284719161e-39
0.05611299165 0.1457709422 0.6612637746 1.029526275e-38
0.05833299165 0.1460595272 0.6627637446 1.139802578e-38
0.06081012165 0.1466366372 0.6657637146 1.195659316e-38
0.06329871165 0.1472138072 0.6687637596 1.260696661e-38
0.06579870165 0.1477909322 0.6717637296 1.260731833e-38
0.06779011665 0.1477909322 0.6717637296 1.269952097e-38
0.06978154665 0.1477909322 0.6717637296 1.306902516e-38
0.07177297665 0.1477909322 0.6717637296 1.334489458e-38
0.07376442165 0.1477909322 0.6717637296 1.398631373e-38
0.07575585165 0.1477909322 0.6717637296 1.462845735e-38
0.07802155665 0.1480794872 0.6732636996 1.44440815e-38
0.08001583665 0.1480794872 0.6732636996 1.435187046e-38
0.08201010165 0.1480794872 0.6732636996 1.45351659e-38
0.08485297665 0.1489452272 0.6777637296 1.471882709e-38
0.08685585165 0.1489452272 0.6777637296 1.426179219e-38
0.08943582165 0.1495223372 0.6807636996 1.380332097e-38
0.09144439665 0.1495223372 0.6807636996 1.334090508e-38
0.09345298665 0.1495223372 0.6807636996 1.287850882e-38
0.09575871165 0.1498109222 0.6822637746 1.250902565e-38
0.09777013665 0.1498109222 0.6822637746 1.213989421e-38
0.09978157665 0.1498109222 0.6822637746 1.195587009e-38
0.1017929867 0.1498109222 0.6822637746 1.17721991e-38
0.1041129917 0.1500994922 0.6837637446 1.168108107e-38
0.1061272517 0.1500994922 0.6837637446 1.159032457e-38
0.1087701317 0.1506766472 0.6867637146 1.168144681e-38
0.1107901517 0.1506766472 0.6867637146 1.168108947e-38
0.1131301067 0.1509652172 0.6882636846 1.168180974e-38
0.1151529767 0.1509652172 0.6882636846 1.159069732e-38
0.1178272817 0.1515423572 0.6912637446 1.149922616e-38
0.1198558367 0.1515423572 0.6912637446 1.140773818e-38
0.1218844067 0.1515423572 0.6912637446 1.122441471e-38
0.1249158467 0.1524080822 0.6957637746 1.104108984e-38
0.1272901367 0.1526966522 0.6972637596 1.076377848e-38
0.1293301367 0.1526966522 0.6972637596 1.057868097e-38
0.1320558617 0.1532737922 0.7002637146 1.021098866e-38
0.1341015617 0.1532737922 0.7002637146 9.843279532e-39
0.1364958317 0.1535623472 0.7017636996 9.566688438e-39
0.1385444117 0.1535623472 0.7017636996 9.290471491e-39
0.1416558467 0.1544280572 0.7062637296 9.381955261e-39
0.1437129917 0.1544280572 0.7062637296 9.473780949e-39
0.1457701217 0.1544280572 0.7062637296 9.384088038e-39
0.1485530117 0.1550052272 0.7092637746 9.384806904e-39
0.1506158567 0.1550052272 0.7092637746 9.29297421e-39
0.1526787167 0.1550052272 0.7092637746 9.201497447e-39
0.1551130067 0.1552937822 0.7107637596 9.38516984e-39
0.1571787017 0.1552937822 0.7107637596 9.56919396e-39
0.1592444117 0.1552937822 0.7107637596 9.752859347e-39
0.1613101367 0.1552937822 0.7107637596 9.844711659e-39
0.2394844067 0.1694337872 0.7842636996 9.108945887e-39
0.2421501467 0.1697223722 0.7857637746 9.658518329e-39
0.2443587167 0.1697223722 0.7857637746 9.384441165e-39
0.2465672717 0.1697223722 0.7857637746 9.109653543e-39
0.2629987067 0.1702994972 0.7887637446 8.650115928e-39
0.2652130067 0.1702994972 0.7887637446 8.741592692e-39
0.2664444167 0.1697223722 0.7857637746 8.649041132e-39
0.2706301367 0.1708766372 0.7917636996 8.65047466e-39
0.2728501067 0.1708766372 0.7917636996 8.740875227e-39
0.2750701217 0.1708766372 0.7917636996 8.831275794e-39
0.2772901067 0.1708766372 0.7917636996 8.464292541e-39
0.2795101217 0.1708766372 0.7917636996 8.189144785e-39
0.2817300917 0.1708766372 0.7917636996 8.280262817e-39
0.2849730167 0.1714537772 0.7947637446 8.371382249e-39
0.2861701367 0.1708766372 0.7917636996 8.003324201e-39
0.2883901517 0.1708766372 0.7917636996 7.727101649e-39
0.2906101367 0.1708766372 0.7917636996 7.634192758e-39
0.2938758467 0.1714537772 0.7947637446 7.63311516e-39
0.2961015917 0.1714537772 0.7947637446 7.082459514e-39
0.2999130167 0.1723195022 0.7992637746 6.532164002e-39
0.3021472967 0.1723195022 0.7992637746 6.531446537e-39
0.3043815767 0.1723195022 0.7992637746 6.622924702e-39
0.3076901717 0.1728966572 0.8022637446 6.439256512e-39
0.3088501817 0.1723195022 0.7992637746 6.34742522e-39
0.3121701317 0.1728966572 0.8022637446 6.713695211e-39
0.3144101267 0.1728966572 0.8022637446 7.172152425e-39
0.3166501817 0.1728966572 0.8022637446 7.355461882e-39
0.3199929767 0.1734737822 0.8052636996 7.630968371e-39
0.3211301417 0.1728966572 0.8022637446 7.538774142e-39
0.3233701367 0.1728966572 0.8022637446 7.44514078e-39
0.3256101467 0.1728966572 0.8022637446 7.445495308e-39
0.3289758167 0.1734737822 0.8052636996 7.446216977e-39
0.3300901517 0.1728966572 0.8022637446 7.539491607e-39
0.3323301467 0.1728966572 0.8022637446 7.631685835e-39
0.3368558417 0.1740509372 0.8082637596 7.722087803e-39
0.3368101517 0.1728966572 0.8022637446 7.814282032e-39
0.3413587367 0.1740509372 0.8082637596 7.633123568e-39
0.3436101317 0.1740509372 0.8082637596 7.542724402e-39
0.3458615867 0.1740509372 0.8082637596 7.634562701e-39
0.3481129817 0.1740509372 0.8082637596 7.72641221e-39
0.3503644217 0.1740509372 0.8082637596 7.726784956e-39
0.3526158767 0.1740509372 0.8082637596 7.727126872e-39
0.3554615567 0.1743395072 0.8097637296 7.819304285e-39
0.3571187267 0.1740509372 0.8082637596 7.914011042e-39
0.3599701367 0.1743395072 0.8097637296 8.095889774e-39
0.3622243967 0.1743395072 0.8097637296 8.1870022e-39
0.3644787017 0.1743395072 0.8097637296 8.187355327e-39
0.3667330067 0.1743395072 0.8097637296 8.188071391e-39
0.3683758667 0.1740509372 0.8082637596 8.464293943e-39
0.3712415867 0.1743395072 0.8097637296 8.648327871e-39
0.3734958467 0.1743395072 0.8097637296 8.64761461e-39
0.3757501517 0.1743395072 0.8097637296 8.646922369e-39
0.3780044567 0.1743395072 0.8097637296 8.738424356e-39
0.3815101517 0.1749166322 0.8127636996 8.830237431e-39
0.3837701267 0.1749166322 0.8127636996 8.921693176e-39
0.3872929967 0.1754937872 0.8157637446 9.013532876e-39
0.3908272967 0.1760709122 0.8187637146 9.105015245e-39
0.3930986717 0.1760709122 0.8187637146 9.289403702e-39
0.3953701067 0.1760709122 0.8187637146 9.199003135e-39
0.3989272967 0.1766480522 0.8217637596 9.015696481e-39
0.4012044467 0.1766480522 0.8217637596 8.923507857e-39
0.4034815517 0.1766480522 0.8217637596 8.921722603e-39
0.4057587467 0.1766480522 0.8217637596 8.83204931e-39
0.4080358517 0.1766480522 0.8217637596 8.740557132e-39
0.4109701517 0.1769366672 0.8232637446 8.740541718e-39
0.4145701217 0.1775137922 0.8262636996 8.740903253e-39
0.4168558517 0.1775137922 0.8262636996 8.832382819e-39
0.4204729967 0.1780909322 0.8292637596 8.830943686e-39
0.4227644417 0.1780909322 0.8292637596 8.922774978e-39
0.4250558567 0.1780909322 0.8292637596 8.923128105e-39
0.4286958317 0.1786680722 0.8322637146 8.923123901e-39
0.4309929767 0.1786680722 0.8322637146 9.013881799e-39
0.4346501567 0.1792452122 0.8352637596 8.922046303e-39
0.4383186617 0.1798223672 0.8382637296 8.922046303e-39
0.4406272817 0.1798223672 0.8382637296 8.92168757e-39
0.4443130517 0.1803995072 0.8412637746 8.829860482e-39
0.4466272967 0.1803995072 0.8412637746 8.556156063e-39
0.4489416017 0.1803995072 0.8412637746 8.373201135e-39
0.4526501117 0.1809766322 0.8442637446 8.922061717e-39
0.4549701317 0.1809766322 0.8442637446 9.564558464e-39
0.4572901517 0.1809766322 0.8442637446 9.380535746e-39
0.4596101267 0.1809766322 0.8442637446 9.104659315e-39
0.4633473017 0.1815538022 0.8472636996 9.013171341e-39
0.4663844567 0.1818423572 0.8487637746 8.830217813e-39
0.4679986967 0.1815538022 0.8472636996 8.739818648e-39
0.4710416117 0.1818423572 0.8487637746 8.740175979e-39
0.4748101217 0.1824194972 0.8517637296 8.64941668e-39
0.4771444067 0.1824194972 0.8517637296 8.649059349e-39
0.4794786767 0.1824194972 0.8517637296 8.648703419e-39
0.4832701667 0.1829966672 0.8547637896 8.648339082e-39
0.4870729967 0.1835737922 0.8577637446 8.556139248e-39
0.4894187267 0.1835737922 0.8577637446 8.464307956e-39
0.4932386867 0.1841509322 0.8607636996 8.462518497e-39
0.4970701817 0.1847280722 0.8637637596 8.461079364e-39
0.5009129717 0.1853051972 0.8667637146 8.369957129e-39
0.5032758167 0.1853051972 0.8667637146 8.279193626e-39
0.5071358717 0.1858823672 0.8697637746 8.18627913e-39
0.5095044017 0.1858823672 0.8697637746 8.094449239e-39
0.5118730217 0.1858823672 0.8697637746 7.910425119e-39
0.5157558767 0.1864594922 0.8727637296 7.726395395e-39
0.5181301217 0.1864594922 0.8727637296 6.62580437e-39
0.5220301367 0.1870366322 0.8757637746 5.525204938e-39
0.5228787017 0.1864594922 0.8727637296 5.974689638e-39
0.5283272567 0.1876138022 0.8787637446 6.428844865e-39
0.5307129917 0.1876138022 0.8787637446 7.626293639e-39
0.5330986817 0.1876138022 0.8787637446 8.915663388e-39
0.5354844167 0.1876138022 0.8787637446 1.003930017e-38
0.5378701517 0.1876138022 0.8787637446 1.116286548e-38
0.5386901867 0.1870366322 0.8757637746 1.236391699e-38
0.5410701617 0.1870366322 0.8757637746 1.356495729e-38
-0.02537273235 0.1419137822 0.6312637146 1.057799713e-38
-0.02345844585 0.1419137822 0.6312637146 1.066982422e-38
-0.02154416385 0.1419137822 0.6312637146 1.08534854e-38
-0.01962987735 0.1419137822 0.6312637146 1.112827303e-38
-0.01771559685 0.1419137822 0.6312637146 1.140341938e-38
-0.01580130285 0.1419137822 0.6312637146 1.16792846e-38
-0.01388702235 0.1419137822 0.6312637146 1.186331433e-38
-0.01212416235 0.1416223622 0.6297637296 1.204626926e-38
-0.01005844785 0.1419137822 0.6312637146 1.204591192e-38
-0.008144155349 0.1419137822 0.6312637146 1.213774462e-38
-0.006229874849 0.1419137822 0.6312637146 1.222993604e-38
-0.004315582349 0.1419137822 0.6312637146 1.232033941e-38
-0.002401310849 0.1419137822 0.6312637146 1.222850812e-38
-0.0003184528486 0.1422052022 0.6327636846 1.213631249e-38
0.001770127651 0.1424966522 0.6342637596 1.204483573e-38
0.003690130651 0.1424966522 0.6342637596 1.204591052e-38
0.005964409651 0.1430794922 0.6372637146 1.186474926e-38
0.007890123151 0.1430794922 0.6372637146 1.168071813e-38
0.009815838151 0.1430794922 0.6372637146 1.158888263e-38
0.01174155165 0.1430794922 0.6372637146 1.1495608e-38
0.01385583615 0.1433709122 0.6387636996 1.131157408e-38
0.01578441165 0.1433709122 0.6387636996 1.122009871e-38
0.01771297665 0.1433709122 0.6387636996 1.122225391e-38
0.01964155215 0.1433709122 0.6387636996 1.122225952e-38
0.02177013015 0.1436623622 0.6402637746 1.113042962e-38
0.02410726215 0.1442452322 0.6432637296 1.103822419e-38
0.02604440865 0.1442452322 0.6432637296 1.103821438e-38
0.02819012115 0.1445366522 0.6447637146 1.103749691e-38
0.03013012815 0.1445366522 0.6447637146 1.103713958e-38
0.03207012615 0.1445366522 0.6447637146 1.103714098e-38
0.03466156515 0.1454109422 0.6492637446 1.094566702e-38
0.03661012665 0.1454109422 0.6492637446 1.094458522e-38
0.03855870165 0.1454109422 0.6492637446 1.076019116e-38
0.04050727665 0.1454109422 0.6492637446 1.057616423e-38
0.04268440665 0.1457023472 0.6507637296 9.657453342e-39
0.04486725165 0.1459937822 0.6522637146 8.83164994e-39
0.04729012665 0.1465766522 0.6552637596 9.842557863e-39
0.04948726665 0.1468680722 0.6567637446 1.085203506e-38
0.05193012165 0.1474509122 0.6597636996 1.057581531e-38
0.05389870665 0.1474509122 0.6597636996 1.039681064e-38
0.05635870665 0.1480337822 0.6627637446 1.223854702e-38
0.05833299165 0.1480337822 0.6627637446 1.416709384e-38
0.06081012165 0.1486166522 0.6657637146 1.37082765e-38
0.06329871165 0.1491995222 0.6687637596 1.324945495e-38
0.06528441165 0.1491995222 0.6687637596 1.324981228e-38
0.06779011665 0.1497823622 0.6717637296 1.334201211e-38
0.06925584165 0.1491995222 0.6687637596 1.35278411e-38
0.07177297665 0.1497823622 0.6717637296 1.37115163e-38
0.07376442165 0.1497823622 0.6717637296 1.398559206e-38
0.07575585165 0.1497823622 0.6717637296 1.426002796e-38
0.07774726665 0.1497823622 0.6717637296 1.42593175e-38
0.08001583665 0.1500737822 0.6732636996 1.435114038e-38
0.08201010165 0.1500737822 0.6732636996 1.425965241e-38
0.08457012165 0.1506566522 0.6762637596 1.416816864e-38
0.08657013165 0.1506566522 0.6762637596 1.380369091e-38
0.08943582165 0.1515309122 0.6807636996 1.352710402e-38
0.09144439665 0.1515309122 0.6807636996 1.315868163e-38
0.09345298665 0.1515309122 0.6807636996 1.287923469e-38
0.09546154665 0.1515309122 0.6807636996 1.251153958e-38
0.09777013665 0.1518223622 0.6822637746 1.21420466e-38
0.09978157665 0.1518223622 0.6822637746 1.186618138e-38
0.1017929867 0.1518223622 0.6822637746 1.15885225e-38
0.1041129917 0.1521137822 0.6837637446 1.14977618e-38
0.1061272517 0.1521137822 0.6837637446 1.140557037e-38
0.1087701317 0.1526966222 0.6867637146 1.131337755e-38
0.1107901517 0.1526966222 0.6867637146 1.122154625e-38
0.1131301067 0.1529880722 0.6882636846 1.122190919e-38
0.1157986967 0.1535709422 0.6912637446 1.122191339e-38
0.1178272817 0.1535709422 0.6912637446 1.103824801e-38
0.1198558367 0.1535709422 0.6912637446 1.094604957e-38
0.1222158467 0.1538623622 0.6927637296 1.067018155e-38
0.1242472817 0.1538623622 0.6927637296 1.039358766e-38
0.1269529967 0.1544452172 0.6957637746 1.011735249e-38
