# .PCD v0.7 - Point Cloud Data file format
VERSION 0.7
FIELDS x y z rgb
SIZE 4 4 4 4
TYPE F F F F
COUNT 1 1 1 1
WIDTH 855
HEIGHT 1
VIEWPOINT 0 0 0 1 0 0 0
POINTS 855
DATA ascii
0.2197762512 -0.1261365791 0.6742634113 1.316238947e-38
0.2528391312 -0.1364194301 0.7627634413 1.289192906e-38
0.2422391262 -0.1287508496 0.6967633963 1.547734434e-38
0.2448734712 -0.1289251481 0.6982634563 1.519820429e-38
0.2480619912 -0.1292737241 0.7012634263 1.445127717e-38
0.2490563262 -0.1289251481 0.6982634563 1.371265135e-38
0.2511477312 -0.1289251481 0.6982634563 1.324702089e-38
0.2532391362 -0.1289251481 0.6982634563 1.287317127e-38
0.2547705462 -0.1287508496 0.6967633963 1.259689828e-38
0.2568591462 -0.1287508496 0.6967633963 1.232106108e-38
0.2595134112 -0.1289251481 0.6982634563 1.242009925e-38
0.2616048612 -0.1289251481 0.6982634563 1.260412477e-38
0.2636963112 -0.1289251481 0.6982634563 1.251192634e-38
0.2657877162 -0.1289251481 0.6982634563 1.251443607e-38
0.2678791812 -0.1289251481 0.6982634563 1.288285285e-38
0.2699705862 -0.1289251481 0.6982634563 1.334310933e-38
0.2714791512 -0.1287508496 0.6967633963 1.380300848e-38
0.2735676912 -0.1287508496 0.6967633963 1.435689692e-38
0.2756562762 -0.1287508496 0.6967633963 1.435546899e-38
0.2783362962 -0.1289251481 0.6982634563 1.444771087e-38
0.2804277162 -0.1289251481 0.6982634563 1.445385696e-38
0.2825191662 -0.1289251481 0.6982634563 1.446499869e-38
0.1010905662 -0.1302622961 0.7282634263 1.603152706e-38
0.1032391512 -0.1302622961 0.7282634263 1.492444802e-38
0.1046962812 -0.1299194441 0.7252634713 1.380120501e-38
0.1068391362 -0.1299194441 0.7252634713 1.047427022e-38
0.1082791362 -0.1295765681 0.7222634263 7.261827119e-39
0.1104162912 -0.1295765681 0.7222634263 8.917024049e-39
0.1125534162 -0.1295765681 0.7222634263 1.066442642e-38
0.1146905562 -0.1295765681 0.7222634263 1.131016297e-38
0.1168277112 -0.1295765681 0.7222634263 1.196054762e-38
0.1189648512 -0.1295765681 0.7222634263 1.223605832e-38
0.1211019912 -0.1295765681 0.7222634263 1.260591703e-38
0.1239820062 -0.1299194441 0.7252634713 1.279174603e-38
0.1268734062 -0.1302622961 0.7282634263 1.306796718e-38
0.1290219912 -0.1302622961 0.7282634263 1.362005355e-38
0.1311705762 -0.1302622961 0.7282634263 1.426254749e-38
0.1337019762 -0.1304337116 0.7297634113 1.481356467e-38
0.1358534262 -0.1304337116 0.7297634113 1.536458606e-38
0.1380048462 -0.1304337116 0.7297634113 1.53649546e-38
0.1401562662 -0.1304337116 0.7297634113 1.545749495e-38
0.1430963112 -0.1307765771 0.7327634563 1.610069094e-38
0.1452534312 -0.1307765771 0.7327634563 1.683574065e-38
0.1474105662 -0.1307765771 0.7327634563 1.6468763e-38
0.1495677162 -0.1307765771 0.7327634563 1.619325792e-38
0.1517248662 -0.1307765771 0.7327634563 1.619326072e-38
0.1530648462 -0.1304337116 0.7297634113 1.619325511e-38
0.1552162962 -0.1304337116 0.7297634113 1.591774302e-38
0.1573677162 -0.1304337116 0.7297634113 1.573445318e-38
0.1595191362 -0.1304337116 0.7297634113 1.554865222e-38
0.1700705862 -0.1338623021 0.7597634713 1.537721456e-38
0.1722791412 -0.1338623021 0.7597634713 1.548343579e-38
0.1744877112 -0.1338623021 0.7597634713 1.555834079e-38
0.1766962962 -0.1338623021 0.7597634713 1.233649498e-38
0.1789048662 -0.1338623021 0.7597634713 9.201182154e-39
0.1806791262 -0.1336908521 0.7582633963 1.012241678e-38
0.1828848462 -0.1336908521 0.7582633963 1.104328427e-38
0.1842105762 -0.1333480001 0.7552634413 1.214818149e-38
0.1864105662 -0.1333480001 0.7552634413 1.325271437e-38
0.1886105562 -0.1333480001 0.7552634413 1.380623286e-38
0.1899134112 -0.1330051466 0.7522633963 1.444765341e-38
0.1921077012 -0.1330051466 0.7522633963 1.49057617e-38
0.1943019762 -0.1330051466 0.7522633963 1.545534115e-38
0.1964962662 -0.1330051466 0.7522633963 1.545462509e-38
0.1986905712 -0.1330051466 0.7522633963 1.554681792e-38
0.2008848312 -0.1330051466 0.7522633963 1.536422032e-38
0.2030791212 -0.1330051466 0.7522633963 1.527238482e-38
0.2052734262 -0.1330051466 0.7522633963 1.499615947e-38
0.2084105562 -0.1333480001 0.7552634413 1.481284441e-38
0.2115591612 -0.1336908521 0.7582633963 1.48139178e-38
0.2137648212 -0.1336908521 0.7582633963 1.481357028e-38
0.2159705412 -0.1336908521 0.7582633963 1.4538075e-38
0.2186591412 -0.1338623021 0.7597634713 1.435402846e-38
0.2208676962 -0.1338623021 0.7597634713 1.389483556e-38
0.2230763112 -0.1338623021 0.7597634713 1.352677191e-38
0.2262676962 -0.1342051556 0.7627634413 1.306651403e-38
0.2284819962 -0.1342051556 0.7627634413 1.269522038e-38
0.2306962962 -0.1342051556 0.7627634413 1.260445548e-38
0.2329105512 -0.1342051556 0.7627634413 1.260555129e-38
0.2351248362 -0.1342051556 0.7627634413 1.269884134e-38
0.2373391362 -0.1342051556 0.7627634413 1.288179627e-38
0.2395534362 -0.1342051556 0.7627634413 1.288502626e-38
0.2417676912 -0.1342051556 0.7627634413 1.297686176e-38
0.2439819912 -0.1342051556 0.7627634413 1.297686316e-38
0.2461962912 -0.1342051556 0.7627634413 1.297687577e-38
0.2182505562 -0.1242622841 0.6757633963 1.270138189e-38
0.2187305562 -0.1237480151 0.6712634563 1.251808365e-38
0.2207705562 -0.1237480151 0.6712634563 1.187560932e-38
0.2243962812 -0.1242622841 0.6757633963 1.132927808e-38
0.2275077312 -0.1246051496 0.6787634413 1.326250664e-38
0.2316991212 -0.1252908671 0.6847634563 1.519392752e-38
0.2337648762 -0.1252908671 0.6847634563 1.57481761e-38
0.2385305712 -0.1261480121 0.6922634413 1.630779865e-38
0.2406105912 -0.1261480121 0.6922634413 1.566243905e-38
0.2432362962 -0.1263194276 0.6937634263 1.501200955e-38
0.2464162662 -0.1266622916 0.6967633963 1.454058893e-38
0.2485048662 -0.1266622916 0.6967633963 1.408214573e-38
0.2505934062 -0.1266622916 0.6967633963 1.426690973e-38
0.2526819612 -0.1266622916 0.6967633963 1.454237138e-38
0.2536505412 -0.1263194276 0.6937634263 1.417498596e-38
0.2540448312 -0.1258051466 0.6892633963 1.389590055e-38
0.2561191212 -0.1258051466 0.6892633963 1.343350289e-38
0.2598991062 -0.1263194276 0.6937634263 1.297324921e-38
0.2619819762 -0.1263194276 0.6937634263 1.260483103e-38
0.2640648462 -0.1263194276 0.6937634263 1.223748624e-38
0.2661477162 -0.1263194276 0.6937634263 1.260518556e-38
0.2682305412 -0.1263194276 0.6937634263 1.306795737e-38
0.2714791512 -0.1266622916 0.6967633963 1.352714185e-38
0.2735676912 -0.1266622916 0.6967633963 1.408031844e-38
0.2756562762 -0.1266622916 0.6967633963 1.426400204e-38
0.2777448312 -0.1266622916 0.6967633963 1.444734653e-38
0.2804277162 -0.1268337191 0.6982634563 1.436128298e-38
0.2825191662 -0.1268337191 0.6982634563 1.437279745e-38
0.1082791362 -0.1274394281 0.7222634263 1.040575233e-38
0.1104162912 -0.1274394281 0.7222634263 1.121541137e-38
0.1125534162 -0.1274394281 0.7222634263 1.213019863e-38
0.1146905562 -0.1274394281 0.7222634263 1.241577064e-38
0.1168277112 -0.1274394281 0.7222634263 1.278598389e-38
0.1189648512 -0.1274394281 0.7222634263 1.278706148e-38
0.1211019912 -0.1274394281 0.7222634263 1.288034032e-38
0.1239820062 -0.1277765816 0.7252634713 1.288106619e-38
0.1268734062 -0.1281137246 0.7282634263 1.297361355e-38
0.1290219912 -0.1281137246 0.7282634263 1.334274359e-38
0.1311705762 -0.1281137246 0.7282634263 1.380372034e-38
0.1337019762 -0.1282822901 0.7297634113 1.39870396e-38
0.1358534262 -0.1282822901 0.7297634113 1.426220558e-38
0.1380048462 -0.1282822901 0.7297634113 1.462992451e-38
0.1401562662 -0.1282822901 0.7297634113 1.508980404e-38
0.1423076862 -0.1282822901 0.7297634113 1.554932484e-38
0.1452534312 -0.1286194331 0.7327634563 1.609890429e-38
0.1474105662 -0.1286194331 0.7327634563 1.609926442e-38
0.1487620062 -0.1282822901 0.7297634113 1.600814779e-38
0.1517248662 -0.1286194331 0.7327634563 1.628365708e-38
0.1530648462 -0.1282822901 0.7297634113 1.655916077e-38
0.1560391512 -0.1286194331 0.7327634563 1.619289358e-38
0.1581962862 -0.1286194331 0.7327634563 1.591808073e-38
0.1607705712 -0.1287880091 0.7342634413 1.564147563e-38
0.1679705562 -0.1308108536 0.7522633963 1.546147744e-38
0.1701648462 -0.1308108536 0.7522633963 1.528148065e-38
0.1744877112 -0.1316537156 0.7597634713 1.519316802e-38
0.1766962962 -0.1316537156 0.7597634713 1.334742673e-38
0.1789048662 -0.1316537156 0.7597634713 1.150033038e-38
0.1806791262 -0.1314851381 0.7582633963 1.214714313e-38
0.1820105712 -0.1311480071 0.7552634413 1.279427817e-38
0.1842105762 -0.1311480071 0.7552634413 1.33459918e-38
0.1864105662 -0.1311480071 0.7552634413 1.398990806e-38
0.1877191212 -0.1308108536 0.7522633963 1.435616684e-38
0.1899134112 -0.1308108536 0.7522633963 1.47220781e-38
0.1921077012 -0.1308108536 0.7522633963 1.527201908e-38
0.1943019762 -0.1308108536 0.7522633963 1.591343683e-38
0.1964962662 -0.1308108536 0.7522633963 1.563757581e-38
0.1986905712 -0.1308108536 0.7522633963 1.536385878e-38
0.2008848312 -0.1308108536 0.7522633963 1.518054372e-38
0.2030791212 -0.1308108536 0.7522633963 1.508906696e-38
0.2052734262 -0.1308108536 0.7522633963 1.472136624e-38
0.2084105562 -0.1311480071 0.7552634413 1.444550102e-38
0.2115591612 -0.1314851381 0.7582633963 1.472172637e-38
0.2137648212 -0.1314851381 0.7582633963 1.50905187e-38
0.2164505862 -0.1316537156 0.7597634713 1.472139847e-38
0.2186591412 -0.1316537156 0.7597634713 1.444551643e-38
0.2208676962 -0.1316537156 0.7597634713 1.398560607e-38
0.2240534412 -0.1319908571 0.7627634413 1.343422876e-38
0.2262676962 -0.1319908571 0.7627634413 1.297325341e-38
0.2284819962 -0.1319908571 0.7627634413 1.251228227e-38
0.2306962962 -0.1319908571 0.7627634413 1.242080551e-38
0.2329105512 -0.1319908571 0.7627634413 1.233041054e-38
0.2351248362 -0.1319908571 0.7627634413 1.242189291e-38
0.2373391362 -0.1319908571 0.7627634413 1.251337668e-38
0.2395534362 -0.1319908571 0.7627634413 1.251338369e-38
0.2417676912 -0.1319908571 0.7627634413 1.260557091e-38
0.2429534562 -0.1316537156 0.7597634713 1.260735897e-38
0.2451620262 -0.1316537156 0.7597634713 1.260916384e-38
0.2473705512 -0.1316537156 0.7597634713 1.233366856e-38
0.2495791812 -0.1316537156 0.7597634713 1.215036191e-38
0.2517877062 -0.1316537156 0.7597634713 1.169155017e-38
0.2243962812 -0.1222137146 0.6757633963 1.132279007e-38
0.2275077312 -0.1225508561 0.6787634413 1.197103634e-38
0.2316991212 -0.1232251421 0.6847634563 1.271579004e-38
0.2348391462 -0.1235622836 0.6877634113 1.391183051e-38
0.2369105712 -0.1235622836 0.6877634113 1.51139344e-38
0.2406105912 -0.1240680026 0.6922634413 1.464865006e-38
0.2415991062 -0.1237308491 0.6892633963 1.418332648e-38
0.2431248912 -0.1235622836 0.6877634113 1.399494573e-38
0.2451962712 -0.1235622836 0.6877634113 1.371516248e-38
0.2472677412 -0.1235622836 0.6877634113 1.38988629e-38
0.2498962962 -0.1237308491 0.6892633963 1.408249605e-38
0.2514105912 -0.1235622836 0.6877634113 1.399169892e-38
0.2523562962 -0.1232251421 0.6847634563 1.399276391e-38
0.2544219912 -0.1232251421 0.6847634563 1.380298325e-38
0.2576248662 -0.1235622836 0.6877634113 1.362003393e-38
0.2602676862 -0.1237308491 0.6892633963 1.325126122e-38
0.2623419762 -0.1237308491 0.6892633963 1.296821715e-38
0.2661477162 -0.1242365801 0.6937634263 1.306327843e-38
0.2682305412 -0.1242365801 0.6937634263 1.325198149e-38
0.2714791512 -0.1245737231 0.6967633963 1.352678172e-38
0.2735676912 -0.1245737231 0.6967633963 1.380409869e-38
0.2762448462 -0.1247422991 0.6982634563 1.39877879e-38
0.2783362962 -0.1247422991 0.6982634563 1.41714757e-38
0.2816162862 -0.1250794301 0.7012634263 1.417436378e-38
0.2837134212 -0.1250794301 0.7012634263 1.428059622e-38
0.09914200616 -0.1209937226 0.6832634713 1.352964037e-38
0.1012048512 -0.1209937226 0.6832634713 1.360600973e-38
0.1032677112 -0.1209937226 0.6832634713 1.370145638e-38
0.1053305862 -0.1209937226 0.6832634713 1.361323063e-38
0.1073934462 -0.1209937226 0.6832634713 1.361394669e-38
0.1087248462 -0.1206622901 0.6802634263 1.334238626e-38
0.1218391512 -0.1256337206 0.7252634713 1.315584961e-38
0.1250962662 -0.1261308566 0.7297634113 1.297038916e-38
0.1272477162 -0.1261308566 0.7297634113 1.288104937e-38
0.1293991362 -0.1261308566 0.7297634113 1.315151679e-38
0.1315505562 -0.1261308566 0.7297634113 1.34270401e-38
0.1337019762 -0.1261308566 0.7297634113 1.324338452e-38
0.1358534262 -0.1261308566 0.7297634113 1.315801602e-38
0.1380048462 -0.1261308566 0.7297634113 1.389486219e-38
0.1409391462 -0.1264622996 0.7327634563 1.472173338e-38
0.1430963112 -0.1264622996 0.7327634563 1.508978442e-38
0.1452534312 -0.1264622996 0.7327634563 1.545605161e-38
0.1474105662 -0.1264622996 0.7327634563 1.564008134e-38
0.1495677162 -0.1264622996 0.7327634563 1.591594516e-38
0.1517248662 -0.1264622996 0.7327634563 1.63747625e-38
0.1538820012 -0.1264622996 0.7327634563 1.692685588e-38
0.1560391512 -0.1264622996 0.7327634563 1.646840007e-38
0.1586105562 -0.1266280046 0.7342634413 1.610140561e-38
0.1607705712 -0.1266280046 0.7342634413 1.582624804e-38
0.1679705562 -0.1286165711 0.7522633963 1.564333795e-38
0.1701648462 -0.1286165711 0.7522633963 1.518492138e-38
0.1723591212 -0.1286165711 0.7522633963 1.481754856e-38
0.1762677012 -0.1292794346 0.7582633963 1.426686349e-38
0.1784734062 -0.1292794346 0.7582633963 1.380948668e-38
0.1798105812 -0.1289480141 0.7552634413 1.417862933e-38
0.1820105712 -0.1289480141 0.7552634413 1.463241462e-38
0.1842105762 -0.1289480141 0.7552634413 1.462989228e-38
0.1855248462 -0.1286165711 0.7522633963 1.47220809e-38
0.1877191212 -0.1286165711 0.7522633963 1.481462966e-38
0.1899134112 -0.1286165711 0.7522633963 1.499722726e-38
0.1921077012 -0.1286165711 0.7522633963 1.573012177e-38
0.1943019762 -0.1286165711 0.7522633963 1.646408687e-38
0.1964962662 -0.1286165711 0.7522633963 1.582087967e-38
0.1986905712 -0.1286165711 0.7522633963 1.527201768e-38
0.2008848312 -0.1286165711 0.7522633963 1.508870542e-38
0.2030791212 -0.1286165711 0.7522633963 1.490431697e-38
0.2052734262 -0.1286165711 0.7522633963 1.444226963e-38
0.2074676862 -0.1286165711 0.7522633963 1.40767213e-38
0.2106105762 -0.1289480141 0.7552634413 1.472136344e-38
0.2137648212 -0.1292794346 0.7582633963 1.536421892e-38
0.2159705412 -0.1292794346 0.7582633963 1.499688534e-38
0.2186591412 -0.1294451501 0.7597634713 1.462809581e-38
0.2208676962 -0.1294451501 0.7597634713 1.39838012e-38
0.2230763112 -0.1294451501 0.7597634713 1.343207216e-38
0.2262676962 -0.1297765706 0.7627634413 1.288034312e-38
0.2284819962 -0.1297765706 0.7627634413 1.232933014e-38
0.2306962962 -0.1297765706 0.7627634413 1.214566055e-38
0.2329105512 -0.1297765706 0.7627634413 1.205382786e-38
0.2351248362 -0.1297765706 0.7627634413 1.214602629e-38
0.2373391362 -0.1297765706 0.7627634413 1.223786459e-38
0.2385363012 -0.1294451501 0.7597634713 1.223786739e-38
0.2407448262 -0.1294451501 0.7597634713 1.223714572e-38
0.2429534562 -0.1294451501 0.7597634713 1.223283533e-38
0.2446448562 -0.1292794346 0.7582633963 1.233041475e-38
0.2473705512 -0.1294451501 0.7597634713 1.205706486e-38
0.2490562812 -0.1292794346 0.7582633963 1.178228144e-38
0.2512620012 -0.1292794346 0.7582633963 1.150785675e-38
0.2254534662 -0.1204965746 0.6787634413 1.13234683e-38
0.2291019912 -0.1209937226 0.6832634713 1.077173786e-38
0.2311648662 -0.1209937226 0.6832634713 1.022973242e-38
0.2337648762 -0.1211594381 0.6847634563 1.207580863e-38
0.2352905562 -0.1209937226 0.6832634713 1.400002544e-38
0.2378962812 -0.1211594381 0.6847634563 1.372055047e-38
0.2410534212 -0.1214908691 0.6877634113 1.343605325e-38
0.2420277312 -0.1211594381 0.6847634563 1.342742125e-38
0.2418877212 -0.1204965746 0.6787634413 1.342850586e-38
0.2439420162 -0.1204965746 0.6787634413 1.352142736e-38
0.2465534262 -0.1206622901 0.6802634263 1.361325024e-38
0.2502905862 -0.1211594381 0.6847634563 1.388874552e-38
0.2517934362 -0.1209937226 0.6832634713 1.416819106e-38
0.2527248762 -0.1206622901 0.6802634263 1.417248884e-38
0.2564877462 -0.1211594381 0.6847634563 1.426468587e-38
0.2596962462 -0.1214908691 0.6877634113 1.398989825e-38
0.2623419762 -0.1216565741 0.6892633963 1.380154692e-38
0.2655705912 -0.1219880066 0.6922634413 1.361319699e-38
0.2682305412 -0.1221537221 0.6937634263 1.3433842e-38
0.2714791512 -0.1224851426 0.6967633963 1.352640757e-38
0.2735676912 -0.1224851426 0.6967633963 1.361861862e-38
0.2762448462 -0.1226508581 0.6982634563 1.37111898e-38
0.2783362962 -0.1226508581 0.6982634563 1.389522933e-38
0.2833991562 -0.1234794371 0.7057634563 1.407962619e-38
0.2855048562 -0.1234794371 0.7057634563 1.427699348e-38
0.09707914616 -0.1189308686 0.6832634713 1.51150092e-38
0.09843913616 -0.1186051481 0.6802634263 1.380662943e-38
0.1004962812 -0.1186051481 0.6802634263 1.379291632e-38
0.1025534262 -0.1186051481 0.6802634263 1.38887231e-38
0.1046105562 -0.1186051481 0.6802634263 1.398130269e-38
0.1063048512 -0.1184422931 0.6787634413 1.416676314e-38
0.1083591312 -0.1184422931 0.6787634413 1.41664016e-38
0.1104134262 -0.1184422931 0.6787634413 1.425787837e-38
0.1250962662 -0.1239794351 0.7297634113 1.425787977e-38
0.1272477162 -0.1239794351 0.7297634113 1.425785314e-38
0.1293991362 -0.1239794351 0.7297634113 1.370573734e-38
0.1315505562 -0.1239794351 0.7297634113 1.315403212e-38
0.1337019762 -0.1239794351 0.7297634113 1.278743423e-38
0.1358534262 -0.1239794351 0.7297634113 1.242116984e-38
0.1387819962 -0.1243051556 0.7327634563 1.32498431e-38
0.1409391462 -0.1243051556 0.7327634563 1.417357905e-38
0.1430963112 -0.1243051556 0.7327634563 1.453876864e-38
0.1452534312 -0.1243051556 0.7327634563 1.490539316e-38
0.1474105662 -0.1243051556 0.7327634563 1.527309388e-38
0.1495677162 -0.1243051556 0.7327634563 1.573262449e-38
0.1517248662 -0.1243051556 0.7327634563 1.61921565e-38
0.1542905712 -0.1244680106 0.7342634413 1.665170252e-38
0.1572734112 -0.1247937191 0.7372634113 1.628437034e-38
0.1602677262 -0.1251194396 0.7402634563 1.600814919e-38
0.1628562762 -0.1252822946 0.7417634413 1.600958693e-38
0.1667105862 -0.1259337251 0.7477634563 1.600922819e-38
0.1697419962 -0.1262594351 0.7507634113 1.555041085e-38
0.1719334212 -0.1262594351 0.7507634113 1.50915935e-38
0.1745534262 -0.1264222901 0.7522633963 1.472497178e-38
0.1767477012 -0.1264222901 0.7522633963 1.435906052e-38
0.1789419762 -0.1264222901 0.7522633963 1.454236858e-38
0.1811362662 -0.1264222901 0.7522633963 1.481786946e-38
0.1833305562 -0.1264222901 0.7522633963 1.509014315e-38
0.1855248462 -0.1264222901 0.7522633963 1.536528811e-38
0.1877191212 -0.1264222901 0.7522633963 1.527380994e-38
0.1894648662 -0.1262594351 0.7507634113 1.508870682e-38
0.1921077012 -0.1264222901 0.7522633963 1.545533415e-38
0.1943019762 -0.1264222901 0.7522633963 1.572904137e-38
0.1964962662 -0.1264222901 0.7522633963 1.536276997e-38
0.1986905712 -0.1264222901 0.7522633963 1.499686432e-38
0.2008848312 -0.1264222901 0.7522633963 1.481247867e-38
0.2030791212 -0.1264222901 0.7522633963 1.462773148e-38
0.2052734262 -0.1264222901 0.7522633963 1.444226822e-38
0.2074676862 -0.1264222901 0.7522633963 1.42593133e-38
0.2106105762 -0.1267480106 0.7552634413 1.462880627e-38
0.2137648212 -0.1270737206 0.7582633963 1.499650699e-38
0.2159705412 -0.1270737206 0.7582633963 1.472064177e-38
0.2186591412 -0.1272365861 0.7597634713 1.453552884e-38
0.2208676962 -0.1272365861 0.7597634713 1.407598562e-38
0.2230763112 -0.1272365861 0.7597634713 1.361538022e-38
0.2262676962 -0.1275622961 0.7627634413 1.260483803e-38
0.2284819962 -0.1275622961 0.7627634413 1.168289715e-38
0.2306962962 -0.1275622961 0.7627634413 1.168469361e-38
0.2329105512 -0.1275622961 0.7627634413 1.168648728e-38
0.2351248362 -0.1275622961 0.7627634413 1.168648868e-38
0.2363277162 -0.1272365861 0.7597634713 1.17797577e-38
0.2385363012 -0.1272365861 0.7597634713 1.187087573e-38
0.2407448262 -0.1272365861 0.7597634713 1.196091336e-38
0.2414105562 -0.1267480106 0.7552634413 1.196055183e-38
0.2436105912 -0.1267480106 0.7552634413 1.18683534e-38
0.2458105812 -0.1267480106 0.7552634413 1.1686832e-38
0.2480105712 -0.1267480106 0.7552634413 1.14134821e-38
0.2502105762 -0.1267480106 0.7552634413 1.113690502e-38
0.2524106112 -0.1267480106 0.7552634413 1.076882876e-38
0.2296334712 -0.1190937236 0.6847634563 1.039680644e-38
0.2316991212 -0.1190937236 0.6847634563 1.002485278e-38
0.2337648762 -0.1190937236 0.6847634563 1.094828324e-38
0.2352905562 -0.1189308686 0.6832634713 1.187198136e-38
0.2373534462 -0.1189308686 0.6832634713 1.186764013e-38
0.2399619762 -0.1190937236 0.6847634563 1.195553098e-38
0.2398334112 -0.1184422931 0.6787634413 1.241578605e-38
0.2418877212 -0.1184422931 0.6787634413 1.287602852e-38
0.2439420162 -0.1184422931 0.6787634413 1.315116647e-38
0.2459962812 -0.1184422931 0.6787634413 1.342632824e-38
0.2486105862 -0.1186051481 0.6802634263 1.388803086e-38
0.2506677012 -0.1186051481 0.6802634263 1.435079286e-38
0.2521591512 -0.1184422931 0.6787634413 1.444657301e-38
0.2547819912 -0.1186051481 0.6802634263 1.463167893e-38
0.2585534412 -0.1190937236 0.6847634563 1.426505441e-38
0.2617677162 -0.1194194336 0.6877634113 1.398987723e-38
0.2655705912 -0.1199080091 0.6922634413 1.380294822e-38
0.2676506112 -0.1199080091 0.6922634413 1.361606125e-38
0.2703134112 -0.1200708641 0.6937634263 1.361607526e-38
0.2735676912 -0.1203965726 0.6967633963 1.361609348e-38
0.2756562762 -0.1203965726 0.6967633963 1.370938212e-38
0.2783362962 -0.1205594396 0.6982634563 1.380301128e-38
0.2833991562 -0.1213737236 0.7057634563 1.389556564e-38
0.2855048562 -0.1213737236 0.7057634563 1.399824298e-38
0.09501628616 -0.1168680041 0.6832634713 1.686346674e-38
0.09707914616 -0.1168680041 0.6832634713 1.547872042e-38
0.09843913616 -0.1165479941 0.6802634263 1.407350672e-38
0.1004962812 -0.1165479941 0.6802634263 1.407165561e-38
0.1025534262 -0.1165479941 0.6802634263 1.416494705e-38
0.1046105562 -0.1165479941 0.6802634263 1.444119343e-38
0.1063048512 -0.1163880116 0.6787634413 1.471705725e-38
0.1083591312 -0.1163880116 0.6787634413 1.50840405e-38
0.1104134262 -0.1163880116 0.6787634413 1.545102515e-38
0.1124677212 -0.1163880116 0.6787634413 1.554286205e-38
0.1145220012 -0.1163880116 0.6787634413 1.572687636e-38
0.1301534112 -0.1221480116 0.7327634563 1.434968724e-38
0.1315505562 -0.1218280016 0.7297634113 1.297216741e-38
0.1344677112 -0.1221480116 0.7327634563 1.232933295e-38
0.1366248762 -0.1221480116 0.7327634563 1.168647046e-38
0.1387819962 -0.1221480116 0.7327634563 1.260481141e-38
0.1409391462 -0.1221480116 0.7327634563 1.36175214e-38
0.1430963112 -0.1221480116 0.7327634563 1.398774165e-38
0.1452534312 -0.1221480116 0.7327634563 1.435509205e-38
0.1474105662 -0.1221480116 0.7327634563 1.499830766e-38
0.1495677162 -0.1221480116 0.7327634563 1.564186939e-38
0.1521305712 -0.1223080046 0.7342634413 1.601028337e-38
0.1542905712 -0.1223080046 0.7342634413 1.637655616e-38
0.1572734112 -0.1226280041 0.7372634113 1.619253345e-38
0.1602677262 -0.1229480021 0.7402634563 1.600850372e-38
0.1628562762 -0.1231080071 0.7417634413 1.619325231e-38
0.1658705562 -0.1234280051 0.7447633963 1.646804134e-38
0.1680505662 -0.1234280051 0.7447633963 1.591631089e-38
0.1710820062 -0.1237480151 0.7477634563 1.545821241e-38
0.1741248312 -0.1240680026 0.7507634113 1.518342619e-38
0.1763162712 -0.1240680026 0.7507634113 1.500011393e-38
0.1789419762 -0.1242279971 0.7522633963 1.500047407e-38
0.1811362662 -0.1242279971 0.7522633963 1.4999751e-38
0.1833305562 -0.1242279971 0.7522633963 1.555040104e-38
0.1855248462 -0.1242279971 0.7522633963 1.609997768e-38
0.1877191212 -0.1242279971 0.7522633963 1.564151767e-38
0.1899134112 -0.1242279971 0.7522633963 1.527345682e-38
0.1921077012 -0.1242279971 0.7522633963 1.518090245e-38
0.1943019762 -0.1242279971 0.7522633963 1.508870542e-38
0.1964962662 -0.1242279971 0.7522633963 1.49046729e-38
0.1986905712 -0.1242279971 0.7522633963 1.481319613e-38
0.2008848312 -0.1242279971 0.7522633963 1.462844894e-38
0.2030791212 -0.1242279971 0.7522633963 1.444333741e-38
0.2052734262 -0.1242279971 0.7522633963 1.444225561e-38
0.2074676862 -0.1242279971 0.7522633963 1.444297588e-38
0.2106105762 -0.1245480071 0.7552634413 1.453624911e-38
0.2137648212 -0.1248680051 0.7582633963 1.47199201e-38
0.2159705412 -0.1248680051 0.7582633963 1.453625051e-38
0.2186591412 -0.1250279996 0.7597634713 1.444404507e-38
0.2208676962 -0.1250279996 0.7597634713 1.416817004e-38
0.2240534412 -0.1253479976 0.7627634413 1.389159576e-38
0.2262676962 -0.1253479976 0.7627634413 1.242116144e-38
0.2284819962 -0.1253479976 0.7627634413 1.103968154e-38
0.2306962962 -0.1253479976 0.7627634413 1.11322331e-38
0.2329105512 -0.1253479976 0.7627634413 1.131734042e-38
0.2341191462 -0.1250279996 0.7597634713 1.131877815e-38
0.2358219912 -0.1248680051 0.7582633963 1.141132831e-38
0.2380277112 -0.1248680051 0.7582633963 1.159571537e-38
0.2402334162 -0.1248680051 0.7582633963 1.177866749e-38
0.2414105562 -0.1245480071 0.7552634413 1.159427903e-38
0.2436105912 -0.1245480071 0.7552634413 1.150136874e-38
0.2447705562 -0.1242279971 0.7522633963 1.131698028e-38
0.2469648762 -0.1242279971 0.7522633963 1.113402395e-38
0.2491590912 -0.1242279971 0.7522633963 1.067591847e-38
0.2513534112 -0.1242279971 0.7522633963 1.030534229e-38
0.2296334712 -0.1170280091 0.6847634563 1.002408907e-38
0.2316991212 -0.1170280091 0.6847634563 9.840440501e-39
0.2337648762 -0.1170280091 0.6847634563 9.748627425e-39
0.2352905562 -0.1168680041 0.6832634713 9.746103687e-39
0.2373534462 -0.1168680041 0.6832634713 1.011128067e-38
0.2399619762 -0.1170280091 0.6847634563 1.048113378e-38
0.2398334112 -0.1163880116 0.6787634413 1.14023586e-38
0.2418877212 -0.1163880116 0.6787634413 1.232286035e-38
0.2439420162 -0.1163880116 0.6787634413 1.278454475e-38
0.2448820062 -0.1160680016 0.6757633963 1.324409218e-38
0.2480505912 -0.1163880116 0.6787634413 1.388731059e-38
0.2501048412 -0.1163880116 0.6787634413 1.453446105e-38
0.2521591512 -0.1163880116 0.6787634413 1.4812836e-38
0.2542134462 -0.1163880116 0.6787634413 1.508978722e-38
0.2579820012 -0.1168680041 0.6832634713 1.463241462e-38
0.2600448462 -0.1168680041 0.6832634713 1.417213151e-38
0.2638391412 -0.1173480086 0.6877634113 1.398771503e-38
0.2659105662 -0.1173480086 0.6877634113 1.389194469e-38
0.2697305712 -0.1178280011 0.6922634413 1.370756744e-38
0.2735676912 -0.1183080041 0.6967633963 1.361610189e-38
0.2756562762 -0.1183080041 0.6967633963 1.370508013e-38
0.2795191062 -0.1187879966 0.7012634263 1.380014142e-38
0.2833991562 -0.1192680116 0.7057634563 1.380336721e-38
0.2855048562 -0.1192680116 0.7057634563 1.381349159e-38
0.09501628616 -0.1148051516 0.6832634713 1.382857096e-38
0.09707914616 -0.1148051516 0.6832634713 1.325776464e-38
0.09843913616 -0.1144908626 0.6802634263 1.277954072e-38
0.1004962812 -0.1144908626 0.6802634263 1.315366498e-38
0.1025534262 -0.1144908626 0.6802634263 1.361465294e-38
0.1042505712 -0.1143337196 0.6787634413 1.425787696e-38
0.1063048512 -0.1143337196 0.6787634413 1.49932812e-38
0.1083591312 -0.1143337196 0.6787634413 1.51758788e-38
0.1104134262 -0.1143337196 0.6787634413 1.544851683e-38
0.1124677212 -0.1143337196 0.6787634413 1.563434302e-38
0.1137734112 -0.1140194306 0.6757633963 1.591056277e-38
0.1158219762 -0.1140194306 0.6757633963 1.50840391e-38
0.1178705562 -0.1140194306 0.6757633963 1.434971386e-38
0.1344677112 -0.1199908556 0.7327634563 1.389089511e-38
0.1366248762 -0.1199908556 0.7327634563 1.343348187e-38
0.1387819962 -0.1199908556 0.7327634563 1.36167661e-38
0.1409391462 -0.1199908556 0.7327634563 1.389192927e-38
0.1430963112 -0.1199908556 0.7327634563 1.370863383e-38
0.1452534312 -0.1199908556 0.7327634563 1.352533838e-38
0.1474105662 -0.1199908556 0.7327634563 1.407565071e-38
0.1499705862 -0.1201480001 0.7342634413 1.462630215e-38
0.1521305712 -0.1201480001 0.7342634413 1.49046757e-38
0.1551077112 -0.1204622876 0.7372634113 1.518305485e-38
0.1572734112 -0.1204622876 0.7372634113 1.527345962e-38
0.1602677262 -0.1207765751 0.7402634563 1.536457625e-38
0.1624391412 -0.1207765751 0.7402634563 1.55500409e-38
0.1650305562 -0.1209337196 0.7417634413 1.582518726e-38
0.1680505662 -0.1212479951 0.7447633963 1.554967937e-38
0.1710820062 -0.1215622841 0.7477634563 1.536601118e-38
0.1741248312 -0.1218765716 0.7507634113 1.527561482e-38
0.1763162712 -0.1218765716 0.7507634113 1.518378492e-38
0.1785076962 -0.1218765716 0.7507634113 1.500047827e-38
0.1811362662 -0.1220337146 0.7522633963 1.481608561e-38
0.1833305562 -0.1220337146 0.7522633963 1.527454142e-38
0.1855248462 -0.1220337146 0.7522633963 1.573300144e-38
0.1877191212 -0.1220337146 0.7522633963 1.554968918e-38
0.1899134112 -0.1220337146 0.7522633963 1.536601258e-38
0.1921077012 -0.1220337146 0.7522633963 1.518126119e-38
0.1943019762 -0.1220337146 0.7522633963 1.508906696e-38
0.1964962662 -0.1220337146 0.7522633963 1.490503723e-38
0.1986905712 -0.1220337146 0.7522633963 1.472136344e-38
0.2008848312 -0.1220337146 0.7522633963 1.453625471e-38
0.2030791212 -0.1220337146 0.7522633963 1.435113618e-38
0.2052734262 -0.1220337146 0.7522633963 1.435112497e-38
0.2074676862 -0.1220337146 0.7522633963 1.435113198e-38
0.2106105762 -0.1223480036 0.7552634413 1.444440941e-38
0.2137648212 -0.1226622791 0.7582633963 1.453660504e-38
0.2159705412 -0.1226622791 0.7582633963 1.453696657e-38
0.2186591412 -0.1228194356 0.7597634713 1.444583313e-38
0.2208676962 -0.1228194356 0.7597634713 1.380117698e-38
0.2240534412 -0.1231337231 0.7627634413 1.306614549e-38
0.2262676962 -0.1231337231 0.7627634413 1.214564934e-38
0.2284819962 -0.1231337231 0.7627634413 1.113150722e-38
0.2306962962 -0.1231337231 0.7627634413 1.104002626e-38
0.2319105762 -0.1228194356 0.7597634713 1.09485537e-38
0.2341191462 -0.1228194356 0.7597634713 1.104182832e-38
0.2358219912 -0.1226622791 0.7582633963 1.113509455e-38
0.2380277112 -0.1226622791 0.7582633963 1.122549091e-38
0.2392105662 -0.1223480036 0.7552634413 1.140772977e-38
0.2414105562 -0.1223480036 0.7552634413 1.113150862e-38
0.2425762362 -0.1220337146 0.7522633963 1.094712437e-38
0.2447705562 -0.1220337146 0.7522633963 1.076238279e-38
0.2469648762 -0.1220337146 0.7522633963 1.057762299e-38
0.2486334312 -0.1218765716 0.7507634113 1.011771683e-38
0.2508248412 -0.1218765716 0.7507634113 9.750020316e-39
0.2306962962 -0.1152765716 0.6877634113 9.657471559e-39
0.2316991212 -0.1149622946 0.6847634563 9.563475261e-39
0.2337648762 -0.1149622946 0.6847634563 9.56454305e-39
0.2352905562 -0.1148051516 0.6832634713 9.560968338e-39
0.2373534462 -0.1148051516 0.6832634713 9.83684617e-39
0.2394162912 -0.1148051516 0.6832634713 1.020454549e-38
0.2398334112 -0.1143337196 0.6787634413 1.094173918e-38
0.2418877212 -0.1143337196 0.6787634413 1.167749935e-38
0.2439420162 -0.1143337196 0.6787634413 1.222887106e-38
0.2448820062 -0.1140194306 0.6757633963 1.278060991e-38
0.2480505912 -0.1143337196 0.6787634413 1.333414242e-38
0.2501048412 -0.1143337196 0.6787634413 1.389160978e-38
0.2521591512 -0.1143337196 0.6787634413 1.426038529e-38
0.2542134462 -0.1143337196 0.6787634413 1.462954195e-38
0.2568391062 -0.1144908626 0.6802634263 1.444589198e-38
0.2600448462 -0.1148051516 0.6832634713 1.42625517e-38
0.2626848462 -0.1149622946 0.6847634563 1.416925465e-38
0.2647506012 -0.1149622946 0.6847634563 1.398415713e-38
0.2668162662 -0.1149622946 0.6847634563 1.379977708e-38
0.2723962812 -0.1159051466 0.6937634263 1.35242762e-38
0.2762448462 -0.1163765786 0.6982634563 1.361396491e-38
0.2795191062 -0.1166908661 0.7012634263 1.370399973e-38
0.2816162862 -0.1166908661 0.7012634263 1.380300427e-38
0.2855048562 -0.1171622981 0.7057634563 1.399644091e-38
0.09501628616 -0.1127422976 0.6832634713 1.077138753e-38
0.09707914616 -0.1127422976 0.6832634713 1.112865978e-38
0.09843913616 -0.1124337206 0.6802634263 1.149850169e-38
0.1004962812 -0.1124337206 0.6802634263 1.232752247e-38
0.1025534262 -0.1124337206 0.6802634263 1.315619853e-38
0.1042505712 -0.1122794381 0.6787634413 1.416854699e-38
0.1063048512 -0.1122794381 0.6787634413 1.526878208e-38
0.1083591312 -0.1122794381 0.6787634413 1.535954419e-38
0.1104134262 -0.1122794381 0.6787634413 1.554286906e-38
0.1117248312 -0.1119708611 0.6757633963 1.581803083e-38
0.1137734112 -0.1119708611 0.6757633963 1.609531837e-38
0.1158219762 -0.1119708611 0.6757633963 1.591306829e-38
0.1178705562 -0.1119708611 0.6757633963 1.572688617e-38
0.1199191362 -0.1119708611 0.6757633963 1.545281321e-38
0.1370105712 -0.1179880061 0.7342634413 1.51783591e-38
0.1391705862 -0.1179880061 0.7342634413 1.46273223e-38
0.1409391462 -0.1178337221 0.7327634563 1.416852177e-38
0.1430963112 -0.1178337221 0.7327634563 1.342739743e-38
0.1452534312 -0.1178337221 0.7327634563 1.26941582e-38
0.1474105662 -0.1178337221 0.7327634563 1.315478182e-38
0.1499705862 -0.1179880061 0.7342634413 1.36139579e-38
0.1521305712 -0.1179880061 0.7342634413 1.379798622e-38
0.1542905712 -0.1179880061 0.7342634413 1.407851496e-38
0.1572734112 -0.1182965711 0.7372634113 1.444621708e-38
0.1602677262 -0.1186051481 0.7402634563 1.481319893e-38
0.1624391412 -0.1186051481 0.7402634563 1.499902092e-38
0.1650305562 -0.1187594306 0.7417634413 1.518269331e-38
0.1680505662 -0.1190679971 0.7447633963 1.527453161e-38
0.1702305612 -0.1190679971 0.7447633963 1.536600838e-38
0.1732677162 -0.1193765741 0.7477634563 1.536816077e-38
0.1754534262 -0.1193765741 0.7477634563 1.536780904e-38
0.1785076962 -0.1196851391 0.7507634113 1.500047407e-38
0.1806991362 -0.1196851391 0.7507634113 1.472388858e-38
0.1833305562 -0.1198394231 0.7522633963 1.49986734e-38
0.1855248462 -0.1198394231 0.7522633963 1.536601678e-38
0.1877191212 -0.1198394231 0.7522633963 1.536601818e-38
0.1899134112 -0.1198394231 0.7522633963 1.545784948e-38
0.1921077012 -0.1198394231 0.7522633963 1.527345682e-38
0.1943019762 -0.1198394231 0.7522633963 1.518126959e-38
0.1964962662 -0.1198394231 0.7522633963 1.490576871e-38
0.1986905712 -0.1198394231 0.7522633963 1.462917622e-38
0.2008848312 -0.1198394231 0.7522633963 1.444406048e-38
0.2030791212 -0.1198394231 0.7522633963 1.435150052e-38
0.2052734262 -0.1198394231 0.7522633963 1.425930068e-38
0.2074676862 -0.1198394231 0.7522633963 1.425930349e-38
0.2106105762 -0.1201480001 0.7552634413 1.435257671e-38
0.2137648212 -0.1204565651 0.7582633963 1.444513248e-38
0.2164505862 -0.1206108701 0.7597634713 1.444585415e-38
0.2196248412 -0.1209194366 0.7627634413 1.453695396e-38
0.2218391412 -0.1209194366 0.7627634413 1.343419233e-38
0.2240534412 -0.1209194366 0.7627634413 1.233038112e-38
0.2262676962 -0.1209194366 0.7627634413 1.177830175e-38
0.2284819962 -0.1209194366 0.7627634413 1.131482229e-38
0.2306962962 -0.1209194366 0.7627634413 1.094640831e-38
0.2319105762 -0.1206108701 0.7597634713 1.058014252e-38
0.2341191462 -0.1206108701 0.7597634713 1.076488971e-38
0.2358219912 -0.1204565651 0.7582633963 1.094819917e-38
0.2380277112 -0.1204565651 0.7582633963 1.094783763e-38
0.2392105662 -0.1201480001 0.7552634413 1.10382354e-38
0.2414105562 -0.1201480001 0.7552634413 1.076129258e-38
0.2425762362 -0.1198394231 0.7522633963 1.048506862e-38
0.2447705562 -0.1198394231 0.7522633963 1.020884467e-38
0.2464420212 -0.1196851391 0.7507634113 1.002516807e-38
0.2486334312 -0.1196851391 0.7507634113 9.657820482e-39
0.2497677312 -0.1193765741 0.7477634563 9.290477096e-39
0.2519534262 -0.1193765741 0.7477634563 9.29119316e-39
0.2541391512 -0.1193765741 0.7477634563 9.380514727e-39
0.2332277112 -0.1127422976 0.6832634713 9.380870656e-39
0.2352905562 -0.1127422976 0.6832634713 9.377650473e-39
0.2373534462 -0.1127422976 0.6832634713 9.6535227e-39
0.2394162912 -0.1127422976 0.6832634713 9.929748055e-39
0.2398334112 -0.1122794381 0.6787634413 1.04814799e-38
0.2418877212 -0.1122794381 0.6787634413 1.112541017e-38
0.2439420162 -0.1122794381 0.6787634413 1.167750495e-38
0.2448820062 -0.1119708611 0.6757633963 1.232071636e-38
0.2480505912 -0.1122794381 0.6787634413 1.278133298e-38
0.2501048412 -0.1122794381 0.6787634413 1.333772414e-38
0.2510277012 -0.1119708611 0.6757633963 1.370757445e-38
0.2542134462 -0.1122794381 0.6787634413 1.416819947e-38
0.2562677112 -0.1122794381 0.6787634413 1.426184264e-38
0.2588962812 -0.1124337206 0.6802634263 1.444442202e-38
0.2621077362 -0.1127422976 0.6832634713 1.425966082e-38
0.2641705662 -0.1127422976 0.6832634713 1.416782952e-38
0.2662334112 -0.1127422976 0.6832634713 1.380013301e-38
0.2682963012 -0.1127422976 0.6832634713 1.35242748e-38
0.2762448462 -0.1142851481 0.6982634563 1.36150411e-38
0.2795191062 -0.1145937146 0.7012634263 1.370902339e-38
0.2816162862 -0.1145937146 0.7012634263 1.389484117e-38
0.09501628616 -0.1106794331 0.6832634713 1.068020504e-38
0.09638199116 -0.1103765666 0.6802634263 1.103715499e-38
0.09843913616 -0.1103765666 0.6802634263 1.140737945e-38
0.1004962812 -0.1103765666 0.6802634263 1.214351096e-38
0.1021962912 -0.1102251446 0.6787634413 1.288177525e-38
0.1042505712 -0.1102251446 0.6787634413 1.379976587e-38
0.1063048512 -0.1102251446 0.6787634413 1.471812223e-38
0.1076276862 -0.1099222781 0.6757633963 1.490000237e-38
0.1096762662 -0.1099222781 0.6757633963 1.517589281e-38
0.1124677212 -0.1102251446 0.6787634413 1.535779537e-38
0.1145220012 -0.1102251446 0.6787634413 1.563758422e-38
0.1165762812 -0.1102251446 0.6787634413 1.554429138e-38
0.1190105562 -0.1103765666 0.6802634263 1.545137828e-38
0.1218334362 -0.1106794331 0.6832634713 1.545209434e-38
0.1238962962 -0.1106794331 0.6832634713 1.545422712e-38
0.1391705862 -0.1158280001 0.7342634413 1.499503142e-38
0.1413305562 -0.1158280001 0.7342634413 1.453730709e-38
0.1434905712 -0.1158280001 0.7342634413 1.407420317e-38
0.1452534312 -0.1156765781 0.7327634563 1.361144117e-38
0.1478105562 -0.1158280001 0.7342634413 1.370866185e-38
0.1499705862 -0.1158280001 0.7342634413 1.389340904e-38
0.1521305712 -0.1158280001 0.7342634413 1.370902199e-38
0.1551077112 -0.1161308546 0.7372634113 1.352498946e-38
0.1572734112 -0.1161308546 0.7372634113 1.389340484e-38
0.1602677262 -0.1164337211 0.7402634563 1.426218035e-38
0.1624391412 -0.1164337211 0.7402634563 1.44476436e-38
0.1650305562 -0.1165851431 0.7417634413 1.45416357e-38
0.1672048512 -0.1165851431 0.7417634413 1.48160716e-38
0.1702305612 -0.1168879976 0.7447633963 1.499902232e-38
0.1724105712 -0.1168879976 0.7447633963 1.518340798e-38
0.1754534262 -0.1171908641 0.7477634563 1.536816357e-38
0.1776391362 -0.1171908641 0.7477634563 1.545929001e-38
0.1798248462 -0.1171908641 0.7477634563 1.555040524e-38
0.1828905612 -0.1174937186 0.7507634113 1.545784948e-38
0.1850820012 -0.1174937186 0.7507634113 1.536637411e-38
0.1872734112 -0.1174937186 0.7507634113 1.536637692e-38
0.1899134112 -0.1176451406 0.7522633963 1.536637411e-38
0.1921077012 -0.1176451406 0.7522633963 1.536565385e-38
0.1943019762 -0.1176451406 0.7522633963 1.545570829e-38
0.1964962662 -0.1176451406 0.7522633963 1.508837892e-38
0.1986905712 -0.1176451406 0.7522633963 1.472101872e-38
0.2008848312 -0.1176451406 0.7522633963 1.453625471e-38
0.2030791212 -0.1176451406 0.7522633963 1.435222359e-38
0.2052734262 -0.1176451406 0.7522633963 1.425931189e-38
0.2074676862 -0.1176451406 0.7522633963 1.4167475e-38
0.2106105762 -0.1179480071 0.7552634413 1.426038529e-38
0.2137648212 -0.1182508616 0.7582633963 1.435366132e-38
0.2159705412 -0.1182508616 0.7582633963 1.435330819e-38
0.2196248412 -0.1187051381 0.7627634413 1.435149211e-38
0.2218391412 -0.1187051381 0.7627634413 1.343275599e-38
0.2240534412 -0.1187051381 0.7627634413 1.251297311e-38
0.2262676962 -0.1187051381 0.7627634413 1.196089234e-38
0.2284819962 -0.1187051381 0.7627634413 1.149849748e-38
0.2306962962 -0.1187051381 0.7627634413 1.094534332e-38
0.2319105762 -0.1184022956 0.7597634713 1.039396741e-38
0.2336162712 -0.1182508616 0.7582633963 1.048543997e-38
0.2358219912 -0.1182508616 0.7582633963 1.057727406e-38
0.2380277112 -0.1182508616 0.7582633963 1.05765552e-38
0.2392105662 -0.1179480071 0.7552634413 1.057583072e-38
0.2414105562 -0.1179480071 0.7552634413 1.020776427e-38
0.2425762362 -0.1176451406 0.7522633963 9.93153471e-39
0.2447705562 -0.1176451406 0.7522633963 9.747500781e-39
0.2464420212 -0.1174937186 0.7507634113 9.56383119e-39
0.2486334312 -0.1174937186 0.7507634113 9.380879064e-39
0.2497677312 -0.1171908641 0.7477634563 9.198277263e-39
0.2519534262 -0.1171908641 0.7477634563 9.197911524e-39
0.2530705662 -0.1168879976 0.7447633963 9.197555594e-39
0.2552505762 -0.1168879976 0.7447633963 9.105364168e-39
0.2574305412 -0.1168879976 0.7447633963 9.011020348e-39
0.2378962812 -0.1108308656 0.6847634563 9.377288938e-39
0.2399619762 -0.1108308656 0.6847634563 9.743200196e-39
0.2398334112 -0.1102251446 0.6787634413 1.001978709e-38
0.2418877212 -0.1102251446 0.6787634413 1.038821508e-38
0.2439420162 -0.1102251446 0.6787634413 1.103358589e-38
0.2459962812 -0.1102251446 0.6787634413 1.167715183e-38
0.2480505912 -0.1102251446 0.6787634413 1.22303186e-38
0.2501048412 -0.1102251446 0.6787634413 1.269236173e-38
0.2510277012 -0.1099222781 0.6757633963 1.315512234e-38
0.2542134462 -0.1102251446 0.6787634413 1.361430542e-38
0.2562677112 -0.1102251446 0.6787634413 1.398201314e-38
0.2583220212 -0.1102251446 0.6787634413 1.434971106e-38
0.2609533962 -0.1103765666 0.6802634263 1.444297868e-38
0.2630105562 -0.1103765666 0.6802634263 1.444333741e-38
0.2650677312 -0.1103765666 0.6802634263 1.398452007e-38
0.2682963012 -0.1106794331 0.6832634713 1.343387423e-38
0.09501628616 -0.1086165791 0.6832634713 1.067877571e-38
0.09707914616 -0.1086165791 0.6832634713 1.094602015e-38
0.09843913616 -0.1083194351 0.6802634263 1.131481668e-38
0.1004962812 -0.1083194351 0.6802634263 1.195983857e-38
0.1021962912 -0.1081708526 0.6787634413 1.26044737e-38
0.1042505712 -0.1081708526 0.6787634413 1.343277982e-38
0.1063048512 -0.1081708526 0.6787634413 1.425786856e-38
0.1076276862 -0.1078737191 0.6757633963 1.453266319e-38
0.1096762662 -0.1078737191 0.6757633963 1.480710749e-38
0.1124677212 -0.1081708526 0.6787634413 1.49897149e-38
0.1145220012 -0.1081708526 0.6787634413 1.517444947e-38
0.1169534112 -0.1083194351 0.6802634263 1.517587319e-38
0.1190105562 -0.1083194351 0.6802634263 1.526770308e-38
0.1218334362 -0.1086165791 0.6832634713 1.545172861e-38
0.1238962962 -0.1086165791 0.6832634713 1.572937488e-38
0.1259591562 -0.1086165791 0.6832634713 1.536273774e-38
0.1413305562 -0.1136680061 0.7342634413 1.499684891e-38
0.1316619762 -0.1092108566 0.6892633963 1.47220767e-38
0.1337362662 -0.1092108566 0.6892633963 1.453840851e-38
0.1358105562 -0.1092108566 0.6892633963 1.435474032e-38
0.1499705862 -0.1136680061 0.7342634413 1.426183283e-38
0.1521305712 -0.1136680061 0.7342634413 1.36161173e-38
0.1551077112 -0.1139651396 0.7372634113 1.297361915e-38
0.1572734112 -0.1139651396 0.7372634113 1.334095273e-38
0.1594391412 -0.1139651396 0.7372634113 1.380013161e-38
0.1624391412 -0.1142622941 0.7402634563 1.389196851e-38
0.1650305562 -0.1144108661 0.7417634413 1.398739693e-38
0.1680505662 -0.1147080101 0.7447633963 1.435833185e-38
0.1702305612 -0.1147080101 0.7447633963 1.472280397e-38
0.1724105712 -0.1147080101 0.7447633963 1.499902793e-38
0.1754534262 -0.1150051541 0.7477634563 1.536673845e-38
0.1776391362 -0.1150051541 0.7477634563 1.59184787e-38
0.1798248462 -0.1150051541 0.7477634563 1.646912314e-38
0.1828905612 -0.1153022876 0.7507634113 1.591702556e-38
0.1850820012 -0.1153022876 0.7507634113 1.536601678e-38
0.1872734112 -0.1153022876 0.7507634113 1.527382816e-38
0.1894648662 -0.1153022876 0.7507634113 1.527454002e-38
0.1921077012 -0.1154508596 0.7522633963 1.554968357e-38
0.1943019762 -0.1154508596 0.7522633963 1.582411667e-38
0.1964962662 -0.1154508596 0.7522633963 1.527131423e-38
0.1986905712 -0.1154508596 0.7522633963 1.481212274e-38
0.2008848312 -0.1154508596 0.7522633963 1.453660364e-38
0.2030791212 -0.1154508596 0.7522633963 1.435257531e-38
0.2052734262 -0.1154508596 0.7522633963 1.425930629e-38
0.2074676862 -0.1154508596 0.7522633963 1.416783233e-38
0.2106105762 -0.1157480036 0.7552634413 1.416855259e-38
0.2128105812 -0.1157480036 0.7552634413 1.426039229e-38
0.2159705412 -0.1160451476 0.7582633963 1.426075663e-38
0.2186591412 -0.1161937196 0.7597634713 1.425966222e-38
0.2218391412 -0.1164908636 0.7627634413 1.343240707e-38
0.2240534412 -0.1164908636 0.7627634413 1.269628537e-38
0.2262676962 -0.1164908636 0.7627634413 1.214347733e-38
0.2284819962 -0.1164908636 0.7627634413 1.168143419e-38
0.2306962962 -0.1164908636 0.7627634413 1.09442433e-38
0.2319105762 -0.1161937196 0.7597634713 1.020955513e-38
0.2336162712 -0.1160451476 0.7582633963 1.020955233e-38
0.2358219912 -0.1160451476 0.7582633963 1.020883906e-38
0.2380277112 -0.1160451476 0.7582633963 1.011629031e-38
0.2392105662 -0.1157480036 0.7552634413 1.011592597e-38
0.2414105562 -0.1157480036 0.7552634413 9.748219648e-39
0.2425762362 -0.1154508596 0.7522633963 9.379439931e-39
0.2447705562 -0.1154508596 0.7522633963 9.286885568e-39
0.2464420212 -0.1153022876 0.7507634113 9.196133276e-39
0.2486334312 -0.1153022876 0.7507634113 9.10466492e-39
0.2497677312 -0.1150051541 0.7477634563 9.103932041e-39
0.2519534262 -0.1150051541 0.7477634563 9.103200563e-39
0.2530705662 -0.1147080101 0.7447633963 9.105714493e-39
0.2552505762 -0.1147080101 0.7447633963 8.830210807e-39
0.2574305412 -0.1147080101 0.7447633963 8.64403149e-39
0.2378962812 -0.1087651406 0.6847634563 9.101059379e-39
0.2399619762 -0.1087651406 0.6847634563 9.55988093e-39
0.2414791362 -0.1086165791 0.6832634713 9.559525e-39
0.2424391362 -0.1083194351 0.6802634263 9.652802433e-39
0.2444962962 -0.1083194351 0.6802634263 1.03896472e-38
0.2459962812 -0.1081708526 0.6787634413 1.112505144e-38
0.2480505912 -0.1081708526 0.6787634413 1.158781905e-38
0.2501048412 -0.1081708526 0.6787634413 1.214134035e-38
0.2521591512 -0.1081708526 0.6787634413 1.260302615e-38
0.2542134462 -0.1081708526 0.6787634413 1.31547636e-38
0.2562677112 -0.1081708526 0.6787634413 1.370685978e-38
0.2583220212 -0.1081708526 0.6787634413 1.434970686e-38
0.2603762712 -0.1081708526 0.6787634413 1.453445264e-38
0.2624305812 -0.1081708526 0.6787634413 1.48106766e-38
0.2644848762 -0.1081708526 0.6787634413 1.407671009e-38
0.2911248912 -0.1127765846 0.7252634713 1.38008743e-38
0.2932677612 -0.1127765846 0.7252634713 1.409259101e-38
0.09501628616 -0.1065537146 0.6832634713 1.067770652e-38
0.09638199116 -0.1062622931 0.6802634263 1.06733667e-38
0.09843913616 -0.1062622931 0.6802634263 1.067124233e-38
0.1004962812 -0.1062622931 0.6802634263 1.14963549e-38
0.1021962912 -0.1061165816 0.6787634413 1.232143102e-38
0.1042505712 -0.1061165816 0.6787634413 1.315762926e-38
0.1063048512 -0.1061165816 0.6787634413 1.3981646e-38
0.1083591312 -0.1061165816 0.6787634413 1.42571609e-38
0.1104134262 -0.1061165816 0.6787634413 1.462235189e-38
0.1124677212 -0.1061165816 0.6787634413 1.462235329e-38
0.1148962962 -0.1062622931 0.6802634263 1.471310979e-38
0.1169534112 -0.1062622931 0.6802634263 1.489929051e-38
0.1197705912 -0.1065537146 0.6832634713 1.508367056e-38
0.1218334362 -0.1065537146 0.6832634713 1.526697441e-38
0.1242819912 -0.1066994261 0.6847634563 1.545386839e-38
0.1263477012 -0.1066994261 0.6847634563 1.527198545e-38
0.1291962762 -0.1069908596 0.6877634113 1.508940607e-38
0.1316619762 -0.1071365696 0.6892633963 1.508942289e-38
0.1345305762 -0.1074280031 0.6922634413 1.518161852e-38
0.1366105662 -0.1074280031 0.6922634413 1.49057561e-38
0.1386905562 -0.1074280031 0.6922634413 1.472244944e-38
0.1407705612 -0.1074280031 0.6922634413 1.44451563e-38
0.1551077112 -0.1117994336 0.7372634113 1.416819947e-38
0.1572734112 -0.1117994336 0.7372634113 1.398523193e-38
0.1594391412 -0.1117994336 0.7372634113 1.388730218e-38
0.1628562762 -0.1122365786 0.7417634413 1.342848904e-38
0.1650305562 -0.1122365786 0.7417634413 1.29696759e-38
0.1680505662 -0.1125280001 0.7447633963 1.37079528e-38
0.1702305612 -0.1125280001 0.7447633963 1.435475013e-38
0.1724105712 -0.1125280001 0.7447633963 1.463061955e-38
0.1745905512 -0.1125280001 0.7447633963 1.499868881e-38
0.1767705462 -0.1125280001 0.7447633963 1.54600299e-38
0.1798248462 -0.1128194336 0.7477634563 1.591919196e-38
0.1828905612 -0.1131108551 0.7507634113 1.56418778e-38
0.1850820012 -0.1131108551 0.7507634113 1.536673705e-38
0.1872734112 -0.1131108551 0.7507634113 1.527454983e-38
0.1894648662 -0.1131108551 0.7507634113 1.518270733e-38
0.1916562762 -0.1131108551 0.7507634113 1.536601398e-38
0.1943019762 -0.1132565666 0.7522633963 1.554967797e-38
0.1964962662 -0.1132565666 0.7522633963 1.518089545e-38
0.1986905712 -0.1132565666 0.7522633963 1.481318632e-38
0.2008848312 -0.1132565666 0.7522633963 1.426216494e-38
0.2030791212 -0.1132565666 0.7522633963 1.380299026e-38
