# .PCD v0.7 - Point Cloud Data file format
VERSION 0.7
FIELDS x y z rgb
SIZE 4 4 4 4
TYPE F F F F
COUNT 1 1 1 1
WIDTH 856
HEIGHT 1
VIEWPOINT 0 0 0 1 0 0 0
POINTS 856
DATA ascii
0.1364171393 0.08601601923 0.7427414527 1.242364033e-38
0.1385771393 0.08601601923 0.7427414527 1.242327459e-38
0.1414685693 0.08637030573 0.7457414227 1.242291026e-38
0.1436342693 0.08637030573 0.7457414227 1.251405071e-38
0.1457999843 0.08637030573 0.7457414227 1.25137158e-38
0.1487142893 0.08672459223 0.7487414677 1.260627717e-38
0.1508857193 0.08672459223 0.7487414677 1.288609825e-38
0.1530571343 0.08672459223 0.7487414677 1.315549368e-38
0.1552285643 0.08672459223 0.7487414677 1.297145134e-38
0.1577857193 0.08690174073 0.7502414527 1.287960043e-38
0.1599599843 0.08690174073 0.7502414527 1.287994235e-38
0.1621342793 0.08690174073 0.7502414527 1.297321277e-38
0.1643085593 0.08690174073 0.7502414527 1.297500504e-38
0.1664828543 0.08690174073 0.7502414527 1.297464911e-38
0.1686571343 0.08690174073 0.7502414527 1.260730992e-38
0.1708314293 0.08690174073 0.7502414527 1.224069241e-38
0.1738171193 0.08725601523 0.7532414077 1.242544661e-38
0.1759971293 0.08725601523 0.7532414077 1.26080414e-38
0.1781771243 0.08725601523 0.7532414077 1.297430859e-38
0.1803571343 0.08725601523 0.7532414077 1.333985831e-38
0.1825371143 0.08725601523 0.7532414077 1.343097915e-38
0.1847171243 0.08725601523 0.7532414077 1.361573475e-38
0.1868971343 0.08725601523 0.7532414077 1.380049174e-38
0.1890771293 0.08725601523 0.7532414077 1.407600104e-38
0.1912571393 0.08725601523 0.7532414077 1.407636257e-38
0.1934371193 0.08725601523 0.7532414077 1.41674764e-38
0.1964857043 0.08761031223 0.7562414677 1.416675613e-38
0.1995457043 0.08796458823 0.7592414227 1.425857761e-38
0.2008571393 0.08761031223 0.7562414677 1.398305851e-38
0.2039285693 0.08796458823 0.7592414227 1.370828631e-38
0.2061199793 0.08796458823 0.7592414227 1.380085608e-38
0.2083114343 0.08796458823 0.7592414227 1.398417395e-38
0.2109542693 0.08814173673 0.7607414077 1.398417955e-38
0.2131485443 0.08814173673 0.7607414077 1.3985955e-38
0.2153428343 0.08814173673 0.7607414077 1.361895493e-38
0.2175371393 0.08814173673 0.7607414077 1.325126963e-38
0.2197313993 0.08814173673 0.7607414077 1.371010519e-38
0.2219256893 0.08814173673 0.7607414077 1.426218175e-38
0.2241199943 0.08814173673 0.7607414077 1.426216914e-38
0.2263142543 0.08814173673 0.7607414077 1.43547249e-38
0.2285085443 0.08814173673 0.7607414077 1.435544377e-38
0.2307028193 0.08814173673 0.7607414077 1.44476394e-38
0.2328971393 0.08814173673 0.7607414077 1.435616264e-38
0.2350914293 0.08814173673 0.7607414077 1.435616544e-38
0.2372856743 0.08814173673 0.7607414077 1.426469288e-38
0.2394799643 0.08814173673 0.7607414077 1.426539493e-38
0.2411828093 0.08796458823 0.7592414227 1.408242599e-38
0.2433742643 0.08796458823 0.7592414227 1.389769141e-38
0.2460628343 0.08814173673 0.7607414077 1.380515246e-38
0.2482570943 0.08814173673 0.7607414077 1.371367009e-38
0.2504514143 0.08814173673 0.7607414077 1.362254786e-38
0.2526456893 0.08814173673 0.7607414077 1.36196808e-38
0.2543314043 0.08796458823 0.7592414227 1.343529655e-38
0.2565228143 0.08796458823 0.7592414227 1.325198008e-38
0.2587142693 0.08796458823 0.7592414227 1.371186943e-38
0.2614228043 0.08814173673 0.7607414077 1.417141265e-38
0.2636171243 0.08814173673 0.7607414077 1.444728627e-38
0.2658114443 0.08814173673 0.7607414077 1.472387877e-38
0.2680056593 0.08814173673 0.7607414077 1.463313068e-38
0.2701999793 0.08814173673 0.7607414077 1.454164411e-38
0.2723942993 0.08814173673 0.7607414077 1.454199303e-38
0.2745885293 0.08814173673 0.7607414077 1.463238659e-38
0.2767828343 0.08814173673 0.7607414077 1.472313888e-38
0.2789771543 0.08814173673 0.7607414077 1.490679866e-38
0.2811713843 0.08814173673 0.7607414077 1.508866478e-38
0.2833656893 0.08814173673 0.7607414077 1.536490135e-38
0.2855599643 0.08814173673 0.7607414077 1.499829084e-38
0.2877542843 0.08814173673 0.7607414077 1.472244104e-38
0.2899485443 0.08814173673 0.7607414077 1.472245645e-38
0.2915856743 0.08796458823 0.7592414227 1.472351723e-38
0.2943371393 0.08814173673 0.7607414077 1.481677365e-38
0.2976571343 0.08849602323 0.7637414527 1.490825742e-38
0.2998571243 0.08849602323 0.7637414527 1.481607019e-38
0.3020571593 0.08849602323 0.7637414527 1.472350462e-38
0.3042571493 0.08849602323 0.7637414527 1.472313468e-38
0.3064571393 0.08849602323 0.7637414527 1.481496317e-38
0.3086571293 0.08849602323 0.7637414527 1.481495756e-38
0.3108571793 0.08849602323 0.7637414527 1.481460724e-38
0.3130571243 0.08849602323 0.7637414527 1.499828664e-38
0.3152571593 0.08849602323 0.7637414527 1.518196884e-38
0.3174571493 0.08849602323 0.7637414527 1.499830906e-38
0.3208399943 0.08885030973 0.7667414077 1.481463947e-38
0.3236399993 0.08902744623 0.7682414827 1.472316411e-38
0.3258485693 0.08902744623 0.7682414827 1.463095727e-38
0.3292571243 0.08938173273 0.7712414527 1.444727366e-38
0.3314714243 0.08938173273 0.7712414527 1.435363189e-38
0.3348970943 0.08973601923 0.7742414077 1.426142365e-38
0.3371171243 0.08973601923 0.7742414077 1.426143486e-38
0.3393371393 0.08973601923 0.7742414077 1.389518028e-38
0.3427857443 0.09009031623 0.7772414527 1.36196738e-38
0.3450114443 0.09009031623 0.7772414527 1.371151069e-38
0.3472371893 0.09009031623 0.7772414527 1.3802277e-38
0.3494628293 0.09009031623 0.7772414527 1.361717808e-38
0.3523142843 0.09026744373 0.7787414377 1.352317758e-38
0.3545428493 0.09026744373 0.7787414377 1.333913524e-38
0.3567713993 0.09026744373 0.7787414377 1.315545584e-38
0.3602686043 0.09062174073 0.7817414827 1.297213518e-38
0.3625028843 0.09062174073 0.7817414827 1.287958782e-38
0.3660171593 0.09097601523 0.7847414527 1.287923469e-38
0.3682571693 0.09097601523 0.7847414527 1.287923469e-38
0.3717885593 0.09133030173 0.7877414077 1.278775653e-38
0.3740342393 0.09133030173 0.7877414077 1.269197217e-38
0.3762800093 0.09133030173 0.7877414077 1.251045077e-38
0.3785256893 0.09133030173 0.7877414077 1.232426445e-38
0.3820856993 0.09168460023 0.7907414677 1.204982995e-38
0.3849971393 0.09186173673 0.7922414377 1.17736088e-38
0.3872513993 0.09186173673 0.7922414377 1.168106005e-38
0.3908371643 0.09221601273 0.7952414077 1.158851409e-38
0.3930971393 0.09221601273 0.7952414077 1.140413264e-38
0.3967000193 0.09257030973 0.7982414527 1.122047566e-38
0.3989657243 0.09257030973 0.7982414527 1.112901431e-38
0.4046171393 0.09345601923 0.8057414527 1.103788087e-38
0.4068971543 0.09345601923 0.8057414527 1.057976557e-38
0.4105428143 0.09381030573 0.8087414077 1.011807276e-38
0.4128285443 0.09381030573 0.8087414077 9.566698247e-39
0.4164914543 0.09416459223 0.8117414677 9.104642499e-39
0.4201657343 0.09451886673 0.8147414227 8.921323233e-39
0.4252400243 0.09522743973 0.8207414377 8.736218712e-39
0.4289428493 0.09558174873 0.8237414827 7.633117962e-39
0.4312571543 0.09558174873 0.8237414827 6.53219483e-39
0.4349771543 0.09593602323 0.8267414527 6.888084003e-39
0.4387085543 0.09629030973 0.8297414077 7.262600635e-39
0.4417428443 0.09646744773 0.8312414827 9.015009844e-39
0.4483400093 0.09753031773 0.8402414527 1.086536841e-38
0.4506857393 0.09753031773 0.8402414527 1.216507414e-38
0.4544656793 0.09788459223 0.8432414077 1.346085904e-38
0.4568170943 0.09788459223 0.8432414077 1.503214902e-38
0.4606142843 0.09823887873 0.8462414677 1.659336086e-38
0.4615199843 0.09788459223 0.8432414077 1.732805324e-38
0.4638714293 0.09788459223 0.8432414077 1.815529998e-38
0.4676857043 0.09823887873 0.8462414677 1.76972071e-38
0.06934282434 0.08529601323 0.7187414077 1.085417484e-38
0.07145714934 0.08529601323 0.7187414077 1.16828467e-38
0.07328855934 0.08511602673 0.7172414227 1.250937598e-38
0.07568569434 0.08529601323 0.7187414077 1.241755169e-38
0.07779995934 0.08529601323 0.7187414077 1.241755169e-38
0.07991428434 0.08529601323 0.7187414077 1.241611816e-38
0.08261711934 0.08565602223 0.7217414527 1.241467903e-38
0.08473714434 0.08565602223 0.7217414527 1.241682722e-38
0.08685713934 0.08565602223 0.7217414527 1.232714272e-38
0.08927999934 0.08583602073 0.7232414377 1.214311159e-38
0.09262570434 0.08655601473 0.7292414527 1.204840063e-38
0.09506855934 0.08673601323 0.7307414377 1.18643667e-38
0.09720569934 0.08673601323 0.7307414377 1.177253541e-38
0.09934286934 0.08673601323 0.7307414377 1.177397594e-38
0.1014799793 0.08673601323 0.7307414377 1.177541087e-38
0.1042571393 0.08709602223 0.7337414827 1.18676051e-38
0.1064000093 0.08709602223 0.7337414827 1.195980073e-38
0.1085428643 0.08709602223 0.7337414827 1.205199776e-38
0.1106857193 0.08709602223 0.7337414827 1.223639042e-38
0.1134914093 0.08745601923 0.7367414377 1.22360359e-38
0.1156399943 0.08745601923 0.7367414377 1.232750705e-38
0.1181257043 0.08763602823 0.7382414227 1.205414876e-38
0.1202771243 0.08763602823 0.7382414227 1.178151213e-38
0.1224285443 0.08763602823 0.7382414227 1.187047776e-38
0.1252714193 0.08799602523 0.7412414677 1.205163763e-38
0.1274285693 0.08799602523 0.7412414677 1.214598565e-38
0.1295857043 0.08799602523 0.7412414677 1.224068681e-38
0.1317428543 0.08799602523 0.7412414677 1.196266639e-38
0.1339000043 0.08799602523 0.7412414677 1.159281888e-38
0.1364171393 0.08817602373 0.7427414527 1.177649688e-38
0.1385771393 0.08817602373 0.7427414527 1.205199496e-38
0.1414685693 0.08853602073 0.7457414227 1.205306275e-38
0.1436342693 0.08853602073 0.7457414227 1.205416557e-38
0.1457999843 0.08853602073 0.7457414227 1.214459416e-38
0.1487142893 0.08889602973 0.7487414677 1.223501015e-38
0.1508857193 0.08889602973 0.7487414677 1.205099583e-38
0.1530571343 0.08889602973 0.7487414677 1.186694369e-38
0.1556114243 0.08907601773 0.7502414527 1.195947563e-38
0.1577857193 0.08907601773 0.7502414527 1.205200757e-38
0.1599599843 0.08907601773 0.7502414527 1.223494008e-38
0.1621342793 0.08907601773 0.7502414527 1.241825234e-38
0.1643085593 0.08907601773 0.7502414527 1.251044657e-38
0.1664828543 0.08907601773 0.7502414527 1.25108039e-38
0.1694571293 0.08943601473 0.7532414077 1.214310178e-38
0.1716371093 0.08943601473 0.7532414077 1.177540947e-38
0.1738171193 0.08943601473 0.7532414077 1.20512831e-38
0.1759971293 0.08943601473 0.7532414077 1.232714832e-38
0.1781771243 0.08943601473 0.7532414077 1.260409114e-38
0.1803571343 0.08943601473 0.7532414077 1.297286946e-38
0.1825371143 0.08943601473 0.7532414077 1.315654325e-38
0.1847171243 0.08943601473 0.7532414077 1.334058279e-38
0.1860514193 0.08907601773 0.7502414527 1.361574175e-38
0.1882256993 0.08907601773 0.7502414527 1.389125244e-38
0.1912571393 0.08943601473 0.7532414077 1.398345088e-38
0.1934371193 0.08943601473 0.7532414077 1.407564791e-38
0.1964857043 0.08979602223 0.7562414677 1.416892254e-38
0.1986714143 0.08979602223 0.7562414677 1.435401585e-38
0.2008571393 0.08979602223 0.7562414677 1.407813802e-38
0.2030428493 0.08979602223 0.7562414677 1.38022812e-38
0.2052285593 0.08979602223 0.7562414677 1.389376778e-38
0.2083114343 0.09015601923 0.7592414227 1.398524033e-38
0.2105028443 0.09015601923 0.7592414227 1.416890852e-38
0.2126942693 0.09015601923 0.7592414227 1.426110556e-38
0.2148856943 0.09015601923 0.7592414227 1.389340764e-38
0.2170771043 0.09015601923 0.7592414227 1.352571673e-38
0.2192685593 0.09015601923 0.7592414227 1.407781712e-38
0.2219256893 0.09033600723 0.7607414077 1.453769805e-38
0.2241199943 0.09033600723 0.7607414077 1.435365571e-38
0.2263142543 0.09033600723 0.7607414077 1.407922122e-38
0.2280342743 0.09015601923 0.7592414227 1.407957715e-38
0.2302256993 0.09015601923 0.7592414227 1.41707134e-38
0.2324171393 0.09015601923 0.7592414227 1.417073161e-38
0.2346085493 0.09015601923 0.7592414227 1.41707204e-38
0.2367999743 0.09015601923 0.7592414227 1.40788737e-38
0.2389913993 0.09015601923 0.7592414227 1.399169191e-38
0.2411828093 0.09015601923 0.7592414227 1.371438195e-38
0.2433742643 0.09015601923 0.7592414227 1.352928024e-38
0.2455657193 0.09015601923 0.7592414227 1.352856697e-38
0.2477571293 0.09015601923 0.7592414227 1.352820264e-38
0.2499485393 0.09015601923 0.7592414227 1.361931506e-38
0.2521399943 0.09015601923 0.7592414227 1.37104373e-38
0.2543314043 0.09015601923 0.7592414227 1.371080023e-38
0.2565228143 0.09015601923 0.7592414227 1.361933048e-38
0.2587142693 0.09015601923 0.7592414227 1.38952027e-38
0.2614228043 0.09033600723 0.7607414077 1.408066456e-38
0.2636171243 0.09033600723 0.7607414077 1.426433415e-38
0.2658114443 0.09033600723 0.7607414077 1.435689972e-38
0.2680056593 0.09033600723 0.7607414077 1.435691373e-38
0.2701999793 0.09033600723 0.7607414077 1.445160227e-38
0.2723942993 0.09033600723 0.7607414077 1.45405525e-38
0.2745885293 0.09033600723 0.7607414077 1.463058592e-38
0.2767828343 0.09033600723 0.7607414077 1.472241441e-38
0.2789771543 0.09033600723 0.7607414077 1.481460724e-38
0.2811713843 0.09033600723 0.7607414077 1.49050064e-38
0.2833656893 0.09033600723 0.7607414077 1.508940327e-38
0.2850114143 0.09015601923 0.7592414227 1.481426392e-38
0.2877542843 0.09033600723 0.7607414077 1.463133281e-38
0.2899485443 0.09033600723 0.7607414077 1.453916241e-38
0.2921428193 0.09033600723 0.7607414077 1.453842392e-38
0.2943371393 0.09033600723 0.7607414077 1.462952094e-38
0.2965313993 0.09033600723 0.7607414077 1.46291608e-38
0.2987256743 0.09033600723 0.7607414077 1.46291608e-38
0.3009199943 0.09033600723 0.7607414077 1.453767563e-38
0.3042571493 0.09069601473 0.7637414527 1.453910215e-38
0.3053085293 0.09033600723 0.7607414077 1.463058172e-38
0.3086571293 0.09069601473 0.7637414527 1.463094465e-38
0.3108571793 0.09069601473 0.7637414527 1.463022579e-38
0.3130571243 0.09069601473 0.7637414527 1.472241862e-38
0.3152571593 0.09069601473 0.7637414527 1.481426812e-38
0.3186342443 0.09105602373 0.7667414077 1.472244804e-38
0.3208399943 0.09105602373 0.7667414077 1.463061675e-38
0.3236399993 0.09123603423 0.7682414827 1.453842673e-38
0.3258485693 0.09123603423 0.7682414827 1.453840711e-38
0.3292571243 0.09159601923 0.7712414527 1.444511846e-38
0.3314714243 0.09159601923 0.7712414527 1.435220117e-38
0.3348970943 0.09195601623 0.7742414077 1.444403106e-38
0.3371171243 0.09195601623 0.7742414077 1.444403666e-38
0.3393371393 0.09195601623 0.7742414077 1.407670168e-38
0.3415571543 0.09195601623 0.7742414077 1.37093583e-38
0.3450114443 0.09231602523 0.7772414527 1.380119379e-38
0.3472371893 0.09231602523 0.7772414527 1.398522352e-38
0.3494628293 0.09231602523 0.7772414527 1.36175242e-38
0.3523142843 0.09249602373 0.7787414377 1.333913805e-38
0.3545428493 0.09249602373 0.7787414377 1.315545865e-38
0.3580343243 0.09285602073 0.7817414827 1.287994375e-38
0.3602686043 0.09285602073 0.7817414827 1.278774252e-38
0.3625028843 0.09285602073 0.7817414827 1.269447769e-38
0.3647371643 0.09285602073 0.7817414827 1.260157301e-38
0.3682571693 0.09321601773 0.7847414527 1.250901865e-38
0.3717885593 0.09357601473 0.7877414077 1.241682302e-38
0.3740342393 0.09357601473 0.7877414077 1.232462739e-38
0.3762800093 0.09357601473 0.7877414077 1.204876217e-38
0.3785256893 0.09357601473 0.7877414077 1.186472824e-38
0.3827428343 0.09411602223 0.7922414377 1.168105444e-38
0.3849971393 0.09411602223 0.7922414377 1.149774639e-38
0.3885771293 0.09447601923 0.7952414077 1.1314081e-38
0.3908371643 0.09447601923 0.7952414077 1.121902392e-38
0.3944343143 0.09483602673 0.7982414527 1.103535993e-38
0.3967000193 0.09483602673 0.7982414527 1.075985905e-38
0.4016628743 0.09555602223 0.8042414677 1.057619506e-38
0.4046171393 0.09573602073 0.8057414527 1.039251706e-38
0.4068971543 0.09573602073 0.8057414527 1.002516807e-38
0.4105428143 0.09609601773 0.8087414077 9.658179215e-39
0.4128285443 0.09609601773 0.8087414077 9.106084435e-39
0.4164914543 0.09645601473 0.8117414677 8.646179681e-39
0.4215485843 0.09717602073 0.8177414677 8.365282397e-39
0.4252400243 0.09753602823 0.8207414377 8.176589151e-39
0.4289428493 0.09789602523 0.8237414827 8.364564932e-39
0.4298571293 0.09753602823 0.8207414377 8.552602371e-39
0.4335714143 0.09789602523 0.8237414827 1.003853366e-38
0.4358857493 0.09789602523 0.8237414827 1.161623878e-38
0.4445771393 0.09951602373 0.8372414977 1.291054671e-38
0.4483400093 0.09987602073 0.8402414527 1.429672516e-38
0.4506857393 0.09987602073 0.8402414527 1.47584502e-38
0.4530314693 0.09987602073 0.8402414527 1.531200373e-38
0.4568170943 0.1002360072 0.8432414077 1.594950205e-38
0.4615199843 0.1002360072 0.8432414077 1.71444425e-38
0.4638714293 0.1002360072 0.8432414077 1.76979596e-38
0.06934282434 0.08741029773 0.7187414077 1.076664273e-38
0.07117714434 0.08722744923 0.7172414227 1.122330629e-38
0.07357141434 0.08741029773 0.7187414077 1.1774685e-38
0.07568569434 0.08741029773 0.7187414077 1.186724357e-38
0.07779995934 0.08741029773 0.7187414077 1.195764553e-38
0.07991428434 0.08741029773 0.7187414077 1.195621201e-38
0.08261711934 0.08777601723 0.7217414527 1.204840343e-38
0.08473714434 0.08777601723 0.7217414527 1.195692246e-38
0.08715712434 0.08795887773 0.7232414377 1.186795683e-38
0.08927999934 0.08795887773 0.7232414377 1.168249217e-38
0.09262570434 0.08869030473 0.7292414527 1.158993501e-38
0.09506855934 0.08887316373 0.7307414377 1.140554375e-38
0.09720569934 0.08887316373 0.7307414377 1.131371246e-38
0.09997141434 0.08923888323 0.7337414827 1.131371666e-38
0.1014799793 0.08887316373 0.7307414377 1.131730118e-38
0.1042571393 0.08923888323 0.7337414827 1.140805908e-38
0.1070456993 0.08960459073 0.7367414377 1.159209301e-38
0.1085428643 0.08923888323 0.7337414827 1.159245594e-38
0.1106857193 0.08923888323 0.7337414827 1.168429284e-38
0.1138228343 0.08978745123 0.7382414227 1.159174128e-38
0.1156399943 0.08960459073 0.7367414377 1.159173708e-38
0.1181257043 0.08978745123 0.7382414227 1.095175286e-38
0.1202771243 0.08978745123 0.7382414227 1.030711773e-38
0.1231142843 0.09015316923 0.7412414677 1.085634405e-38
0.1252714193 0.09015316923 0.7412414677 1.149919253e-38
0.1274285693 0.09015316923 0.7412414677 1.158206111e-38
0.1295857043 0.09015316923 0.7412414677 1.177828774e-38
0.1317428543 0.09015316923 0.7412414677 1.122368744e-38
0.1339000043 0.09015316923 0.7412414677 1.076630082e-38
0.1364171393 0.09033601773 0.7427414527 1.122511816e-38
0.1385771393 0.09033601773 0.7427414527 1.168356977e-38
0.1414685693 0.09070173723 0.7457414227 1.159136854e-38
0.1436342693 0.09070173723 0.7457414227 1.159138956e-38
0.1457999843 0.09070173723 0.7457414227 1.168324747e-38
0.1487142893 0.09106745673 0.7487414677 1.186656954e-38
0.1508857193 0.09106745673 0.7487414677 1.122337215e-38
0.1534371443 0.09125030523 0.7502414527 1.057942786e-38
0.1556114243 0.09125030523 0.7502414527 1.085419866e-38
0.1577857193 0.09125030523 0.7502414527 1.122260704e-38
0.1599599843 0.09125030523 0.7502414527 1.159137414e-38
0.1621342793 0.09125030523 0.7502414527 1.195799726e-38
0.1643085593 0.09125030523 0.7502414527 1.204947262e-38
0.1672771193 0.09161601273 0.7532414077 1.214131092e-38
0.1694571293 0.09161601273 0.7532414077 1.177433187e-38
0.1716371093 0.09161601273 0.7532414077 1.140807029e-38
0.1738171193 0.09161601273 0.7532414077 1.168071112e-38
0.1759971293 0.09161601273 0.7532414077 1.205020831e-38
0.1781771243 0.09161601273 0.7532414077 1.232715253e-38
0.1803571343 0.09161601273 0.7532414077 1.26977259e-38
0.1825371143 0.09161601273 0.7532414077 1.288104237e-38
0.1847171243 0.09161601273 0.7532414077 1.315655306e-38
0.1860514193 0.09125030523 0.7502414527 1.343170642e-38
0.1882256993 0.09125030523 0.7502414527 1.380120641e-38
0.1912571393 0.09161601273 0.7532414077 1.38952013e-38
0.1934371193 0.09161601273 0.7532414077 1.398704661e-38
0.1964857043 0.09198173223 0.7562414677 1.426256291e-38
0.1986714143 0.09198173223 0.7562414677 1.453769665e-38
0.2008571393 0.09198173223 0.7562414677 1.417105952e-38
0.2030428493 0.09198173223 0.7562414677 1.389591176e-38
0.2052285593 0.09198173223 0.7562414677 1.398810739e-38
0.2074142693 0.09198173223 0.7562414677 1.407707303e-38
0.2096000093 0.09198173223 0.7562414677 1.435042852e-38
0.2126942693 0.09234745173 0.7592414227 1.462844194e-38
0.2148856943 0.09234745173 0.7592414227 1.426073701e-38
0.2170771043 0.09234745173 0.7592414227 1.389447823e-38
0.2197313993 0.09253030023 0.7607414077 1.435473892e-38
0.2219256893 0.09253030023 0.7607414077 1.490502462e-38
0.2236514093 0.09234745173 0.7592414227 1.43536431e-38
0.2258428343 0.09234745173 0.7592414227 1.389445721e-38
0.2280342743 0.09234745173 0.7592414227 1.38966012e-38
0.2302256993 0.09234745173 0.7592414227 1.389482716e-38
0.2324171393 0.09234745173 0.7592414227 1.39870424e-38
0.2346085493 0.09234745173 0.7592414227 1.407851216e-38
0.2367999743 0.09234745173 0.7592414227 1.389339923e-38
0.2389913993 0.09234745173 0.7592414227 1.37115177e-38
0.2411828093 0.09234745173 0.7592414227 1.34381608e-38
0.2433742643 0.09234745173 0.7592414227 1.316157952e-38
0.2455657193 0.09234745173 0.7592414227 1.325269895e-38
0.2477571293 0.09234745173 0.7592414227 1.34359972e-38
0.2499485393 0.09234745173 0.7592414227 1.361822065e-38
0.2521399943 0.09234745173 0.7592414227 1.389337821e-38
0.2543314043 0.09234745173 0.7592414227 1.398486619e-38
0.2565228143 0.09234745173 0.7592414227 1.40777961e-38
0.2587142693 0.09234745173 0.7592414227 1.407853178e-38
0.2609057243 0.09234745173 0.7592414227 1.407959677e-38
0.2636171243 0.09253030023 0.7607414077 1.408066316e-38
0.2658114443 0.09253030023 0.7607414077 1.408066876e-38
0.2674799993 0.09234745173 0.7592414227 1.417286859e-38
0.2701999793 0.09253030023 0.7607414077 1.435581512e-38
0.2723942993 0.09253030023 0.7607414077 1.444728487e-38
0.2745885293 0.09253030023 0.7607414077 1.463023279e-38
0.2767828343 0.09253030023 0.7607414077 1.472134382e-38
0.2789771543 0.09253030023 0.7607414077 1.481317791e-38
0.2806285943 0.09234745173 0.7592414227 1.481353384e-38
0.2833656893 0.09253030023 0.7607414077 1.481354225e-38
0.2855599643 0.09253030023 0.7607414077 1.4630237e-38
0.2872028693 0.09234745173 0.7592414227 1.453877565e-38
0.2893942643 0.09234745173 0.7592414227 1.444767163e-38
0.2915856743 0.09234745173 0.7592414227 1.444550803e-38
0.2937771293 0.09234745173 0.7592414227 1.444441922e-38
0.2965313993 0.09253030023 0.7607414077 1.444549822e-38
0.2987256743 0.09253030023 0.7607414077 1.444406609e-38
0.3009199943 0.09253030023 0.7607414077 1.444584434e-38
0.3042571493 0.09289601973 0.7637414527 1.444726385e-38
0.3053085293 0.09253030023 0.7607414077 1.444726385e-38
0.3086571293 0.09289601973 0.7637414527 1.444798132e-38
0.3108571793 0.09289601973 0.7637414527 1.444762959e-38
0.3130571243 0.09289601973 0.7637414527 1.4447638e-38
0.3152571593 0.09289601973 0.7637414527 1.453804838e-38
0.3186342443 0.09326172723 0.7667414077 1.444478636e-38
0.3208399943 0.09326172723 0.7667414077 1.444550522e-38
0.3236399993 0.09344459823 0.7682414827 1.444622549e-38
0.3258485693 0.09344459823 0.7682414827 1.444621428e-38
0.3292571243 0.09381030573 0.7712414527 1.444441081e-38
0.3314714243 0.09381030573 0.7712414527 1.444368774e-38
0.3336856793 0.09381030573 0.7712414527 1.453479876e-38
0.3371171243 0.09417601473 0.7742414077 1.47188369e-38
0.3393371393 0.09417601473 0.7742414077 1.426038529e-38
0.3427857443 0.09454173273 0.7772414527 1.389230902e-38
0.3450114443 0.09454173273 0.7772414527 1.398376897e-38
0.3472371893 0.09454173273 0.7772414527 1.416816163e-38
0.3494628293 0.09454173273 0.7772414527 1.370970722e-38
0.3516885743 0.09454173273 0.7772414527 1.324693541e-38
0.3545428493 0.09472459323 0.7787414377 1.297285825e-38
0.3567713993 0.09472459323 0.7787414377 1.269627136e-38
0.3589999643 0.09472459323 0.7787414377 1.260371419e-38
0.3625028843 0.09509031273 0.7817414827 1.251008644e-38
0.3647371643 0.09509031273 0.7817414827 1.232498191e-38
0.3682571693 0.09545602023 0.7847414527 1.223386669e-38
0.3717885593 0.09582172773 0.7877414077 1.204840483e-38
0.3740342393 0.09582172773 0.7877414077 1.195656654e-38
0.3762800093 0.09582172773 0.7877414077 1.168105724e-38
0.3798342893 0.09618744723 0.7907414677 1.140519062e-38
0.3827428343 0.09637030623 0.7922414377 1.131263766e-38
0.3849971393 0.09637030623 0.7922414377 1.122152523e-38
0.3885771293 0.09673601523 0.7952414077 1.103893604e-38
0.3921685643 0.09710173473 0.7982414527 1.094351603e-38
0.3957713993 0.09746744223 0.8012414227 1.066693755e-38
0.3967000193 0.09710173473 0.7982414527 1.039215273e-38
0.4016628743 0.09783316173 0.8042414677 1.002589254e-38
0.4046171393 0.09801602073 0.8057414527 9.748939915e-39
0.4082571293 0.09838172823 0.8087414077 9.472346019e-39
0.4105428143 0.09838172823 0.8087414077 9.285802365e-39
0.4142000093 0.09874744773 0.8117414677 8.732275458e-39
0.4178685593 0.09911315673 0.8147414227 8.177340247e-39
0.4215485843 0.09947888673 0.8177414677 7.898270257e-39
0.4252400243 0.09984459423 0.8207414377 7.728605242e-39
0.4289428493 0.1002103137 0.8237414827 9.120500994e-39
0.4312571543 0.1002103137 0.8237414827 1.060426727e-38
0.4335714143 0.1002103137 0.8237414827 1.3281895e-38
0.4358857493 0.1002103137 0.8237414827 1.594870891e-38
0.4445771393 0.1018560282 0.8372414977 1.67788129e-38
0.4483400093 0.1022217312 0.8402414527 1.769718608e-38
0.4506857393 0.1022217312 0.8402414527 1.742205654e-38
0.4530314693 0.1022217312 0.8402414527 1.72387597e-38
0.07117714434 0.08933887323 0.7172414227 1.13198025e-38
0.07357141434 0.08952459423 0.7187414077 1.159423419e-38
0.07568569434 0.08952459423 0.7187414077 1.1594237e-38
0.07779995934 0.08952459423 0.7187414077 1.15942384e-38
0.08049712434 0.08989602423 0.7217414527 1.168464177e-38
0.08261711934 0.08989602423 0.7217414527 1.177503953e-38
0.08503426434 0.09008173323 0.7232414377 1.16839187e-38
0.08715712434 0.09008173323 0.7232414377 1.168463756e-38
0.08927999934 0.09008173323 0.7232414377 1.15931622e-38
0.09201425934 0.09045316323 0.7262414827 1.150204137e-38
0.09506855934 0.09101030373 0.7307414377 1.122760827e-38
0.09720569934 0.09101030373 0.7307414377 1.095318078e-38
0.09934286934 0.09101030373 0.7307414377 1.104394429e-38
0.1014799793 0.09101030373 0.7307414377 1.122653488e-38
0.1036171193 0.09101030373 0.7307414377 1.131800884e-38
0.1064000093 0.09138174423 0.7337414827 1.140984994e-38
0.1085428643 0.09138174423 0.7337414827 1.140949681e-38
0.1106857193 0.09138174423 0.7337414827 1.140913668e-38
0.1128285593 0.09138174423 0.7337414827 1.113183653e-38
0.1156399943 0.09175316373 0.7367414377 1.09478012e-38
0.1177885793 0.09175316373 0.7367414377 1.021311302e-38
0.1202771243 0.09193887273 0.7382414227 9.4788004e-39
0.1231142843 0.09231031473 0.7412414677 1.048828741e-38
0.1252714193 0.09231031473 0.7412414677 1.14977604e-38
0.1274285693 0.09231031473 0.7412414677 1.149847926e-38
0.1295857043 0.09231031473 0.7412414677 1.159139376e-38
0.1317428543 0.09231031473 0.7412414677 1.131660894e-38
0.1339000043 0.09231031473 0.7412414677 1.11336442e-38
0.1364171393 0.09249602373 0.7427414527 1.122475243e-38
0.1385771393 0.09249602373 0.7427414527 1.140769895e-38
0.1414685693 0.09286744323 0.7457414227 1.094815573e-38
0.1436342693 0.09286744323 0.7457414227 1.058083056e-38
0.1465428443 0.09323887323 0.7487414677 1.113150162e-38
0.1490885693 0.09342459273 0.7502414527 1.16825174e-38
0.1512628493 0.09342459273 0.7502414527 1.122334412e-38
0.1534371443 0.09342459273 0.7502414527 1.085419166e-38
0.1563771293 0.09379602273 0.7532414077 1.066907032e-38
0.1585571393 0.09379602273 0.7532414077 1.057616003e-38
0.1607371343 0.09379602273 0.7532414077 1.030101508e-38
0.1629171143 0.09379602273 0.7532414077 1.002622325e-38
0.1658857193 0.09416745273 0.7562414677 1.02106089e-38
0.1680714293 0.09416745273 0.7562414677 1.039500437e-38
0.1702571393 0.09416745273 0.7562414677 1.05790425e-38
0.1716371093 0.09379602273 0.7532414077 1.085706012e-38
0.1738171193 0.09379602273 0.7532414077 1.14069983e-38
0.1759971293 0.09379602273 0.7532414077 1.204877478e-38
0.1781771243 0.09379602273 0.7532414077 1.232823153e-38
0.1803571343 0.09379602273 0.7532414077 1.269808884e-38
0.1825371143 0.09379602273 0.7532414077 1.297360093e-38
0.1847171243 0.09379602273 0.7532414077 1.315727193e-38
0.1860514193 0.09342459273 0.7502414527 1.343421335e-38
0.1882256993 0.09342459273 0.7502414527 1.37115205e-38
0.1903999943 0.09342459273 0.7502414527 1.380336441e-38
0.1934371193 0.09379602273 0.7532414077 1.389557405e-38
0.1956171143 0.09379602273 0.7532414077 1.39867089e-38
0.1986714143 0.09416745273 0.7562414677 1.417000714e-38
0.1999771193 0.09379602273 0.7532414077 1.39870396e-38
0.2030428493 0.09416745273 0.7562414677 1.380407767e-38
0.2052285593 0.09416745273 0.7562414677 1.380407066e-38
0.2074142693 0.09416745273 0.7562414677 1.389375937e-38
0.2096000093 0.09416745273 0.7562414677 1.407743596e-38
0.2126942693 0.09453887223 0.7592414227 1.426109575e-38
0.2148856943 0.09453887223 0.7592414227 1.389446002e-38
0.2170771043 0.09453887223 0.7592414227 1.352819703e-38
0.2192685593 0.09453887223 0.7592414227 1.380406506e-38
0.2214599993 0.09453887223 0.7592414227 1.417247763e-38
0.2236514093 0.09453887223 0.7592414227 1.380261892e-38
0.2258428343 0.09453887223 0.7592414227 1.352638095e-38
0.2280342743 0.09453887223 0.7592414227 1.352672567e-38
0.2302256993 0.09453887223 0.7592414227 1.352746555e-38
0.2314571243 0.09416745273 0.7562414677 1.371080023e-38
0.2346085493 0.09453887223 0.7592414227 1.389446842e-38
0.2367999743 0.09453887223 0.7592414227 1.37104359e-38
0.2389913993 0.09453887223 0.7592414227 1.343457348e-38
0.2411828093 0.09453887223 0.7592414227 1.316086486e-38
0.2433742643 0.09453887223 0.7592414227 1.288607303e-38
0.2445714293 0.09416745273 0.7562414677 1.316050192e-38
0.2477571293 0.09453887223 0.7592414227 1.352746415e-38
0.2499485393 0.09453887223 0.7592414227 1.371039806e-38
0.2521399943 0.09453887223 0.7592414227 1.389300827e-38
0.2533143143 0.09416745273 0.7562414677 1.407669608e-38
0.2565228143 0.09453887223 0.7592414227 1.435259073e-38
0.2587142693 0.09453887223 0.7592414227 1.417002676e-38
0.2609057243 0.09453887223 0.7592414227 1.407853038e-38
0.2636171243 0.09472459323 0.7607414077 1.38951985e-38
0.2652885893 0.09453887223 0.7592414227 1.371188484e-38
0.2674799993 0.09453887223 0.7592414227 1.398667246e-38
0.2701999793 0.09472459323 0.7607414077 1.426182162e-38
0.2723942993 0.09472459323 0.7607414077 1.435401865e-38
0.2745885293 0.09472459323 0.7607414077 1.453804277e-38
0.2767828343 0.09472459323 0.7607414077 1.45373211e-38
0.2789771543 0.09472459323 0.7607414077 1.453695957e-38
0.2811713843 0.09472459323 0.7607414077 1.453695676e-38
0.2833656893 0.09472459323 0.7607414077 1.4629158e-38
0.2850114143 0.09453887223 0.7592414227 1.453661204e-38
0.2872028693 0.09453887223 0.7592414227 1.453590018e-38
0.2893942643 0.09453887223 0.7592414227 1.435259493e-38
0.2915856743 0.09453887223 0.7592414227 1.426111536e-38
0.2937771293 0.09453887223 0.7592414227 1.426075383e-38
0.2965313993 0.09472459323 0.7607414077 1.426183563e-38
0.2987256743 0.09472459323 0.7607414077 1.417036447e-38
0.3009199943 0.09472459323 0.7607414077 1.417070079e-38
0.3031142693 0.09472459323 0.7607414077 1.41710371e-38
0.3053085293 0.09472459323 0.7607414077 1.417210909e-38
0.3086571293 0.09509602323 0.7637414527 1.417246502e-38
0.3108571793 0.09509602323 0.7637414527 1.426467606e-38
0.3130571243 0.09509602323 0.7637414527 1.426290062e-38
0.3152571593 0.09509602323 0.7637414527 1.426218596e-38
0.3186342443 0.09546744123 0.7667414077 1.426111396e-38
0.3208399943 0.09546744123 0.7667414077 1.42603951e-38
0.3236399993 0.09565316223 0.7682414827 1.416999453e-38
0.3258485693 0.09565316223 0.7682414827 1.417071059e-38
0.3292571243 0.09602459223 0.7712414527 1.416891553e-38
0.3314714243 0.09602459223 0.7712414527 1.425859163e-38
0.3336856793 0.09602459223 0.7712414527 1.425894335e-38
0.3371171243 0.09639602223 0.7742414077 1.435365852e-38
0.3393371393 0.09639602223 0.7742414077 1.398525155e-38
0.3427857443 0.09676745223 0.7772414527 1.37082765e-38
0.3450114443 0.09676745223 0.7772414527 1.370824286e-38
0.3472371893 0.09676745223 0.7772414527 1.370825267e-38
0.3494628293 0.09676745223 0.7772414527 1.343132106e-38
0.3516885743 0.09676745223 0.7772414527 1.306289868e-38
0.3545428493 0.09695316273 0.7787414377 1.287886475e-38
0.3580343243 0.09732460323 0.7817414827 1.26934001e-38
0.3602686043 0.09732460323 0.7817414827 1.25097291e-38
0.3625028843 0.09732460323 0.7817414827 1.232605391e-38
0.3647371643 0.09732460323 0.7817414827 1.205054462e-38
0.3682571693 0.09769602273 0.7847414527 1.177504373e-38
0.3717885593 0.09806744073 0.7877414077 1.168142158e-38
0.3740342393 0.09806744073 0.7877414077 1.149702752e-38
0.3762800093 0.09806744073 0.7877414077 1.122187556e-38
0.3804885743 0.09862459173 0.7922414377 1.10374899e-38
0.3840571643 0.09899602173 0.7952414077 1.085274552e-38
0.3863171393 0.09899602173 0.7952414077 1.075983943e-38
0.3885771293 0.09899602173 0.7952414077 1.057617404e-38
0.3921685643 0.09936745173 0.7982414527 1.048469728e-38
0.3957713993 0.09973887123 0.8012414227 1.002516107e-38
0.3993857243 0.1001103117 0.8042414677 9.657463151e-39
0.4023371243 0.1002960222 0.8057414527 9.199007339e-39
0.4059714293 0.1006674402 0.8087414077 8.735868388e-39
0.4082571293 0.1006674402 0.8087414077 8.181611405e-39
0.4105428143 0.1006674402 0.8087414077 7.627728569e-39
0.4142000093 0.1010388822 0.8117414677 8.635766632e-39
0.4192457393 0.1017817422 0.8177414677 9.736056377e-39
0.4215485843 0.1017817422 0.8177414677 1.039833525e-38
0.4252400243 0.1021531662 0.8207414377 1.096910794e-38
0.4289428493 0.1025245962 0.8237414827 1.25436139e-38
0.4312571543 0.1025245962 0.8237414827 1.402629137e-38
0.07625713434 0.09201603123 0.7217414527 1.141235826e-38
0.07837712934 0.09201603123 0.7217414527 1.132124163e-38
0.08078854434 0.09220459023 0.7232414377 1.1413796e-38
0.08261711934 0.09201603123 0.7217414527 1.159531319e-38
0.08473714434 0.09201603123 0.7217414527 1.15013239e-38
0.08715712434 0.09220459023 0.7232414377 1.15024001e-38
0.08927999934 0.09220459023 0.7232414377 1.141200093e-38
0.09201425934 0.09258174273 0.7262414827 1.141307713e-38
0.09414286434 0.09258174273 0.7262414827 1.104681274e-38
0.09720569934 0.09314744223 0.7307414377 1.067947917e-38
0.09997141434 0.09352459473 0.7337414827 1.08635187e-38
0.1014799793 0.09314744223 0.7307414377 1.113829792e-38
0.1036171193 0.09314744223 0.7307414377 1.113792797e-38
0.1064000093 0.09352459473 0.7337414827 1.122976767e-38
0.1091942843 0.09390173523 0.7367414377 1.113793778e-38
0.1106857193 0.09352459473 0.7337414827 1.113650145e-38
0.1128285593 0.09352459473 0.7337414827 1.067122552e-38
0.1156399943 0.09390173523 0.7367414377 1.030280594e-38
0.1187999843 0.09446744673 0.7412414677 9.475566203e-39
0.1212971243 0.09465602823 0.7427414527 8.744473761e-39
0.1231142843 0.09446744673 0.7412414677 1.0125239e-38
0.1252714193 0.09446744673 0.7412414677 1.150205258e-38
0.1277771243 0.09465602823 0.7427414527 1.140985835e-38
0.1299371543 0.09465602823 0.7427414527 1.141022829e-38
0.1320971243 0.09465602823 0.7427414527 1.150243513e-38
0.1342571393 0.09465602823 0.7427414527 1.159425801e-38
0.1371371393 0.09503315823 0.7457414227 1.131873891e-38
0.1393028393 0.09503315823 0.7457414227 1.113470639e-38
0.1414685693 0.09503315823 0.7457414227 1.040002102e-38
0.1436342693 0.09503315823 0.7457414227 9.66606292e-39
0.1469142743 0.09559888173 0.7502414527 1.058550249e-38
0.1498371293 0.09597602223 0.7532414077 1.150135193e-38
0.1520171393 0.09597602223 0.7532414077 1.131553414e-38
0.1541971193 0.09597602223 0.7532414077 1.112682408e-38
0.1571428643 0.09635316273 0.7562414677 1.048109034e-38
0.1593285743 0.09635316273 0.7562414677 9.929724232e-39
0.1615142843 0.09635316273 0.7562414677 9.011016144e-39
0.1637000093 0.09635316273 0.7562414677 8.189872059e-39
0.1658857193 0.09635316273 0.7562414677 8.463936612e-39
0.1680714293 0.09635316273 0.7562414677 8.740537514e-39
0.1702571393 0.09635316273 0.7562414677 9.475955764e-39
0.1724428493 0.09635316273 0.7562414677 1.030463043e-38
0.1738171193 0.09597602223 0.7532414077 1.113330509e-38
0.1759971293 0.09597602223 0.7532414077 1.205273344e-38
0.1781771243 0.09597602223 0.7532414077 1.242114882e-38
0.1803571343 0.09597602223 0.7532414077 1.279028587e-38
0.1825371143 0.09597602223 0.7532414077 1.297467713e-38
0.1847171243 0.09597602223 0.7532414077 1.325090249e-38
0.1860514193 0.09559888173 0.7502414527 1.343565108e-38
0.1882256993 0.09559888173 0.7502414527 1.371187783e-38
0.1903999943 0.09559888173 0.7502414527 1.371331557e-38
0.1934371193 0.09597602223 0.7532414077 1.380444901e-38
0.1956171143 0.09597602223 0.7532414077 1.38030295e-38
0.1986714143 0.09635316273 0.7562414677 1.389485658e-38
0.1999771193 0.09597602223 0.7532414077 1.380337141e-38
0.2021571293 0.09597602223 0.7532414077 1.371152471e-38
0.2052285593 0.09635316273 0.7562414677 1.371187223e-38
0.2074142693 0.09635316273 0.7562414677 1.380370913e-38
0.2096000093 0.09635316273 0.7562414677 1.380371053e-38
0.2117857193 0.09635316273 0.7562414677 1.389446422e-38
0.2139714293 0.09635316273 0.7562414677 1.352819423e-38
0.2161571393 0.09635316273 0.7562414677 1.316120677e-38
0.2192685593 0.09673030473 0.7592414227 1.32533968e-38
0.2214599993 0.09673030473 0.7592414227 1.343635033e-38
0.2236514093 0.09673030473 0.7592414227 1.325196327e-38
0.2248999943 0.09635316273 0.7562414677 1.315975783e-38
0.2280342743 0.09673030473 0.7592414227 1.315974662e-38
0.2292714143 0.09635316273 0.7562414677 1.325159613e-38
0.2324171393 0.09673030473 0.7592414227 1.352496424e-38
0.2336428343 0.09635316273 0.7562414677 1.380011199e-38
0.2367999743 0.09673030473 0.7592414227 1.352424677e-38
0.2389913993 0.09673030473 0.7592414227 1.325090669e-38
0.2411828093 0.09673030473 0.7592414227 1.297649181e-38
0.2433742643 0.09673030473 0.7592414227 1.270169438e-38
0.2445714293 0.09635316273 0.7562414677 1.316050472e-38
0.2467571693 0.09635316273 0.7562414677 1.361966819e-38
0.2489428943 0.09635316273 0.7562414677 1.38036853e-38
0.2511285743 0.09635316273 0.7562414677 1.398557384e-38
0.2533143143 0.09635316273 0.7562414677 1.426037548e-38
0.2554999943 0.09635316273 0.7562414677 1.462773288e-38
0.2587142693 0.09673030473 0.7592414227 1.435367813e-38
0.2609057243 0.09673030473 0.7592414227 1.407815763e-38
0.2630971343 0.09673030473 0.7592414227 1.371116177e-38
0.2652885893 0.09673030473 0.7592414227 1.334417852e-38
0.2674799993 0.09673030473 0.7592414227 1.38012022e-38
0.2701999793 0.09691887423 0.7607414077 1.426181181e-38
0.2723942993 0.09691887423 0.7607414077 1.435400183e-38
0.2745885293 0.09691887423 0.7607414077 1.44454772e-38
0.2767828343 0.09691887423 0.7607414077 1.435328297e-38
0.2789771543 0.09691887423 0.7607414077 1.435292143e-38
0.2811713843 0.09691887423 0.7607414077 1.43525599e-38
0.2833656893 0.09691887423 0.7607414077 1.444404787e-38
0.2855599643 0.09691887423 0.7607414077 1.444370035e-38
0.2877542843 0.09691887423 0.7607414077 1.453554005e-38
0.2899485443 0.09691887423 0.7607414077 1.426003917e-38
0.2921428193 0.09691887423 0.7607414077 1.407636818e-38
0.2943371393 0.09691887423 0.7607414077 1.407636677e-38
0.2965313993 0.09691887423 0.7607414077 1.407744017e-38
0.2987256743 0.09691887423 0.7607414077 1.398667947e-38
0.3009199943 0.09691887423 0.7607414077 1.398666125e-38
0.3031142693 0.09691887423 0.7607414077 1.389516767e-38
0.3053085293 0.09691887423 0.7607414077 1.389516767e-38
0.3086571293 0.09729602673 0.7637414527 1.398700177e-38
0.3108571793 0.09729602673 0.7637414527 1.407850516e-38
0.3130571243 0.09729602673 0.7637414527 1.407853038e-38
0.3152571593 0.09729602673 0.7637414527 1.407780731e-38
0.3186342443 0.09767315673 0.7667414077 1.407744157e-38
0.3208399943 0.09767315673 0.7667414077 1.416927847e-38
0.3236399993 0.09786174873 0.7682414827 1.398560748e-38
0.3258485693 0.09786174873 0.7682414827 1.389377899e-38
0.3292571243 0.09823887873 0.7712414527 1.398562149e-38
0.3314714243 0.09823887873 0.7712414527 1.416712607e-38
0.3336856793 0.09823887873 0.7712414527 1.407527656e-38
0.3346828793 0.09786174873 0.7682414827 1.398451726e-38
0.3393371393 0.09861601923 0.7742414077 1.380192247e-38
0.3415571543 0.09861601923 0.7742414077 1.361679693e-38
0.3437771393 0.09861601923 0.7742414077 1.343274759e-38
0.3459971543 0.09861601923 0.7742414077 1.333984991e-38
0.3482171243 0.09861601923 0.7742414077 1.3154758e-38
0.3516885743 0.09899316123 0.7772414527 1.297071706e-38
0.3539142743 0.09899316123 0.7772414527 1.278703486e-38
0.3567713993 0.09918174273 0.7787414377 1.269304277e-38
0.3589999643 0.09918174273 0.7787414377 1.241860967e-38
0.3625028843 0.09955888323 0.7817414827 1.214310318e-38
0.3647371643 0.09955888323 0.7817414827 1.177648006e-38
0.3682571693 0.09993602373 0.7847414527 1.140698849e-38
0.3717885593 0.1003131537 0.7877414077 1.122296157e-38
0.3740342393 0.1003131537 0.7877414077 1.11293296e-38
0.3762800093 0.1003131537 0.7877414077 1.085453778e-38
0.3817971293 0.1012560177 0.7952414077 1.066979059e-38
0.3840571643 0.1012560177 0.7952414077 1.048468467e-38
0.3863171393 0.1012560177 0.7952414077 1.030065775e-38
0.3899028593 0.1016331582 0.7982414527 1.011842448e-38
0.3934999643 0.1020103002 0.8012414227 1.002659459e-38
0.3971086043 0.1023874662 0.8042414677 9.475587222e-39
0.4000571693 0.1025760162 0.8057414527 8.923849774e-39
0.4023371243 0.1025760162 0.8057414527 8.280278231e-39
0.4059714293 0.1029531462 0.8087414077 7.72784714e-39
0.4082571293 0.1029531462 0.8087414077 6.796237296e-39
0.4119085943 0.1033303062 0.8117414677 5.983359471e-39
0.4142000093 0.1033303062 0.8117414677 8.660231902e-39
0.4192457393 0.1040845962 0.8177414677 1.142431134e-38
0.4215485843 0.1040845962 0.8177414677 1.281121707e-38
0.08078854434 0.09432744723 0.7232414377 1.113900417e-38
0.08715712434 0.09432744723 0.7232414377 1.168786475e-38
0.08927999934 0.09432744723 0.7232414377 1.178006038e-38
0.09201425934 0.09471031023 0.7262414827 1.187225741e-38
0.09414286434 0.09471031023 0.7262414827 1.141416033e-38
0.09720569934 0.09528459273 0.7307414377 1.095571573e-38
0.09997141434 0.09566745573 0.7337414827 1.104649044e-38
0.1014799793 0.09528459273 0.7307414377 1.113759026e-38
0.1036171193 0.09528459273 0.7307414377 1.113864964e-38
0.1091942843 0.09605030823 0.7367414377 1.113937411e-38
0.1106857193 0.09566745573 0.7337414827 1.113973284e-38
0.1128285593 0.09566745573 0.7337414827 1.068127283e-38
0.1187999843 0.09662459073 0.7412414677 9.107515161e-39
0.1212971243 0.09681602223 0.7427414527 8.010147123e-39
0.1231142843 0.09662459073 0.7412414677 9.666767773e-39
0.1252714193 0.09662459073 0.7412414677 1.141235686e-38
0.1277771243 0.09681602223 0.7427414527 1.150419096e-38
0.1306399793 0.09719887473 0.7457414227 1.150421058e-38
0.1328057093 0.09719887473 0.7457414227 1.159534963e-38
0.1349714093 0.09719887473 0.7457414227 1.177864647e-38
0.1382171243 0.09777316923 0.7502414527 1.159567893e-38
0.1403914193 0.09777316923 0.7502414527 1.14138044e-38
0.1425656993 0.09777316923 0.7502414527 1.067840717e-38
0.1447399943 0.09777316923 0.7502414527 1.003483983e-38
0.1476571343 0.09815602173 0.7532414077 1.215243723e-38
0.1498371293 0.09815602173 0.7532414077 1.436223727e-38
0.1527714143 0.09853888473 0.7562414677 1.297861478e-38
0.1549571243 0.09853888473 0.7562414677 1.158348763e-38
0.1571428643 0.09853888473 0.7562414677 1.066619205e-38
0.1600999943 0.09892172523 0.7592414227 9.739237324e-39
0.1622914343 0.09892172523 0.7592414227 9.567414311e-39
0.1637000093 0.09853888473 0.7562414677 9.384092242e-39
0.1658857193 0.09853888473 0.7562414677 1.002621344e-38
0.1680714293 0.09853888473 0.7562414677 1.07605653e-38
0.1702571393 0.09853888473 0.7562414677 1.112865278e-38
0.1724428493 0.09853888473 0.7562414677 1.158891066e-38
0.1746285593 0.09853888473 0.7562414677 1.214638643e-38
0.1759971293 0.09815602173 0.7532414077 1.269990072e-38
0.1781771243 0.09815602173 0.7532414077 1.297575613e-38
0.1803571343 0.09815602173 0.7532414077 1.325161995e-38
0.1825371143 0.09815602173 0.7532414077 1.371115476e-38
0.1847171243 0.09815602173 0.7532414077 1.417069378e-38
0.1860514193 0.09777316923 0.7502414527 1.380299586e-38
0.1882256993 0.09777316923 0.7502414527 1.352856277e-38
0.1903999943 0.09777316923 0.7502414527 1.36207556e-38
0.1934371193 0.09815602173 0.7532414077 1.371332257e-38
0.1956171143 0.09815602173 0.7532414077 1.371046813e-38
0.1977971243 0.09815602173 0.7532414077 1.37079542e-38
0.1999771193 0.09815602173 0.7532414077 1.371010379e-38
0.2021571293 0.09815602173 0.7532414077 1.371116597e-38
0.2052285593 0.09853888473 0.7562414677 1.352712224e-38
0.2074142693 0.09853888473 0.7562414677 1.343528394e-38
0.2096000093 0.09853888473 0.7562414677 1.35267579e-38
0.2117857193 0.09853888473 0.7562414677 1.371007016e-38
0.2139714293 0.09853888473 0.7562414677 1.325125281e-38
0.2161571393 0.09853888473 0.7562414677 1.279242285e-38
0.2192685593 0.09892172523 0.7592414227 1.297608263e-38
0.2214599993 0.09892172523 0.7592414227 1.325195486e-38
0.2236514093 0.09892172523 0.7592414227 1.297645678e-38
0.2248999943 0.09853888473 0.7562414677 1.279385358e-38
0.2270857043 0.09853888473 0.7562414677 1.315975223e-38
0.2292714143 0.09853888473 0.7562414677 1.343526432e-38
0.2314571243 0.09853888473 0.7562414677 1.380189444e-38
0.2336428343 0.09853888473 0.7562414677 1.41688791e-38
0.2358285743 0.09853888473 0.7562414677 1.380189865e-38
0.2389913993 0.09892172523 0.7592414227 1.343494202e-38
0.2411828093 0.09892172523 0.7592414227 1.325237385e-38
0.2433742643 0.09892172523 0.7592414227 1.316195787e-38
0.2445714293 0.09853888473 0.7562414677 1.334417852e-38
0.2467571693 0.09853888473 0.7562414677 1.35278439e-38
0.2499485393 0.09892172523 0.7592414227 1.35278383e-38
0.2521399943 0.09892172523 0.7592414227 1.343565108e-38
0.2533143143 0.09853888473 0.7562414677 1.380192387e-38
0.2554999943 0.09853888473 0.7562414677 1.416854979e-38
0.2587142693 0.09892172523 0.7592414227 1.407815203e-38
0.2609057243 0.09892172523 0.7592414227 1.398630953e-38
0.2636171243 0.09911315673 0.7607414077 1.380299166e-38
0.2652885893 0.09892172523 0.7592414227 1.36196794e-38
0.2680056593 0.09911315673 0.7607414077 1.380299166e-38
0.2701999793 0.09911315673 0.7607414077 1.407848834e-38
0.2723942993 0.09911315673 0.7607414077 1.417031543e-38
0.2740542743 0.09892172523 0.7592414227 1.435327176e-38
0.2762456843 0.09892172523 0.7592414227 1.417032103e-38
0.2784371393 0.09892172523 0.7592414227 1.398341865e-38
0.2806285943 0.09892172523 0.7592414227 1.407668767e-38
0.2833656893 0.09911315673 0.7607414077 1.416853718e-38
0.2855599643 0.09911315673 0.7607414077 1.426002936e-38
0.2877542843 0.09911315673 0.7607414077 1.435115159e-38
0.2899485443 0.09911315673 0.7607414077 1.42603965e-38
0.2921428193 0.09911315673 0.7607414077 1.407421578e-38
0.2943371393 0.09911315673 0.7607414077 1.407601084e-38
0.2976571343 0.09949603023 0.7637414527 1.416855259e-38
0.2998571243 0.09949603023 0.7637414527 1.389482996e-38
0.3009199943 0.09911315673 0.7607414077 1.371365748e-38
0.3042571493 0.09949603023 0.7637414527 1.371113514e-38
0.3064571393 0.09949603023 0.7637414527 1.380189585e-38
0.3086571293 0.09949603023 0.7637414527 1.380261611e-38
0.3108571793 0.09949603023 0.7637414527 1.389484397e-38
0.3130571243 0.09949603023 0.7637414527 1.389416154e-38
0.3152571593 0.09949603023 0.7637414527 1.398490402e-38
0.3186342443 0.09987888273 0.7667414077 1.389233565e-38
0.3208399943 0.09987888273 0.7667414077 1.379978409e-38
0.3236399993 0.1000703142 0.7682414827 1.352607406e-38
0.3258485693 0.1000703142 0.7682414827 1.325094032e-38
0.3280571543 0.1000703142 0.7682414827 1.3434268e-38
0.3302657243 0.1000703142 0.7682414827 1.370831854e-38
0.3324743093 0.1000703142 0.7682414827 1.352355173e-38
0.3346828793 0.1000703142 0.7682414827 1.343098756e-38
0.3368914493 0.1000703142 0.7682414827 1.334093591e-38
0.3415571543 0.1008360177 0.7742414077 1.315797538e-38
0.3437771393 0.1008360177 0.7742414077 1.306434062e-38
0.3459971543 0.1008360177 0.7742414077 1.306328264e-38
0.3482171243 0.1008360177 0.7742414077 1.287927253e-38
0.3516885743 0.1012188807 0.7772414527 1.278598248e-38
0.3545428493 0.1014103122 0.7787414377 1.260229328e-38
0.3580343243 0.1017931752 0.7817414827 1.250937458e-38
0.3589999643 0.1014103122 0.7787414377 1.214274445e-38
0.3625028843 0.1017931752 0.7817414827 1.18676009e-38
0.3660171593 0.1021760262 0.7847414527 1.149918692e-38
0.3682571693 0.1021760262 0.7847414527 1.113112747e-38
0.3717885593 0.1025588712 0.7877414077 1.085454479e-38
