# .PCD v0.7 - Point Cloud Data file format
VERSION 0.7
FIELDS x y z rgb
SIZE 4 4 4 4
TYPE F F F F
COUNT 1 1 1 1
WIDTH 878
HEIGHT 1
VIEWPOINT 0 0 0 1 0 0 0
POINTS 878
DATA ascii
0.1317078508 -0.001164249104 0.775390668 1.187336864e-38
0.1339335508 -0.001164249104 0.775390668 1.224287984e-38
0.1361592958 -0.001164249104 0.775390668 1.270459787e-38
0.1376764108 -0.001307106104 0.772390623 1.316344605e-38
0.1398964108 -0.001307106104 0.772390623 1.362260531e-38
0.1421164108 -0.001307106104 0.772390623 1.380554202e-38
0.1443364108 -0.001307106104 0.772390623 1.408069258e-38
0.1465564108 -0.001307106104 0.772390623 1.435548441e-38
0.1480392808 -0.001449966104 0.769390668 1.463027343e-38
0.1502535658 -0.001449966104 0.769390668 1.490577992e-38
0.1524678358 -0.001449966104 0.769390668 1.518128781e-38
0.1546821358 -0.001449966104 0.769390668 1.545715583e-38
0.1568964058 -0.001449966104 0.769390668 1.564082402e-38
0.1591107058 -0.001449966104 0.769390668 1.582556841e-38
0.1613250058 -0.001449966104 0.769390668 1.600958693e-38
0.1635392608 -0.001449966104 0.769390668 1.573658175e-38
0.1665364258 -0.001307106104 0.772390623 1.537210683e-38
0.1687563958 -0.001307106104 0.772390623 1.472638569e-38
0.1709763958 -0.001307106104 0.772390623 1.408314906e-38
0.1731963958 -0.001307106104 0.772390623 1.242147252e-38
0.1199964058 0.001432894396 0.782890668 7.914371176e-39
0.1244764108 0.001432894396 0.782890668 1.012237194e-38
0.1267164208 0.001432894396 0.782890668 1.058082775e-38
0.1282764358 0.001284322396 0.779890698 1.104144577e-38
0.1298249908 0.001135750396 0.776890653 1.132018646e-38
0.1317078508 0.001061468896 0.775390668 1.168861865e-38
0.1339335508 0.001061468896 0.775390668 1.215139747e-38
0.1361592958 0.001061468896 0.775390668 1.261131343e-38
0.1376764108 0.0009128923957 0.772390623 1.30712294e-38
0.1398964108 0.0009128923957 0.772390623 1.353003974e-38
0.1421164108 0.0009128923957 0.772390623 1.36215081e-38
0.1443364108 0.0009128923957 0.772390623 1.380482036e-38
0.1465564108 0.0009128923957 0.772390623 1.408176177e-38
0.1480392808 0.0007643248957 0.769390668 1.44473157e-38
0.1502535658 0.0007643248957 0.769390668 1.472354666e-38
0.1524678358 0.0007643248957 0.769390668 1.509017118e-38
0.1546821358 0.0007643248957 0.769390668 1.527348484e-38
0.1568964058 0.0007643248957 0.769390668 1.554934446e-38
0.1583450008 0.0006157528957 0.766390698 1.582556281e-38
0.1613250058 0.0007643248957 0.769390668 1.619433271e-38
0.1635392608 0.0007643248957 0.769390668 1.573622442e-38
0.1657535608 0.0007643248957 0.769390668 1.536923697e-38
0.1679678608 0.0007643248957 0.769390668 1.555326389e-38
0.1701821308 0.0007643248957 0.769390668 1.582874375e-38
0.1723964308 0.0007643248957 0.769390668 1.380510902e-38
0.1746107008 0.0007643248957 0.769390668 1.187082248e-38
0.1244764108 0.003672896896 0.782890668 1.067517998e-38
0.1267164208 0.003672896896 0.782890668 1.104001925e-38
0.1282764358 0.003518612896 0.779890698 1.13151656e-38
0.1298249908 0.003364324396 0.776890653 1.140986956e-38
0.1320535708 0.003364324396 0.776890653 1.150386866e-38
0.1339335508 0.003287183896 0.775390668 1.187301692e-38
0.1361592958 0.003287183896 0.775390668 1.215068841e-38
0.1376764108 0.003132895396 0.772390623 1.260916104e-38
0.1398964108 0.003132895396 0.772390623 1.307623063e-38
0.1421164108 0.003132895396 0.772390623 1.325344584e-38
0.1443364108 0.003132895396 0.772390623 1.343711403e-38
0.1465564108 0.003132895396 0.772390623 1.371154152e-38
0.1480392808 0.002978611396 0.769390668 1.398634176e-38
0.1502535658 0.002978611396 0.769390668 1.435333762e-38
0.1517192758 0.002824328896 0.766390698 1.47206782e-38
0.1539278758 0.002824328896 0.766390698 1.499726089e-38
0.1561364308 0.002824328896 0.766390698 1.527491136e-38
0.1583450008 0.002824328896 0.766390698 1.555112831e-38
0.1605535858 0.002824328896 0.766390698 1.591990102e-38
0.1627621408 0.002824328896 0.766390698 1.564439033e-38
0.1649707108 0.002824328896 0.766390698 1.546071513e-38
0.1679678608 0.002978611396 0.769390668 1.546106966e-38
0.1701821308 0.002978611396 0.769390668 1.555395893e-38
0.1723964308 0.002978611396 0.769390668 1.463342916e-38
0.1746107008 0.002978611396 0.769390668 1.37118372e-38
0.1260421558 0.005752898896 0.779890698 1.149920093e-38
0.1282764358 0.005752898896 0.779890698 1.168286912e-38
0.1305107158 0.005752898896 0.779890698 1.149955546e-38
0.1320535708 0.005592893896 0.776890653 1.140808991e-38
0.1339335508 0.005512891396 0.775390668 1.159249098e-38
0.1361592958 0.005512891396 0.775390668 1.177796264e-38
0.1383850108 0.005512891396 0.775390668 1.223930092e-38
0.1398964108 0.005352892396 0.772390623 1.269991193e-38
0.1421164108 0.005352892396 0.772390623 1.288537518e-38
0.1443364108 0.005352892396 0.772390623 1.315943273e-38
0.1465564108 0.005352892396 0.772390623 1.334201351e-38
0.1480392808 0.005192893396 0.769390668 1.361718229e-38
0.1495107058 0.005032892896 0.766390698 1.398418656e-38
0.1517192758 0.005032892896 0.766390698 1.435260614e-38
0.1539278758 0.005032892896 0.766390698 1.462954896e-38
0.1557564058 0.004952896396 0.764890623 1.499795874e-38
0.1579621408 0.004952896396 0.764890623 1.527668681e-38
0.1601678308 0.004952896396 0.764890623 1.564438753e-38
0.1623735658 0.004952896396 0.764890623 1.555255203e-38
0.1649707108 0.005032892896 0.766390698 1.555254783e-38
0.1671792808 0.005032892896 0.766390698 1.536923276e-38
0.1693878658 0.005032892896 0.766390698 1.527774059e-38
0.1723964308 0.005192893396 0.769390668 1.53699194e-38
0.1746107008 0.005192893396 0.769390668 1.555142959e-38
0.1768249858 0.005192893396 0.769390668 1.352279082e-38
0.1282764358 0.007987184896 0.779890698 1.168574319e-38
0.1298249908 0.007821469396 0.776890653 1.140736544e-38
0.1320535708 0.007821469396 0.776890653 1.122442312e-38
0.1342821208 0.007821469396 0.776890653 1.150029955e-38
0.1361592958 0.007738610896 0.775390668 1.177616757e-38
0.1383850108 0.007738610896 0.775390668 1.214423123e-38
0.1398964108 0.007572895396 0.772390623 1.26044807e-38
0.1421164108 0.007572895396 0.772390623 1.269595326e-38
0.1443364108 0.007572895396 0.772390623 1.287959903e-38
0.1458249958 0.007407179896 0.769390668 1.278773831e-38
0.1480392808 0.007407179896 0.769390668 1.278776914e-38
0.1495107058 0.007241468896 0.766390698 1.324912984e-38
0.1513449958 0.007158611896 0.764890623 1.380122182e-38
0.1535506858 0.007158611896 0.764890623 1.416928407e-38
0.1557564058 0.007158611896 0.764890623 1.453733652e-38
0.1579621408 0.007158611896 0.764890623 1.490861755e-38
0.1601678308 0.007158611896 0.764890623 1.527703994e-38
0.1623735658 0.007158611896 0.764890623 1.536887964e-38
0.1645792708 0.007158611896 0.764890623 1.536887543e-38
0.1671792808 0.007241468896 0.766390698 1.527739587e-38
0.1693878658 0.007241468896 0.766390698 1.518555196e-38
0.1715964358 0.007241468896 0.766390698 1.546105004e-38
0.1738050058 0.007241468896 0.766390698 1.573834179e-38
0.1760135608 0.007241468896 0.766390698 1.453765741e-38
0.1275964258 0.0100500374 0.776890653 1.168609912e-38
0.1298249908 0.0100500374 0.776890653 1.140736404e-38
0.1317078508 0.009964324396 0.775390668 1.113186876e-38
0.1339335508 0.009964324396 0.775390668 1.149922335e-38
0.1361592958 0.009964324396 0.775390668 1.186728561e-38
0.1383850108 0.009964324396 0.775390668 1.214351376e-38
0.1398964108 0.009792892396 0.772390623 1.251013548e-38
0.1421164108 0.009792892396 0.772390623 1.260161084e-38
0.1443364108 0.009792892396 0.772390623 1.269414839e-38
0.1458249958 0.009621470896 0.769390668 1.232750986e-38
0.1473021508 0.009450044896 0.766390698 1.196162102e-38
0.1491392608 0.009364319896 0.764890623 1.260628137e-38
0.1513449958 0.009364319896 0.764890623 1.324949138e-38
0.1535506858 0.009364319896 0.764890623 1.370938773e-38
0.1557564058 0.009364319896 0.764890623 1.417215253e-38
0.1571964358 0.009192893896 0.761890668 1.454092804e-38
0.1601678308 0.009364319896 0.764890623 1.500154045e-38
0.1623735658 0.009364319896 0.764890623 1.509445215e-38
0.1645792708 0.009364319896 0.764890623 1.527776301e-38
0.1667849758 0.009364319896 0.764890623 1.518592611e-38
0.1689906958 0.009364319896 0.764890623 1.518520164e-38
0.1711964008 0.009364319896 0.764890623 1.555253802e-38
0.1738050058 0.009450044896 0.766390698 1.601170569e-38
0.1760135608 0.009450044896 0.766390698 1.55525198e-38
0.1782221458 0.009450044896 0.766390698 1.517942689e-38
0.1804307158 0.009450044896 0.766390698 1.315365377e-38
0.1275964258 0.0122786069 0.776890653 1.315618172e-38
0.1298249908 0.0122786069 0.776890653 1.232715393e-38
0.1317078508 0.0121900439 0.775390668 1.140665778e-38
0.1339335508 0.0121900439 0.775390668 1.168217688e-38
0.1361592958 0.0121900439 0.775390668 1.195625264e-38
0.1383850108 0.0121900439 0.775390668 1.223176334e-38
0.1398964108 0.0120128954 0.772390623 1.250726842e-38
0.1421164108 0.0120128954 0.772390623 1.251049702e-38
0.1443364108 0.0120128954 0.772390623 1.251408014e-38
0.1458249958 0.0118357529 0.769390668 1.24229579e-38
0.1473021508 0.0116586089 0.766390698 1.233220421e-38
0.1491392608 0.0115700399 0.764890623 1.27903125e-38
0.1513449958 0.0115700399 0.764890623 1.334060941e-38
0.1527964258 0.0113928974 0.761890668 1.371154012e-38
0.1549964308 0.0113928974 0.761890668 1.408247503e-38
0.1571964358 0.0113928974 0.761890668 1.445018136e-38
0.1593964258 0.0113928974 0.761890668 1.48182352e-38
0.1615964308 0.0113928974 0.761890668 1.509409622e-38
0.1637964208 0.0113928974 0.761890668 1.54614382e-38
0.1659964108 0.0113928974 0.761890668 1.527740988e-38
0.1681964308 0.0113928974 0.761890668 1.518521145e-38
0.1711964008 0.0115700399 0.764890623 1.546071373e-38
0.1734021508 0.0115700399 0.764890623 1.573620901e-38
0.1760135608 0.0116586089 0.766390698 1.536957468e-38
0.1782221458 0.0116586089 0.766390698 1.509512477e-38
0.1804307158 0.0116586089 0.766390698 1.407810018e-38
0.1826392858 0.0116586089 0.766390698 1.315187272e-38
0.1260421558 0.0146900414 0.779890698 1.437271197e-38
0.1282764358 0.0146900414 0.779890698 1.472710175e-38
0.1294821358 0.0144157529 0.775390668 1.324693541e-38
0.1317078508 0.0144157529 0.775390668 1.177399136e-38
0.1339335508 0.0144157529 0.775390668 1.195731483e-38
0.1361592958 0.0144157529 0.775390668 1.21406355e-38
0.1376764108 0.0142328924 0.772390623 1.23210863e-38
0.1398964108 0.0142328924 0.772390623 1.251228507e-38
0.1421164108 0.0142328924 0.772390623 1.242546763e-38
0.1443364108 0.0142328924 0.772390623 1.242475296e-38
0.1458249958 0.0140500394 0.769390668 1.26077107e-38
0.1473021508 0.0138671849 0.766390698 1.279174322e-38
0.1491392608 0.0137757494 0.764890623 1.306797138e-38
0.1513449958 0.0137757494 0.764890623 1.343674829e-38
0.1527964258 0.0135928949 0.761890668 1.371369111e-38
0.1549964308 0.0135928949 0.761890668 1.398955774e-38
0.1571964358 0.0135928949 0.761890668 1.435905352e-38
0.1593964258 0.0135928949 0.761890668 1.47263997e-38
0.1615964308 0.0135928949 0.761890668 1.518594012e-38
0.1637964208 0.0135928949 0.761890668 1.564404701e-38
0.1659964108 0.0135928949 0.761890668 1.536746993e-38
0.1681964308 0.0135928949 0.761890668 1.518450659e-38
0.1703964208 0.0135928949 0.761890668 1.536888524e-38
0.1734021508 0.0137757494 0.764890623 1.555362542e-38
0.1756078408 0.0137757494 0.764890623 1.527918953e-38
0.1782221458 0.0138671849 0.766390698 1.500332851e-38
0.1812535708 0.0140500394 0.769390668 1.509481088e-38
0.1834678558 0.0140500394 0.769390668 1.517873745e-38
0.1267164208 0.0171128984 0.782890668 1.519858404e-38
0.1282764358 0.0169243274 0.779890698 1.436983651e-38
0.1298249908 0.0167357564 0.776890653 1.315545164e-38
0.1317078508 0.0166414664 0.775390668 1.186581845e-38
0.1339335508 0.0166414664 0.775390668 1.204949925e-38
0.1354563958 0.0164528954 0.772390623 1.223354158e-38
0.1376764108 0.0164528954 0.772390623 1.242117265e-38
0.1391821408 0.0162643259 0.769390668 1.251730312e-38
0.1413964108 0.0162643259 0.769390668 1.260948754e-38
0.1436106958 0.0162643259 0.769390668 1.261021622e-38
0.1458249958 0.0162643259 0.769390668 1.270134546e-38
0.1469335708 0.0159814634 0.764890623 1.288465772e-38
0.1491392608 0.0159814634 0.764890623 1.306797138e-38
0.1513449958 0.0159814634 0.764890623 1.325271857e-38
0.1527964258 0.0157928984 0.761890668 1.352894392e-38
0.1549964308 0.0157928984 0.761890668 1.380516367e-38
0.1571964358 0.0157928984 0.761890668 1.408210229e-38
0.1586249908 0.0156043229 0.758890623 1.445089181e-38
0.1608192508 0.0156043229 0.758890623 1.481788908e-38
0.1630135708 0.0156043229 0.758890623 1.518416468e-38
0.1652078458 0.0156043229 0.758890623 1.509234039e-38
0.1674021058 0.0156043229 0.758890623 1.509232498e-38
0.1695964258 0.0156043229 0.758890623 1.546036901e-38
0.1717907008 0.0156043229 0.758890623 1.583093819e-38
0.1747964308 0.0157928984 0.761890668 1.537140057e-38
0.1778135458 0.0159814634 0.764890623 1.500372788e-38
0.1800192658 0.0159814634 0.764890623 1.491084421e-38
0.1822249858 0.0159814634 0.764890623 1.49100749e-38
0.1104678358 0.0165357539 0.739390683 1.666470657e-38
0.1119621208 0.0163414664 0.736390638 1.731151231e-38
0.1141135708 0.0163414664 0.736390638 1.804618927e-38
0.1260421558 0.0191586134 0.779890698 1.60207805e-38
0.1282764358 0.0191586134 0.779890698 1.408678683e-38
0.1294821358 0.0188671859 0.775390668 1.306397488e-38
0.1310163958 0.0186728984 0.772390623 1.205342849e-38
0.1332363958 0.0186728984 0.772390623 1.223674355e-38
0.1354563958 0.0186728984 0.772390623 1.242115583e-38
0.1376764108 0.0186728984 0.772390623 1.251373121e-38
0.1391821408 0.0184786064 0.769390668 1.260878549e-38
0.1413964108 0.0184786064 0.769390668 1.270168738e-38
0.1436106958 0.0184786064 0.769390668 1.288500524e-38
0.1458249958 0.0184786064 0.769390668 1.288501085e-38
0.1473021508 0.0182843249 0.766390698 1.297649041e-38
0.1491392608 0.0181871834 0.764890623 1.306832871e-38
0.1505964208 0.0179928974 0.761890668 1.316052574e-38
0.1527964258 0.0179928974 0.761890668 1.34367525e-38
0.1549964308 0.0179928974 0.761890668 1.371261492e-38
0.1571964358 0.0179928974 0.761890668 1.389664324e-38
0.1586249908 0.0177986054 0.758890623 1.417323714e-38
0.1608192508 0.0177986054 0.758890623 1.445018976e-38
0.1630135708 0.0177986054 0.758890623 1.472462286e-38
0.1652078458 0.0177986054 0.758890623 1.490865539e-38
0.1674021058 0.0177986054 0.758890623 1.509231657e-38
0.1695964258 0.0177986054 0.758890623 1.555220171e-38
0.1725964258 0.0179928974 0.761890668 1.610357061e-38
0.1747964308 0.0179928974 0.761890668 1.55532737e-38
0.1769964358 0.0179928974 0.761890668 1.500227894e-38
0.1800192658 0.0181871834 0.764890623 1.481862616e-38
0.1822249858 0.0181871834 0.764890623 1.463456141e-38
0.1043764108 0.0194928944 0.751390623 1.519823511e-38
0.1059164308 0.0192928964 0.748390668 1.56574224e-38
0.1080907108 0.0192928964 0.748390668 1.620879692e-38
0.1086364258 0.0187928939 0.740890668 1.611588803e-38
0.1107964108 0.0187928939 0.740890668 1.602334207e-38
0.1119621208 0.0184928939 0.736390638 1.63910512e-38
0.1141135708 0.0184928939 0.736390638 1.68509069e-38
0.1267164208 0.0215928974 0.782890668 1.518778563e-38
0.1282764358 0.0213928994 0.779890698 1.352823206e-38
0.1294821358 0.0210928994 0.775390668 1.296926952e-38
0.1310163958 0.0208928909 0.772390623 1.241932854e-38
0.1332363958 0.0208928909 0.772390623 1.242040193e-38
0.1354563958 0.0208928909 0.772390623 1.242115163e-38
0.1369678408 0.0206928989 0.769390668 1.242190272e-38
0.1391821408 0.0206928989 0.769390668 1.251659687e-38
0.1413964108 0.0206928989 0.769390668 1.260842255e-38
0.1428849958 0.0204929009 0.766390698 1.279245228e-38
0.1450935808 0.0204929009 0.766390698 1.288500524e-38
0.1473021508 0.0204929009 0.766390698 1.297684634e-38
0.1491392608 0.0203928929 0.764890623 1.306796998e-38
0.1513449958 0.0203928929 0.764890623 1.325092771e-38
0.1527964258 0.0201928949 0.761890668 1.343603784e-38
0.1549964308 0.0201928949 0.761890668 1.362006616e-38
0.1571964358 0.0201928949 0.761890668 1.380445462e-38
0.1586249908 0.0199928969 0.758890623 1.398634035e-38
0.1608192508 0.0199928969 0.758890623 1.426508524e-38
0.1630135708 0.0199928969 0.758890623 1.454094626e-38
0.1652078458 0.0199928969 0.758890623 1.472497178e-38
0.1674021058 0.0199928969 0.758890623 1.49089959e-38
0.1695964258 0.0199928969 0.758890623 1.518485692e-38
0.1717907008 0.0199928969 0.758890623 1.536924257e-38
0.1739849908 0.0199928969 0.758890623 1.509409201e-38
0.1769964358 0.0201928949 0.761890668 1.490935323e-38
0.1791964258 0.0201928949 0.761890668 1.472712698e-38
0.1822249858 0.0203928929 0.764890623 1.463491313e-38
0.1844307208 0.0203928929 0.764890623 1.454341675e-38
0.07463642085 0.0211586084 0.743890638 1.428303027e-38
0.07765070085 0.0214671854 0.748390668 1.620941769e-38
0.07982499585 0.0214671854 0.748390668 1.620761842e-38
0.08199926085 0.0214671854 0.748390668 1.620869042e-38
0.08388215085 0.0213643274 0.746890683 1.657746313e-38
0.08605356585 0.0213643274 0.746890683 1.703377635e-38
0.09475070085 0.0206443274 0.736390638 1.704423985e-38
0.09690212085 0.0206443274 0.736390638 1.721213222e-38
0.1021964008 0.0216728939 0.751390623 1.7221825e-38
0.1043764108 0.0216728939 0.751390623 1.730935711e-38
0.1059164308 0.0214671854 0.748390668 1.675762807e-38
0.1080907108 0.0214671854 0.748390668 1.620661229e-38
0.1102650058 0.0214671854 0.748390668 1.573882243e-38
0.1107964108 0.0209528999 0.740890668 1.537722997e-38
0.1126250158 0.0208500419 0.739390683 1.5471585e-38
0.1147821358 0.0208500419 0.739390683 1.56534287e-38
0.1169392708 0.0208500419 0.739390683 1.435478376e-38
0.1289564158 0.0238328939 0.782890668 1.306905038e-38
0.1294821358 0.0233186129 0.775390668 1.287458238e-38
0.1310163958 0.0231128939 0.772390623 1.27874062e-38
0.1332363958 0.0231128939 0.772390623 1.260444987e-38
0.1347535708 0.0229071854 0.769390668 1.242079289e-38
0.1369678408 0.0229071854 0.769390668 1.24218831e-38
0.1391821408 0.0229071854 0.769390668 1.24240341e-38
0.1413964108 0.0229071854 0.769390668 1.260878129e-38
0.1428849958 0.0227014709 0.766390698 1.279281101e-38
0.1450935808 0.0227014709 0.766390698 1.288500524e-38
0.1473021508 0.0227014709 0.766390698 1.306760424e-38
0.1495107058 0.0227014709 0.766390698 1.315801041e-38
0.1513449958 0.0225986084 0.764890623 1.334204014e-38
0.1535506858 0.0225986084 0.764890623 1.343531196e-38
0.1549964308 0.0223928984 0.761890668 1.361969902e-38
0.1571964358 0.0223928984 0.761890668 1.371225198e-38
0.1593964258 0.0223928984 0.761890668 1.380373575e-38
0.1608192508 0.0221871794 0.758890623 1.408032544e-38
0.1630135708 0.0221871794 0.758890623 1.444910096e-38
0.1652078458 0.0221871794 0.758890623 1.463312928e-38
0.1674021058 0.0221871794 0.758890623 1.48171604e-38
0.1695964258 0.0221871794 0.758890623 1.472604237e-38
0.1717907008 0.0221871794 0.758890623 1.472640111e-38
0.1739849908 0.0221871794 0.758890623 1.472675984e-38
0.1769964358 0.0223928984 0.761890668 1.4818238e-38
0.1791964258 0.0223928984 0.761890668 1.472748011e-38
0.1813964308 0.0223928984 0.761890668 1.47263913e-38
0.1835964208 0.0223928984 0.761890668 1.44508736e-38
0.07163928585 0.0230071814 0.739390683 1.483332438e-38
0.07407641085 0.0231128984 0.740890668 1.520004559e-38
0.07736786085 0.0235357604 0.746890683 1.557311048e-38
0.07953929085 0.0235357604 0.746890683 1.546906267e-38
0.08199926085 0.0236414669 0.748390668 1.53797369e-38
0.08271644085 0.0231128984 0.740890668 1.556376522e-38
0.08458214085 0.0230071814 0.739390683 1.583999338e-38
0.08673927585 0.0230071814 0.739390683 1.565668532e-38
0.08829641085 0.0227957504 0.736390638 1.547337727e-38
0.09044783085 0.0227957504 0.736390638 1.547553526e-38
0.09259925085 0.0227957504 0.736390638 1.556951755e-38
0.09475070085 0.0227957504 0.736390638 1.565632659e-38
0.09690212085 0.0227957504 0.736390638 1.574348875e-38
0.1015678558 0.0236414669 0.748390668 1.556160162e-38
0.1037421208 0.0236414669 0.748390668 1.547155277e-38
0.1055964208 0.0235357604 0.746890683 1.519496448e-38
0.1077678358 0.0235357604 0.746890683 1.482689663e-38
0.1092878458 0.0233243234 0.743890638 1.482509456e-38
0.1114535608 0.0233243234 0.743890638 1.49151462e-38
0.1129564258 0.0231128984 0.740890668 1.500699291e-38
0.1151164258 0.0231128984 0.740890668 1.519063447e-38
0.1169392708 0.0230071814 0.739390683 1.426256431e-38
0.1190964358 0.0230071814 0.739390683 1.343674829e-38
0.1287964108 0.0253328969 0.772390623 1.325019483e-38
0.1310163958 0.0253328969 0.772390623 1.297181428e-38
0.1325392708 0.0251214659 0.769390668 1.278778035e-38
0.1347535708 0.0251214659 0.769390668 1.269593925e-38
0.1369678408 0.0251214659 0.769390668 1.232931053e-38
0.1384678408 0.0249100409 0.766390698 1.196448808e-38
0.1406764408 0.0249100409 0.766390698 1.223964564e-38
0.1428849958 0.0249100409 0.766390698 1.260698763e-38
0.1450935808 0.0249100409 0.766390698 1.279065862e-38
0.1473021508 0.0249100409 0.766390698 1.306652804e-38
0.1491392608 0.0248043224 0.764890623 1.315765168e-38
0.1513449958 0.0248043224 0.764890623 1.334095973e-38
0.1535506858 0.0248043224 0.764890623 1.361933328e-38
0.1549964308 0.0245928974 0.761890668 1.38951985e-38
0.1564306858 0.0243814664 0.758890623 1.3803363e-38
0.1586249908 0.0243814664 0.758890623 1.380336721e-38
0.1608192508 0.0243814664 0.758890623 1.407923803e-38
0.1630135708 0.0243814664 0.758890623 1.444945128e-38
0.1652078458 0.0243814664 0.758890623 1.463240621e-38
0.1674021058 0.0243814664 0.758890623 1.490755957e-38
0.1695964258 0.0243814664 0.758890623 1.481608981e-38
0.1717907008 0.0243814664 0.758890623 1.481681008e-38
0.1739849908 0.0243814664 0.758890623 1.481753035e-38
0.1761792658 0.0243814664 0.758890623 1.49100763e-38
0.1783735558 0.0243814664 0.758890623 1.500262226e-38
0.1805678458 0.0243814664 0.758890623 1.500118312e-38
0.1827621208 0.0243814664 0.758890623 1.472567383e-38
0.1857964108 0.0245928974 0.761890668 1.445051346e-38
0.1879964308 0.0245928974 0.761890668 1.463488931e-38
0.07302498585 0.0257071814 0.746890683 1.740295404e-38
0.07407641085 0.0252728924 0.740890668 1.620877309e-38
0.07736786085 0.0257071814 0.746890683 1.50102215e-38
0.07839642585 0.0252728924 0.740890668 1.47303836e-38
0.08055641085 0.0252728924 0.740890668 1.45445546e-38
0.08271644085 0.0252728924 0.740890668 1.454275674e-38
0.08458214085 0.0251643299 0.739390683 1.46342335e-38
0.08673927585 0.0251643299 0.739390683 1.463387617e-38
0.08889644085 0.0251643299 0.739390683 1.47239138e-38
0.09044783085 0.0249471779 0.736390638 1.444660945e-38
0.09321071085 0.0251643299 0.739390683 1.426221959e-38
0.09536786085 0.0251643299 0.739390683 1.426186086e-38
0.09752499585 0.0251643299 0.739390683 1.426401045e-38
0.09968211585 0.0251643299 0.739390683 1.399065355e-38
0.1034250058 0.0257071814 0.746890683 1.371263594e-38
0.1049564158 0.0254900399 0.743890638 1.361828791e-38
0.1071221158 0.0254900399 0.743890638 1.352716568e-38
0.1092878458 0.0254900399 0.743890638 1.398705502e-38
0.1114535608 0.0254900399 0.743890638 1.444479617e-38
0.1129564258 0.0252728924 0.740890668 1.453519673e-38
0.1151164258 0.0252728924 0.740890668 1.471993972e-38
0.1172764258 0.0252728924 0.740890668 1.426219296e-38
0.1194364108 0.0252728924 0.740890668 1.389448384e-38
0.1298249908 0.0278786084 0.776890653 1.352713345e-38
0.1303249708 0.0273357524 0.769390668 1.324661171e-38
0.1325392708 0.0273357524 0.769390668 1.306330506e-38
0.1340507158 0.0271186154 0.766390698 1.297037094e-38
0.1362592708 0.0271186154 0.766390698 1.223494569e-38
0.1384678408 0.0271186154 0.766390698 1.159426642e-38
0.1406764408 0.0271186154 0.766390698 1.196377902e-38
0.1428849958 0.0271186154 0.766390698 1.24229537e-38
0.1450935808 0.0271186154 0.766390698 1.269881611e-38
0.1469335708 0.0270100364 0.764890623 1.306616511e-38
0.1491392608 0.0270100364 0.764890623 1.324948437e-38
0.1513449958 0.0270100364 0.764890623 1.343422596e-38
0.1535506858 0.0270100364 0.764890623 1.38033574e-38
0.1549964308 0.0267929009 0.761890668 1.417070219e-38
0.1564306858 0.0265757474 0.758890623 1.3987034e-38
0.1586249908 0.0265757474 0.758890623 1.389484397e-38
0.1608192508 0.0265757474 0.758890623 1.417035326e-38
0.1630135708 0.0265757474 0.758890623 1.444658142e-38
0.1652078458 0.0265757474 0.758890623 1.472316831e-38
0.1674021058 0.0265757474 0.758890623 1.50905131e-38
0.1695964258 0.0265757474 0.758890623 1.499903914e-38
0.1717907008 0.0265757474 0.758890623 1.490792951e-38
0.1735792558 0.0264671804 0.757390638 1.500084821e-38
0.1761792658 0.0265757474 0.758890623 1.509338996e-38
0.1783735558 0.0265757474 0.758890623 1.518629045e-38
0.1805678458 0.0265757474 0.758890623 1.536816497e-38
0.1827621208 0.0265757474 0.758890623 1.500082019e-38
0.1849564108 0.0265757474 0.758890623 1.472530949e-38
0.1871507008 0.0265757474 0.758890623 1.52766784e-38
0.1893449758 0.0265757474 0.758890623 1.582875777e-38
0.07191641085 0.0274328984 0.740890668 1.602365876e-38
0.07407641085 0.0274328984 0.740890668 1.519281489e-38
0.07623642585 0.0274328984 0.740890668 1.445414703e-38
0.07839642585 0.0274328984 0.740890668 1.417752791e-38
0.08055641085 0.0274328984 0.740890668 1.399277231e-38
0.08242499085 0.0273214694 0.739390683 1.35310753e-38
0.08458214085 0.0273214694 0.739390683 1.316229558e-38
0.08673927585 0.0273214694 0.739390683 1.362218772e-38
0.08889644085 0.0273214694 0.739390683 1.416672951e-38
0.09044783085 0.0270986114 0.736390638 1.407918619e-38
0.09259925085 0.0270986114 0.736390638 1.407560307e-38
0.09475070085 0.0270986114 0.736390638 1.39862829e-38
0.09690212085 0.0270986114 0.736390638 1.398269978e-38
0.09968211585 0.0273214694 0.739390683 1.379616313e-38
0.1018392808 0.0273214694 0.739390683 1.370182071e-38
0.1049564158 0.0276557504 0.743890638 1.360927336e-38
0.1064763958 0.0274328984 0.740890668 1.3516719e-38
0.1086364258 0.0274328984 0.740890668 1.380083366e-38
0.1107964108 0.0274328984 0.740890668 1.416636937e-38
0.1129564258 0.0274328984 0.740890668 1.416599803e-38
0.1151164258 0.0274328984 0.740890668 1.416566031e-38
0.1172764258 0.0274328984 0.740890668 1.379762329e-38
0.1194364108 0.0274328984 0.740890668 1.352175386e-38
0.1287964108 0.0297728909 0.772390623 1.324588584e-38
0.1303249708 0.0295500434 0.769390668 1.297039617e-38
0.1318421458 0.0293271854 0.766390698 1.287786002e-38
0.1336992658 0.0292157519 0.764890623 1.287710052e-38
0.1362592708 0.0293271854 0.766390698 1.241752367e-38
0.1381106908 0.0292157519 0.764890623 1.186330732e-38
0.1403164258 0.0292157519 0.764890623 1.205023213e-38
0.1425221158 0.0292157519 0.764890623 1.232932033e-38
0.1447278358 0.0292157519 0.764890623 1.260661628e-38
0.1469335708 0.0292157519 0.764890623 1.297504287e-38
0.1491392608 0.0292157519 0.764890623 1.306760424e-38
0.1505964208 0.0289928939 0.761890668 1.325198569e-38
0.1527964258 0.0289928939 0.761890668 1.352712784e-38
0.1549964308 0.0289928939 0.761890668 1.389447543e-38
0.1564306858 0.0287700359 0.758890623 1.389448244e-38
0.1586249908 0.0287700359 0.758890623 1.389484257e-38
0.1608192508 0.0287700359 0.758890623 1.40788751e-38
0.1630135708 0.0287700359 0.758890623 1.426111677e-38
0.1648135558 0.0286586069 0.757390638 1.453806519e-38
0.1670049808 0.0286586069 0.757390638 1.481428914e-38
0.1691964208 0.0286586069 0.757390638 1.472317111e-38
0.1713878458 0.0286586069 0.757390638 1.463170696e-38
0.1735792558 0.0286586069 0.757390638 1.472427253e-38
0.1757706958 0.0286586069 0.757390638 1.490936304e-38
0.1779621508 0.0286586069 0.757390638 1.500082439e-38
0.1805678458 0.0287700359 0.758890623 1.509229835e-38
0.1823449858 0.0286586069 0.757390638 1.48160716e-38
0.1845364258 0.0286586069 0.757390638 1.463204748e-38
0.1867278508 0.0286586069 0.757390638 1.49089959e-38
0.1901964208 0.0289928939 0.761890668 1.518413665e-38
0.1923964258 0.0289928939 0.761890668 1.481786526e-38
0.1945964308 0.0289928939 0.761890668 1.445192597e-38
0.06975642585 0.0295928984 0.740890668 1.40004178e-38
0.07191641085 0.0295928984 0.740890668 1.464251237e-38
0.07379643585 0.0294786134 0.739390683 1.426293845e-38
0.07623642585 0.0295928984 0.740890668 1.389486639e-38
0.07811072085 0.0294786134 0.739390683 1.361898856e-38
0.08026784085 0.0294786134 0.739390683 1.343638536e-38
0.08242499085 0.0294786134 0.739390683 1.261129241e-38
0.08458214085 0.0294786134 0.739390683 1.178441141e-38
0.08673927585 0.0294786134 0.739390683 1.270276357e-38
0.08889644085 0.0294786134 0.739390683 1.362039266e-38
0.09044783085 0.0292500389 0.736390638 1.371186102e-38
0.09259925085 0.0292500389 0.736390638 1.38919573e-38
0.09536786085 0.0294786134 0.739390683 1.380264554e-38
0.09752499585 0.0294786134 0.739390683 1.370757304e-38
0.09968211585 0.0294786134 0.739390683 1.37093597e-38
0.1021564408 0.0295928984 0.740890668 1.379940013e-38
0.1043164258 0.0295928984 0.740890668 1.361429421e-38
0.1064763958 0.0295928984 0.740890668 1.352281885e-38
0.1086364258 0.0295928984 0.740890668 1.370684997e-38
0.1114535608 0.0298214609 0.743890638 1.38887203e-38
0.1136192608 0.0298214609 0.743890638 1.370360877e-38
0.1157849908 0.0298214609 0.743890638 1.361213621e-38
0.1179506908 0.0298214609 0.743890638 1.333735279e-38
0.1211364208 0.0301643264 0.748390668 1.31525986e-38
0.1239963958 0.0303928949 0.751390623 1.287636624e-38
0.1285964308 0.0311928974 0.761890668 1.269271486e-38
0.1314935458 0.0314214659 0.764890623 1.278493011e-38
0.1329964258 0.0311928974 0.761890668 1.287746345e-38
0.1359050008 0.0314214659 0.764890623 1.250830819e-38
0.1381106908 0.0314214659 0.764890623 1.223244857e-38
0.1403164258 0.0314214659 0.764890623 1.223209544e-38
0.1425221158 0.0314214659 0.764890623 1.22360443e-38
0.1447278358 0.0314214659 0.764890623 1.251478359e-38
0.1469335708 0.0314214659 0.764890623 1.288250112e-38
0.1491392608 0.0314214659 0.764890623 1.29761485e-38
0.1505964208 0.0311928974 0.761890668 1.315873068e-38
0.1527964258 0.0311928974 0.761890668 1.3341673e-38
0.1542363958 0.0309643229 0.758890623 1.361789975e-38
0.1564306858 0.0309643229 0.758890623 1.371045552e-38
0.1582392808 0.0308500379 0.757390638 1.389448664e-38
0.1608192508 0.0309643229 0.758890623 1.398739974e-38
0.1626221158 0.0308500379 0.757390638 1.407852057e-38
0.1648135558 0.0308500379 0.757390638 1.426183563e-38
0.1670049808 0.0308500379 0.757390638 1.453878125e-38
0.1691964208 0.0308500379 0.757390638 1.444766743e-38
0.1713878458 0.0308500379 0.757390638 1.444767583e-38
0.1735792558 0.0308500379 0.757390638 1.453987847e-38
0.1749535558 0.0306214694 0.754390683 1.472353685e-38
0.1771392658 0.0306214694 0.754390683 1.481571987e-38
0.1801535608 0.0308500379 0.757390638 1.490719803e-38
0.1823449858 0.0308500379 0.757390638 1.472316971e-38
0.1836964408 0.0306214694 0.754390683 1.453985745e-38
0.1858821508 0.0306214694 0.754390683 1.454129378e-38
0.1880678608 0.0306214694 0.754390683 1.454164551e-38
0.1915392808 0.0309643229 0.758890623 1.463383273e-38
0.1937335558 0.0309643229 0.758890623 1.481928477e-38
0.1959278308 0.0309643229 0.758890623 1.288606322e-38
0.06975642585 0.0317528984 0.740890668 1.317173613e-38
0.07191641085 0.0317528984 0.740890668 1.362870937e-38
0.07407641085 0.0317528984 0.740890668 1.343601822e-38
0.07623642585 0.0317528984 0.740890668 1.334168421e-38
0.07811072085 0.0316357574 0.739390683 1.325201372e-38
0.08055641085 0.0317528984 0.740890668 1.316016841e-38
0.08242499085 0.0316357574 0.739390683 1.270098252e-38
0.08458214085 0.0316357574 0.739390683 1.215032548e-38
0.08673927585 0.0316357574 0.739390683 1.270026085e-38
0.08889644085 0.0316357574 0.739390683 1.325019343e-38
0.09044783085 0.0314014664 0.736390638 1.334130866e-38
0.09321071085 0.0316357574 0.739390683 1.343280504e-38
0.09536786085 0.0316357574 0.739390683 1.334099056e-38
0.09752499585 0.0316357574 0.739390683 1.324913545e-38
0.09999641085 0.0317528984 0.740890668 1.333987653e-38
0.1021564408 0.0317528984 0.740890668 1.343062882e-38
0.1043164258 0.0317528984 0.740890668 1.343062182e-38
0.1064763958 0.0317528984 0.740890668 1.333843179e-38
0.1086364258 0.0317528984 0.740890668 1.342991416e-38
0.1107964108 0.0317528984 0.740890668 1.342632544e-38
0.1129564258 0.0317528984 0.740890668 1.324408937e-38
0.1157849908 0.0319871834 0.743890638 1.31526014e-38
0.1172764258 0.0317528984 0.740890668 1.287636624e-38
0.1207964008 0.0322214684 0.746890683 1.26923239e-38
0.1233107008 0.0323386139 0.748390668 1.259975973e-38
0.1268678458 0.0328071839 0.754390683 1.250722919e-38
0.1300992658 0.0331586099 0.758890623 1.26930764e-38
0.1322935558 0.0331586099 0.758890623 1.296966188e-38
0.1351964308 0.0333928949 0.761890668 1.315261821e-38
0.1373964358 0.0333928949 0.761890668 1.342739182e-38
0.1395964108 0.0333928949 0.761890668 1.259942342e-38
0.1417964308 0.0333928949 0.761890668 1.177578502e-38
0.1439964208 0.0333928949 0.761890668 1.223892117e-38
0.1461964108 0.0333928949 0.761890668 1.269848401e-38
0.1483964308 0.0333928949 0.761890668 1.288146416e-38
0.1505964208 0.0333928949 0.761890668 1.306440087e-38
0.1527964258 0.0333928949 0.761890668 1.315621955e-38
0.1542363958 0.0331586099 0.758890623 1.333988914e-38
0.1560478258 0.0330414644 0.757390638 1.343387703e-38
0.1582392808 0.0330414644 0.757390638 1.361898296e-38
0.1604307208 0.0330414644 0.757390638 1.371117859e-38
0.1626221158 0.0330414644 0.757390638 1.389520691e-38
0.1648135558 0.0330414644 0.757390638 1.407923663e-38
0.1662107158 0.0328071839 0.754390683 1.426327336e-38
0.1691964208 0.0330414644 0.757390638 1.4355476e-38
0.1713878458 0.0330414644 0.757390638 1.435583894e-38
0.1727678458 0.0328071839 0.754390683 1.453987287e-38
0.1749535558 0.0328071839 0.754390683 1.472245925e-38
0.1771392658 0.0328071839 0.754390683 1.472316971e-38
0.1793250058 0.0328071839 0.754390683 1.481536814e-38
0.1815107308 0.0328071839 0.754390683 1.472317952e-38
0.1836964408 0.0328071839 0.754390683 1.453950432e-38
0.1850364208 0.0325728944 0.751390623 1.435618786e-38
0.1880678608 0.0328071839 0.754390683 1.40810317e-38
0.1911106858 0.0330414644 0.757390638 1.426613061e-38
0.1933021258 0.0330414644 0.757390638 1.454415383e-38
0.1954935508 0.0330414644 0.757390638 1.389557125e-38
0.06732500085 0.0337929014 0.739390683 1.225334473e-38
0.06948212085 0.0337929014 0.739390683 1.243341579e-38
0.07163928585 0.0337929014 0.739390683 1.26131155e-38
0.07379643585 0.0337929014 0.739390683 1.270133705e-38
0.07595355585 0.0337929014 0.739390683 1.288501365e-38
0.07811072085 0.0337929014 0.739390683 1.288501925e-38
0.08026784085 0.0337929014 0.739390683 1.297684494e-38
0.08242499085 0.0337929014 0.739390683 1.279352427e-38
0.08458214085 0.0337929014 0.739390683 1.260769948e-38
0.08673927585 0.0337929014 0.739390683 1.269810005e-38
0.08889644085 0.0337929014 0.739390683 1.288212417e-38
0.09105356085 0.0337929014 0.739390683 1.28824787e-38
0.09321071085 0.0337929014 0.739390683 1.297289468e-38
0.09536786085 0.0337929014 0.739390683 1.28799984e-38
0.09752499585 0.0337929014 0.739390683 1.278779156e-38
0.09968211585 0.0337929014 0.739390683 1.297109121e-38
0.1018392808 0.0337929014 0.739390683 1.3154758e-38
0.1039964308 0.0337929014 0.739390683 1.315547266e-38
0.1061535508 0.0337929014 0.739390683 1.324623336e-38
0.1086364258 0.0339129029 0.740890668 1.315332447e-38
0.1107964108 0.0339129029 0.740890668 1.306076871e-38
0.1129564258 0.0339129029 0.740890668 1.287673618e-38
0.1151164258 0.0339129029 0.740890668 1.269305678e-38
0.1172764258 0.0339129029 0.740890668 1.241754328e-38
0.1207964008 0.0343929014 0.746890683 1.223243035e-38
0.1229678608 0.0343929014 0.746890683 1.223170728e-38
0.1261764058 0.0347528984 0.751390623 1.232320647e-38
0.1290535558 0.0349928939 0.754390683 1.2693082e-38
0.1322935558 0.0353528969 0.758890623 1.306150719e-38
0.1344878458 0.0353528969 0.758890623 1.389484818e-38
0.1366821208 0.0353528969 0.758890623 1.471703623e-38
0.1395964108 0.0355928939 0.761890668 1.296711292e-38
0.1417964308 0.0355928939 0.761890668 1.131695506e-38
0.1439964208 0.0355928939 0.761890668 1.187120924e-38
0.1461964108 0.0355928939 0.761890668 1.251408014e-38
0.1483964308 0.0355928939 0.761890668 1.269813228e-38
0.1505964208 0.0355928939 0.761890668 1.297255276e-38
0.1527964258 0.0355928939 0.761890668 1.297290169e-38
0.1542363958 0.0353528969 0.758890623 1.306509592e-38
0.1560478258 0.0352328969 0.757390638 1.315728874e-38
0.1582392808 0.0352328969 0.757390638 1.334131707e-38
0.1604307208 0.0352328969 0.757390638 1.352570412e-38
0.1626221158 0.0352328969 0.757390638 1.380264834e-38
0.1640250058 0.0349928939 0.754390683 1.389592157e-38
0.1662107158 0.0349928939 0.754390683 1.407923803e-38
0.1683964258 0.0349928939 0.754390683 1.417107914e-38
0.1705821358 0.0349928939 0.754390683 1.435582913e-38
0.1727678458 0.0349928939 0.754390683 1.453986166e-38
0.1749535558 0.0349928939 0.754390683 1.472281238e-38
0.1771392658 0.0349928939 0.754390683 1.472280818e-38
0.1793250058 0.0349928939 0.754390683 1.481501502e-38
0.1815107308 0.0349928939 0.754390683 1.472355227e-38
0.1836964408 0.0349928939 0.754390683 1.463134963e-38
0.1850364208 0.0347528984 0.751390623 1.417216514e-38
0.1872164158 0.0347528984 0.751390623 1.371405405e-38
0.1902535708 0.0349928939 0.754390683 1.399026819e-38
0.1937335558 0.0353528969 0.758890623 1.426398663e-38
0.1954935508 0.0352328969 0.757390638 1.490504704e-38
0.1976849908 0.0352328969 0.757390638 1.554893528e-38
0.06759642585 0.0360729029 0.740890668 1.179162109e-38
0.06948212085 0.0359500469 0.739390683 1.196952714e-38
0.07163928585 0.0359500469 0.739390683 1.205669912e-38
0.07379643585 0.0359500469 0.739390683 1.224001138e-38
0.07595355585 0.0359500469 0.739390683 1.251551507e-38
0.07811072085 0.0359500469 0.739390683 1.260770789e-38
0.08026784085 0.0359500469 0.739390683 1.279172781e-38
0.08184212085 0.0357043274 0.736390638 1.251513671e-38
0.08458214085 0.0359500469 0.739390683 1.223855403e-38
0.08673927585 0.0359500469 0.739390683 1.242186769e-38
0.08889644085 0.0359500469 0.739390683 1.269736857e-38
0.09044783085 0.0357043274 0.736390638 1.269592804e-38
0.09259925085 0.0357043274 0.736390638 1.278669715e-38
0.09475070085 0.0357043274 0.736390638 1.269594766e-38
0.09690212085 0.0357043274 0.736390638 1.251298712e-38
0.09905354085 0.0357043274 0.736390638 1.278741181e-38
0.1012049908 0.0357043274 0.736390638 1.29710828e-38
0.1039964308 0.0359500469 0.739390683 1.29710842e-38
0.1061535508 0.0359500469 0.739390683 1.297072407e-38
0.1083107158 0.0359500469 0.739390683 1.278669294e-38
0.1107964108 0.0360729029 0.740890668 1.269341691e-38
0.1129564258 0.0360729029 0.740890668 1.260121848e-38
0.1151164258 0.0360729029 0.740890668 1.250937878e-38
0.1172764258 0.0360729029 0.740890668 1.223315202e-38
0.1207964008 0.0365643224 0.746890683 1.195656794e-38
0.1229678608 0.0365643224 0.746890683 1.19562078e-38
0.1261764058 0.0369328964 0.751390623 1.195587149e-38
0.1283564158 0.0369328964 0.751390623 1.232538829e-38
0.1312392958 0.0371786039 0.754390683 1.269453375e-38
0.1344878458 0.0375471839 0.758890623 1.343389105e-38
0.1366821208 0.0375471839 0.758890623 1.416997071e-38
0.1395964108 0.0377928974 0.761890668 1.25075655e-38
0.1417964308 0.0377928974 0.761890668 1.08581265e-38
0.1439964208 0.0377928974 0.761890668 1.177936394e-38
0.1461964108 0.0377928974 0.761890668 1.269917204e-38
0.1483964308 0.0377928974 0.761890668 1.269811406e-38
0.1498478308 0.0375471839 0.758890623 1.26963176e-38
0.1520421208 0.0375471839 0.758890623 1.269595606e-38
0.1538564158 0.0374243174 0.757390638 1.269595466e-38
0.1560478258 0.0374243174 0.757390638 1.278707269e-38
0.1574678608 0.0371786039 0.754390683 1.297038075e-38
0.1596535708 0.0371786039 0.754390683 1.324803543e-38
0.1610564008 0.0369328964 0.751390623 1.352677752e-38
0.1632363958 0.0369328964 0.751390623 1.380193228e-38
0.1654164058 0.0369328964 0.751390623 1.407744017e-38
0.1675964158 0.0369328964 0.751390623 1.417035326e-38
0.1697763958 0.0369328964 0.751390623 1.435617805e-38
0.1719564058 0.0369328964 0.751390623 1.472316411e-38
0.1741364158 0.0369328964 0.751390623 1.518234159e-38
0.1763164108 0.0369328964 0.751390623 1.499903073e-38
0.1784964208 0.0369328964 0.751390623 1.490972738e-38
0.1806764008 0.0369328964 0.751390623 1.481755417e-38
0.1836964408 0.0371786039 0.754390683 1.481718423e-38
0.1850364208 0.0369328964 0.751390623 1.444875483e-38
0.1872164158 0.0369328964 0.751390623 1.417359587e-38
0.1893964258 0.0369328964 0.751390623 1.426542015e-38
0.1924392808 0.0371786039 0.754390683 1.444730309e-38
0.1954935508 0.0374243174 0.757390638 1.490648618e-38
0.1976849908 0.0374243174 0.757390638 1.545889485e-38
0.06543641085 0.0382328909 0.740890668 1.169727727e-38
0.06759642585 0.0382328909 0.740890668 1.141996311e-38
0.06975642585 0.0382328909 0.740890668 1.150460995e-38
0.07163928585 0.0381071849 0.739390683 1.159608251e-38
0.07379643585 0.0381071849 0.739390683 1.187122606e-38
0.07595355585 0.0381071849 0.739390683 1.214636961e-38
0.07753928085 0.0378557504 0.736390638 1.23300364e-38
0.07969070085 0.0378557504 0.736390638 1.260517154e-38
0.08184212085 0.0378557504 0.736390638 1.223745821e-38
0.08399357085 0.0378557504 0.736390638 1.196195733e-38
0.08614499085 0.0378557504 0.736390638 1.223747083e-38
0.08829641085 0.0378557504 0.736390638 1.251297311e-38
0.09044783085 0.0378557504 0.736390638 1.260193454e-38
0.09259925085 0.0378557504 0.736390638 1.269521618e-38
0.09475070085 0.0378557504 0.736390638 1.251191513e-38
0.09690212085 0.0378557504 0.736390638 1.232752107e-38
0.09905354085 0.0378557504 0.736390638 1.260266322e-38
0.1012049908 0.0378557504 0.736390638 1.287960183e-38
0.1033564108 0.0378557504 0.736390638 1.278776494e-38
0.1061535508 0.0381071849 0.739390683 1.269556931e-38
0.1083107158 0.0381071849 0.739390683 1.251189691e-38
0.1104678358 0.0381071849 0.739390683 1.241969848e-38
0.1126250158 0.0381071849 0.739390683 1.232750005e-38
0.1147821358 0.0381071849 0.739390683 1.232570218e-38
0.1169392708 0.0381071849 0.739390683 1.204875796e-38
0.1190964358 0.0381071849 0.739390683 1.177289414e-38
0.1229678608 0.0387357599 0.746890683 1.168070272e-38
0.1254849658 0.0388614674 0.748390668 1.16814384e-38
0.1276592758 0.0388614674 0.748390668 1.20498748e-38
0.1305363958 0.0391128899 0.751390623 1.241722098e-38
0.1334250058 0.0393643364 0.754390683 1.297290309e-38
0.1363249858 0.0396157484 0.757390638 1.361429001e-38
0.1388763958 0.0397414664 0.758890623 1.195656093e-38
0.1410707008 0.0397414664 0.758890623 1.039572323e-38
0.1432649758 0.0397414664 0.758890623 1.159569154e-38
0.1461964108 0.0399929009 0.761890668 1.28814025e-38
0.1483964308 0.0399929009 0.761890668 1.269810426e-38
0.1498478308 0.0397414664 0.758890623 1.251227807e-38
0.1520421208 0.0397414664 0.758890623 1.242007963e-38
0.1538564158 0.0396157484 0.757390638 1.232716934e-38
0.1552821508 0.0393643364 0.754390683 1.251012567e-38
0.1574678608 0.0393643364 0.754390683 1.269451133e-38
0.1596535708 0.0393643364 0.754390683 1.297037374e-38
0.1610564008 0.0391128899 0.751390623 1.333879893e-38
0.1632363958 0.0391128899 0.751390623 1.370758285e-38
0.1654164058 0.0391128899 0.751390623 1.407600244e-38
0.1675964158 0.0391128899 0.751390623 1.416999313e-38
0.1697763958 0.0391128899 0.751390623 1.435366692e-38
0.1719564058 0.0391128899 0.751390623 1.49965196e-38
0.1741364158 0.0391128899 0.751390623 1.564116034e-38
0.1763164108 0.0391128899 0.751390623 1.527561061e-38
0.1784964208 0.0391128899 0.751390623 1.500011954e-38
0.1815107308 0.0393643364 0.754390683 1.500013495e-38
0.1836964408 0.0393643364 0.754390683 1.499976921e-38
0.1850364208 0.0391128899 0.751390623 1.481573108e-38
0.1880678608 0.0393643364 0.754390683 1.472424731e-38
0.1902535708 0.0393643364 0.754390683 1.463276354e-38
0.1924392808 0.0393643364 0.754390683 1.463133001e-38
0.1954935508 0.0396157484 0.757390638 1.499831607e-38
0.1976849908 0.0396157484 0.757390638 1.536706916e-38
0.1989964258 0.0393643364 0.754390683 1.398951289e-38
0.2011821358 0.0393643364 0.754390683 1.269449451e-38
0.06327642585 0.0403928969 0.740890668 1.225186777e-38
0.06543641085 0.0403928969 0.740890668 1.160218936e-38
0.06759642585 0.0403928969 0.740890668 1.095646823e-38
0.06975642585 0.0403928969 0.740890668 1.113475683e-38
0.07163928585 0.0402643289 0.739390683 1.12240728e-38
0.07379643585 0.0402643289 0.739390683 1.15917651e-38
0.07538786085 0.0400071839 0.736390638 1.186798205e-38
0.07753928085 0.0400071839 0.736390638 1.232715393e-38
0.07969070085 0.0400071839 0.736390638 1.269483923e-38
0.08155070085 0.0398786054 0.734890653 1.242075226e-38
0.08369925585 0.0398786054 0.734890653 1.214561571e-38
0.08584784085 0.0398786054 0.734890653 1.232893918e-38
0.08799642585 0.0398786054 0.734890653 1.260444287e-38
0.09014499585 0.0398786054 0.734890653 1.260408273e-38
0.09229358085 0.0398786054 0.734890653 1.269557071e-38
0.09444213585 0.0398786054 0.734890653 1.260338909e-38
0.09659069085 0.0398786054 0.734890653 1.260338489e-38
0.09873926085 0.0398786054 0.734890653 1.269593364e-38
0.1008878458 0.0398786054 0.734890653 1.2788481e-38
0.1033564108 0.0400071839 0.736390638 1.260444567e-38
0.1055078608 0.0400071839 0.736390638 1.25129675e-38
0.1076592808 0.0400071839 0.736390638 1.223781975e-38
0.1104678358 0.0402643289 0.739390683 1.196266779e-38
0.1126250158 0.0402643289 0.739390683 1.205127189e-38
0.1147821358 0.0402643289 0.739390683 1.223422121e-38
0.1169392708 0.0402643289 0.739390683 1.195763432e-38
0.1194364108 0.0403928969 0.740890668 1.168177471e-38
0.1222821208 0.0406500419 0.743890638 1.158922875e-38
0.1251392758 0.0409071764 0.746890683 1.140270192e-38
0.1276592758 0.0410357549 0.748390668 1.168145101e-38
0.1305363958 0.0412928894 0.751390623 1.204843286e-38
0.1341335608 0.0418071809 0.757390638 1.250904527e-38
0.1366821208 0.0419357594 0.758890623 1.29700024e-38
0.1388763958 0.0419357594 0.758890623 1.195585187e-38
0.1417964308 0.0421928939 0.761890668 1.103570605e-38
0.1439964208 0.0421928939 0.761890668 1.168537324e-38
0.1461964108 0.0421928939 0.761890668 1.242221942e-38
0.1476535708 0.0419357594 0.758890623 1.223748344e-38
0.1498478308 0.0419357594 0.758890623 1.214456754e-38
0.1520421208 0.0419357594 0.758890623 1.214312841e-38
0.1538564158 0.0418071809 0.757390638 1.214205641e-38
0.1552821508 0.0415500464 0.754390683 1.223497231e-38
0.1574678608 0.0415500464 0.754390683 1.241900063e-38
0.1596535708 0.0415500464 0.754390683 1.269414699e-38
0.1610564008 0.0412928894 0.751390623 1.306149598e-38
0.1632363958 0.0412928894 0.751390623 1.342992257e-38
0.1654164058 0.0412928894 0.751390623 1.389053638e-38
0.1675964158 0.0412928894 0.751390623 1.398237468e-38
0.1697763958 0.0412928894 0.751390623 1.416604988e-38
0.1719564058 0.0412928894 0.751390623 1.453662606e-38
0.1741364158 0.0412928894 0.751390623 1.499436581e-38
0.1763164108 0.0412928894 0.751390623 1.49068323e-38
0.1784964208 0.0412928894 0.751390623 1.481536534e-38
0.1815107308 0.0415500464 0.754390683 1.499904614e-38
0.1836964408 0.0415500464 0.754390683 1.518271293e-38
0.1850364208 0.0412928894 0.751390623 1.49997552e-38
0.1872164158 0.0412928894 0.751390623 1.481751633e-38
0.1902535708 0.0415500464 0.754390683 1.463348381e-38
0.1924392808 0.0415500464 0.754390683 1.444837508e-38
0.1946249908 0.0415500464 0.754390683 1.454020918e-38
0.1968107008 0.0415500464 0.754390683 1.46323936e-38
0.1989964258 0.0415500464 0.754390683 1.380658319e-38
0.2011821358 0.0415500464 0.754390683 1.297648341e-38
0.06327642585 0.0425528909 0.740890668 1.243516041e-38
0.06543641085 0.0425528909 0.740890668 1.15074798e-38
0.06759642585 0.0425528909 0.740890668 1.058696404e-38
0.06948212085 0.0424214729 0.739390683 1.076524564e-38
0.07163928585 0.0424214729 0.739390683 1.094927256e-38
0.07323641085 0.0421586054 0.736390638 1.131732781e-38
0.07510499085 0.0420271889 0.734890653 1.168502852e-38
0.07725356085 0.0420271889 0.734890653 1.223675897e-38
0.07940214585 0.0420271889 0.734890653 1.287960604e-38
0.08155070085 0.0420271889 0.734890653 1.260445688e-38
0.08399357085 0.0421586054 0.736390638 1.232930492e-38
0.08584784085 0.0420271889 0.734890653 1.251369057e-38
0.08799642585 0.0420271889 0.734890653 1.269628257e-38
0.09044783085 0.0421586054 0.736390638 1.269699723e-38
0.09229358085 0.0420271889 0.734890653 1.269592944e-38
0.09444213585 0.0420271889 0.734890653 1.278705588e-38
0.09659069085 0.0420271889 0.734890653 1.297108701e-38
0.09873926085 0.0420271889 0.734890653 1.278813348e-38
0.1008878458 0.0420271889 0.734890653 1.269593084e-38
0.1033564108 0.0421586054 0.736390638 1.251225144e-38
