# .PCD v0.7 - Point Cloud Data file format
VERSION 0.7
FIELDS x y z rgb
SIZE 4 4 4 4
TYPE F F F F
COUNT 1 1 1 1
WIDTH 839
HEIGHT 1
VIEWPOINT 0 0 0 1 0 0 0
POINTS 839
DATA ascii
0.2315405674 -0.03425439957 0.7631623635 1.518414085e-38
0.2337348574 -0.03425439957 0.7631623635 1.55511171e-38
0.2354434024 -0.03420583257 0.7616623785 1.536815797e-38
0.2376348274 -0.03420583257 0.7616623785 1.518447016e-38
0.2388433924 -0.03410868957 0.7586624235 1.527593151e-38
0.2410291324 -0.03410868957 0.7586624235 1.536778102e-38
0.2432148574 -0.03410868957 0.7586624235 1.555003109e-38
0.2454005974 -0.03410868957 0.7586624235 1.573226716e-38
0.2485919674 -0.03420583257 0.7616623785 1.545676067e-38
0.2507834224 -0.03420583257 0.7616623785 1.51816003e-38
0.2529748324 -0.03420583257 0.7616623785 1.508975359e-38
0.2541434224 -0.03410868957 0.7586624235 1.509012774e-38
0.2563291624 -0.03410868957 0.7586624235 1.518161992e-38
0.2585148424 -0.03410868957 0.7586624235 1.527346803e-38
0.2607005824 -0.03410868957 0.7586624235 1.536639373e-38
0.2628863074 -0.03410868957 0.7586624235 1.545963473e-38
0.2640205324 -0.03401154507 0.7556623635 1.56432763e-38
0.2662005424 -0.03401154507 0.7556623635 1.59187968e-38
0.2694434224 -0.03410868957 0.7586624235 1.573513982e-38
0.2716291474 -0.03410868957 0.7586624235 1.555185418e-38
0.2738148424 -0.03410868957 0.7586624235 1.555188221e-38
0.2760005674 -0.03410868957 0.7586624235 1.555186399e-38
0.2781862624 -0.03410868957 0.7586624235 1.59184717e-38
0.2803719874 -0.03410868957 0.7586624235 1.619290059e-38
0.2836548424 -0.03420583257 0.7616623785 1.600958833e-38
0.2858462974 -0.03420583257 0.7616623785 1.582700194e-38
0.2885919724 -0.03425439957 0.7631623635 1.555150386e-38
0.2907862474 -0.03425439957 0.7631623635 1.527633648e-38
0.2941005724 -0.03435154557 0.7661624085 1.481606459e-38
0.2963005624 -0.03435154557 0.7661624085 1.435582212e-38
0.2996320024 -0.03444869007 0.7691623635 1.453986446e-38
0.3024062974 -0.03449726007 0.7706624385 1.47285493e-38
0.3057576724 -0.03459440007 0.7736624085 1.491257061e-38
0.3102691474 -0.03478869057 0.7796624085 1.500473822e-38
0.3130720024 -0.03483725757 0.7811623935 1.528021808e-38
0.3164605774 -0.03493440357 0.7841624385 1.564758669e-38
0.3198605524 -0.03503154807 0.7871624085 1.546394372e-38
0.3221005474 -0.03503154807 0.7871624085 1.528027553e-38
0.3266948524 -0.03522583107 0.7931624235 1.509589128e-38
0.3295377274 -0.03527440257 0.7946623935 1.49100707e-38
0.3329805274 -0.03537154557 0.7976623635 1.454309025e-38
0.3376291024 -0.03556583007 0.8036623785 1.426865295e-38
0.3399005374 -0.03556583007 0.8036623785 1.390022916e-38
0.08420339741 -0.03132868857 0.7391623935 1.132448564e-38
0.08635198241 -0.03132868857 0.7391623935 1.16914815e-38
0.08790056741 -0.03123726057 0.7361624385 1.214993872e-38
0.09004342241 -0.03123726057 0.7361624385 1.187371056e-38
0.09157484741 -0.03114583107 0.7331623935 1.15885197e-38
0.09371198741 -0.03114583107 0.7331623935 1.213989281e-38
0.09553769741 -0.03110011707 0.7316624085 1.269127433e-38
0.09767200241 -0.03110011707 0.7316624085 1.315046162e-38
0.09980627741 -0.03110011707 0.7316624085 1.361107403e-38
0.1019405674 -0.03110011707 0.7316624085 1.388837418e-38
0.1040748424 -0.03110011707 0.7316624085 1.416496107e-38
0.1062091474 -0.03110011707 0.7316624085 1.471705304e-38
0.1083434224 -0.03110011707 0.7316624085 1.526914502e-38
0.1104777274 -0.03110011707 0.7316624085 1.490288344e-38
0.1129462924 -0.03114583107 0.7331623935 1.462378402e-38
0.1150834024 -0.03114583107 0.7331623935 1.444046615e-38
0.1172205424 -0.03114583107 0.7331623935 1.434898238e-38
0.1200434374 -0.03123726057 0.7361624385 1.416566172e-38
0.1221862774 -0.03123726057 0.7361624385 1.407527656e-38
0.1250262724 -0.03132868857 0.7391623935 1.297290589e-38
0.1271748574 -0.03132868857 0.7391623935 1.187302392e-38
0.1293234124 -0.03132868857 0.7391623935 1.278670836e-38
0.1318291174 -0.03137440257 0.7406623785 1.370901638e-38
0.1339805824 -0.03137440257 0.7406623785 1.398166002e-38
0.1361320024 -0.03137440257 0.7406623785 1.435151313e-38
0.1390148524 -0.03146583357 0.7436624235 1.453482539e-38
0.1411719874 -0.03146583357 0.7436624235 1.47199145e-38
0.1437005674 -0.03151154457 0.7451624085 1.49050036e-38
0.1458605524 -0.03151154457 0.7451624085 1.518124577e-38
0.1487748424 -0.03160297557 0.7481623785 1.527561061e-38
0.1517005624 -0.03169440507 0.7511624235 1.536781325e-38
0.1538719924 -0.03169440507 0.7511624235 1.546037462e-38
0.1572005674 -0.03183154407 0.7556623635 1.564331273e-38
0.1593805624 -0.03183154407 0.7556623635 1.555038562e-38
0.1615605424 -0.03183154407 0.7556623635 1.545855433e-38
0.1645291474 -0.03192297357 0.7586624235 1.536672304e-38
0.1667148574 -0.03192297357 0.7586624235 1.536637271e-38
0.1689005674 -0.03192297357 0.7586624235 1.509087463e-38
0.1710862774 -0.03192297357 0.7586624235 1.481464788e-38
0.1732719874 -0.03192297357 0.7586624235 1.481428634e-38
0.1754576974 -0.03192297357 0.7586624235 1.481356888e-38
0.1776434074 -0.03192297357 0.7586624235 1.518234579e-38
0.1798291474 -0.03192297357 0.7586624235 1.554860457e-38
0.1828491274 -0.03201440307 0.7616623785 1.536672024e-38
0.1850405674 -0.03201440307 0.7616623785 1.518125838e-38
0.1876548424 -0.03206011557 0.7631623635 1.545676767e-38
0.1898491174 -0.03206011557 0.7631623635 1.573227837e-38
0.1920434224 -0.03206011557 0.7631623635 1.545713481e-38
0.1951005724 -0.03215154507 0.7661624085 1.527453301e-38
0.1973005774 -0.03215154507 0.7661624085 1.472458783e-38
0.1995005674 -0.03215154507 0.7661624085 1.417285458e-38
0.2017005724 -0.03215154507 0.7661624085 1.435616404e-38
0.2039005624 -0.03215154507 0.7661624085 1.463132581e-38
0.2061005524 -0.03215154507 0.7661624085 1.463097969e-38
0.2074034074 -0.03206011557 0.7631623635 1.463205869e-38
0.2095976974 -0.03206011557 0.7631623635 1.463385515e-38
0.2117919724 -0.03206011557 0.7631623635 1.472496197e-38
0.2139862624 -0.03206011557 0.7631623635 1.481678766e-38
0.2161805674 -0.03206011557 0.7631623635 1.499795033e-38
0.2183748274 -0.03206011557 0.7631623635 1.481320594e-38
0.2205691174 -0.03206011557 0.7631623635 1.463060274e-38
0.2227634224 -0.03206011557 0.7631623635 1.454019376e-38
0.2249576824 -0.03206011557 0.7631623635 1.444943867e-38
0.2271519724 -0.03206011557 0.7631623635 1.463383273e-38
0.2293462474 -0.03206011557 0.7631623635 1.49089945e-38
0.2315405674 -0.03206011557 0.7631623635 1.536854613e-38
0.2337348574 -0.03206011557 0.7631623635 1.591954369e-38
0.2354434024 -0.03201440307 0.7616623785 1.564402179e-38
0.2376348274 -0.03201440307 0.7616623785 1.536886702e-38
0.2398262374 -0.03201440307 0.7616623785 1.536957748e-38
0.2410291324 -0.03192297357 0.7586624235 1.536814536e-38
0.2432148574 -0.03192297357 0.7586624235 1.545783266e-38
0.2464005574 -0.03201440307 0.7616623785 1.555038002e-38
0.2485919674 -0.03201440307 0.7616623785 1.527558539e-38
0.2507834224 -0.03201440307 0.7616623785 1.509154305e-38
0.2529748324 -0.03201440307 0.7616623785 1.51830072e-38
0.2541434224 -0.03192297357 0.7586624235 1.527414485e-38
0.2563291624 -0.03192297357 0.7586624235 1.527344701e-38
0.2585148424 -0.03192297357 0.7586624235 1.527381695e-38
0.2607005824 -0.03192297357 0.7586624235 1.536745872e-38
0.2628863074 -0.03192297357 0.7586624235 1.555075136e-38
0.2640205324 -0.03183154407 0.7556623635 1.582623823e-38
0.2662005424 -0.03183154407 0.7556623635 1.619358722e-38
0.2694434224 -0.03192297357 0.7586624235 1.582625365e-38
0.2716291474 -0.03192297357 0.7586624235 1.555039123e-38
0.2738148424 -0.03192297357 0.7586624235 1.55500367e-38
0.2760005674 -0.03192297357 0.7586624235 1.555039823e-38
0.2781862624 -0.03192297357 0.7586624235 1.564259527e-38
0.2803719874 -0.03192297357 0.7586624235 1.582590752e-38
0.2825577274 -0.03192297357 0.7586624235 1.582590893e-38
0.2858462974 -0.03201440307 0.7616623785 1.591846889e-38
0.2880376924 -0.03201440307 0.7616623785 1.564404561e-38
0.2907862474 -0.03206011557 0.7631623635 1.536781045e-38
0.2941005724 -0.03215154507 0.7661624085 1.509157528e-38
0.2974262824 -0.03224297157 0.7691623635 1.481535974e-38
0.3001977124 -0.03228869007 0.7706624385 1.490971477e-38
0.3024062974 -0.03228869007 0.7706624385 1.500334252e-38
0.3057576724 -0.03238011657 0.7736624085 1.509768775e-38
0.3091205374 -0.03247154457 0.7766623635 1.518842883e-38
0.3130720024 -0.03260868807 0.7811623935 1.54639171e-38
0.3164605774 -0.03270011907 0.7841624385 1.583055703e-38
0.3186948574 -0.03270011907 0.7841624385 1.555470723e-38
0.3221005474 -0.03279154557 0.7871624085 1.537104044e-38
0.3255176824 -0.03288297207 0.7901623635 1.518773378e-38
0.3289463074 -0.03297440307 0.7931624235 1.509374309e-38
0.3317919874 -0.03302011707 0.7946623935 1.481895267e-38
0.3352405624 -0.03311154357 0.7976623635 1.463527467e-38
0.3375005374 -0.03311154357 0.7976623635 1.426720821e-38
0.3397605724 -0.03311154357 0.7976623635 1.399062833e-38
0.09004342241 -0.02909440557 0.7361624385 1.159821528e-38
0.09126913241 -0.02896583307 0.7316624085 1.150136174e-38
0.09340340741 -0.02896583307 0.7316624085 1.195839243e-38
0.09553769741 -0.02896583307 0.7316624085 1.241649091e-38
0.09767200241 -0.02896583307 0.7316624085 1.296857868e-38
0.09980627741 -0.02896583307 0.7316624085 1.342918969e-38
0.1019405674 -0.02896583307 0.7316624085 1.379724914e-38
0.1040748424 -0.02896583307 0.7316624085 1.41653184e-38
0.1062091474 -0.02896583307 0.7316624085 1.453231286e-38
0.1083434224 -0.02896583307 0.7316624085 1.489930732e-38
0.1104777274 -0.02896583307 0.7316624085 1.480712571e-38
0.1126119724 -0.02896583307 0.7316624085 1.471491606e-38
0.1147462774 -0.02896583307 0.7316624085 1.453194712e-38
0.1168805524 -0.02896583307 0.7316624085 1.444262135e-38
0.1200434374 -0.02909440557 0.7361624385 1.444262135e-38
0.1221862774 -0.02909440557 0.7361624385 1.444298429e-38
0.1243291324 -0.02909440557 0.7361624385 1.398381241e-38
0.1264720024 -0.02909440557 0.7361624385 1.352497965e-38
0.1293234124 -0.02918011857 0.7391623935 1.380047213e-38
0.1314719974 -0.02918011857 0.7391623935 1.407634996e-38
0.1336205524 -0.02918011857 0.7391623935 1.42593175e-38
0.1361320024 -0.02922297207 0.7406623785 1.444263116e-38
0.1382834224 -0.02922297207 0.7406623785 1.444263256e-38
0.1411719874 -0.02930868807 0.7436624235 1.434933551e-38
0.1433291524 -0.02930868807 0.7436624235 1.462804397e-38
0.1458605524 -0.02935154607 0.7451624085 1.490465328e-38
0.1487748424 -0.02943725907 0.7481623785 1.481356187e-38
0.1509405574 -0.02943725907 0.7481623785 1.481463386e-38
0.1538719924 -0.02952297507 0.7511624235 1.472422909e-38
0.1572005674 -0.02965154157 0.7556623635 1.463417605e-38
0.1593805624 -0.02965154157 0.7556623635 1.444798412e-38
0.1615605424 -0.02965154157 0.7556623635 1.426216634e-38
0.1645291474 -0.02973725757 0.7586624235 1.417177278e-38
0.1667148574 -0.02973725757 0.7586624235 1.398989965e-38
0.1689005674 -0.02973725757 0.7586624235 1.407994569e-38
0.1702805374 -0.02965154157 0.7556623635 1.416999733e-38
0.1724605474 -0.02965154157 0.7556623635 1.435403687e-38
0.1754576974 -0.02973725757 0.7586624235 1.453806939e-38
0.1776434074 -0.02973725757 0.7586624235 1.490649038e-38
0.1798291474 -0.02973725757 0.7586624235 1.536529932e-38
0.1820148724 -0.02973725757 0.7586624235 1.536493218e-38
0.1842005824 -0.02973725757 0.7586624235 1.536457064e-38
0.1872319924 -0.02982297507 0.7616623785 1.55478801e-38
0.1894234174 -0.02982297507 0.7616623785 1.582303767e-38
0.1916148274 -0.02982297507 0.7616623785 1.554861858e-38
0.1942376974 -0.02986583157 0.7631623635 1.536529652e-38
0.1973005774 -0.02995154457 0.7661624085 1.499794612e-38
0.1986262624 -0.02986583157 0.7631623635 1.472242983e-38
0.2008205524 -0.02986583157 0.7631623635 1.472206269e-38
0.2025719974 -0.02982297507 0.7616623785 1.48139136e-38
0.2047634074 -0.02982297507 0.7616623785 1.472245365e-38
0.2069548624 -0.02982297507 0.7616623785 1.463134963e-38
0.2091462724 -0.02982297507 0.7616623785 1.444805138e-38
0.2113376974 -0.02982297507 0.7616623785 1.426507824e-38
0.2135291224 -0.02982297507 0.7616623785 1.46324006e-38
0.2161805674 -0.02986583157 0.7631623635 1.499722586e-38
0.2183748274 -0.02986583157 0.7631623635 1.481319193e-38
0.2205691174 -0.02986583157 0.7631623635 1.462951113e-38
0.2227634224 -0.02986583157 0.7631623635 1.444798412e-38
0.2249576824 -0.02986583157 0.7631623635 1.426540054e-38
0.2271519724 -0.02986583157 0.7631623635 1.444944147e-38
0.2293462474 -0.02986583157 0.7631623635 1.463349642e-38
0.2315405674 -0.02986583157 0.7631623635 1.500122236e-38
0.2337348574 -0.02986583157 0.7631623635 1.546037462e-38
0.2354434024 -0.02982297507 0.7616623785 1.527703853e-38
0.2376348274 -0.02982297507 0.7616623785 1.518628064e-38
0.2398262374 -0.02982297507 0.7616623785 1.518520584e-38
0.2410291324 -0.02973725757 0.7586624235 1.51848401e-38
0.2432148574 -0.02973725757 0.7586624235 1.51848331e-38
0.2464005574 -0.02982297507 0.7616623785 1.527701611e-38
0.2485919674 -0.02982297507 0.7616623785 1.518481067e-38
0.2507834224 -0.02982297507 0.7616623785 1.50943975e-38
0.2529748324 -0.02982297507 0.7616623785 1.518442672e-38
0.2541434224 -0.02973725757 0.7586624235 1.518445054e-38
0.2563291624 -0.02973725757 0.7586624235 1.527523366e-38
0.2585148424 -0.02973725757 0.7586624235 1.53663615e-38
0.2607005824 -0.02973725757 0.7586624235 1.545892427e-38
0.2628863074 -0.02973725757 0.7586624235 1.555074996e-38
0.2650720024 -0.02973725757 0.7586624235 1.573512861e-38
0.2662005424 -0.02965154157 0.7556623635 1.59198772e-38
0.2694434224 -0.02973725757 0.7586624235 1.564293718e-38
0.2716291474 -0.02973725757 0.7586624235 1.536705234e-38
0.2738148424 -0.02973725757 0.7586624235 1.527519723e-38
0.2760005674 -0.02973725757 0.7586624235 1.509154866e-38
0.2781862624 -0.02973725757 0.7586624235 1.545891306e-38
0.2803719874 -0.02973725757 0.7586624235 1.573442095e-38
0.2825577274 -0.02973725757 0.7586624235 1.582625925e-38
0.2858462974 -0.02982297507 0.7616623785 1.591845908e-38
0.2880376924 -0.02982297507 0.7616623785 1.56429596e-38
0.2902291024 -0.02982297507 0.7616623785 1.536780764e-38
0.2929805674 -0.02986583157 0.7631623635 1.518341498e-38
0.2974262824 -0.03003725757 0.7691623635 1.499974959e-38
0.2996320024 -0.03003725757 0.7691623635 1.50008314e-38
0.3024062974 -0.03008012007 0.7706624385 1.500263066e-38
0.3046148674 -0.03008012007 0.7706624385 1.5002995e-38
0.3068234374 -0.03008012007 0.7706624385 1.500370126e-38
0.3130720024 -0.03038011707 0.7811623935 1.527919794e-38
0.3153005674 -0.03038011707 0.7811623935 1.564654412e-38
0.3186948574 -0.03046583307 0.7841624385 1.546287734e-38
0.3209291374 -0.03046583307 0.7841624385 1.527957068e-38
0.3243405874 -0.03055154607 0.7871624085 1.537105305e-38
0.3265805974 -0.03055154607 0.7871624085 1.546144661e-38
0.3311977024 -0.03072297507 0.7931624235 1.509409762e-38
0.3340462624 -0.03076583157 0.7946623935 1.481894146e-38
0.3375005374 -0.03085154307 0.7976623635 1.454235176e-38
0.3397605724 -0.03085154307 0.7976623635 1.426612641e-38
0.3432320224 -0.03093725907 0.8006624085 1.417572444e-38
0.3454977274 -0.03093725907 0.8006624085 1.399242199e-38
0.09126913241 -0.02683154607 0.7316624085 1.140987937e-38
0.09340340741 -0.02683154607 0.7316624085 1.177578922e-38
0.09553769741 -0.02683154607 0.7316624085 1.223389331e-38
0.09704342741 -0.02675154957 0.7286624385 1.278670275e-38
0.09980627741 -0.02683154607 0.7316624085 1.33373556e-38
0.1013005924 -0.02675154957 0.7286624385 1.370684857e-38
0.1040748424 -0.02683154607 0.7316624085 1.41653184e-38
0.1055577274 -0.02675154957 0.7286624385 1.4347923e-38
0.1083434224 -0.02683154607 0.7316624085 1.453195693e-38
0.1104777274 -0.02683154607 0.7316624085 1.462415676e-38
0.1126119724 -0.02683154607 0.7316624085 1.480674736e-38
0.1147462774 -0.02683154607 0.7316624085 1.471562372e-38
0.1168805524 -0.02683154607 0.7316624085 1.462630355e-38
0.1193576824 -0.02687154357 0.7331623935 1.471993692e-38
0.1221862774 -0.02695154607 0.7361624385 1.490395963e-38
0.1243291324 -0.02695154607 0.7361624385 1.508834249e-38
0.1264720024 -0.02695154607 0.7361624385 1.527200507e-38
0.1293234124 -0.02703154707 0.7391623935 1.490501341e-38
0.1314719974 -0.02703154707 0.7391623935 1.45373225e-38
0.1336205524 -0.02703154707 0.7391623935 1.453697498e-38
0.1357691374 -0.02703154707 0.7391623935 1.462845174e-38
0.1382834224 -0.02707154457 0.7406623785 1.435258652e-38
0.1404348424 -0.02707154457 0.7406623785 1.407634856e-38
0.1433291524 -0.02715154707 0.7436624235 1.435112357e-38
0.1454862874 -0.02715154707 0.7436624235 1.462628394e-38
0.1480205824 -0.02719154607 0.7451624085 1.444226822e-38
0.1509405574 -0.02727154557 0.7481623785 1.425859163e-38
0.1542548524 -0.02739154557 0.7526624085 1.389160277e-38
0.1572005674 -0.02747154657 0.7556623635 1.361214462e-38
0.1593805624 -0.02747154657 0.7556623635 1.33330466e-38
0.1615605424 -0.02747154657 0.7556623635 1.314650015e-38
0.1637405374 -0.02747154657 0.7556623635 1.286811819e-38
0.1659205474 -0.02747154657 0.7556623635 1.269020093e-38
0.1681005574 -0.02747154657 0.7556623635 1.315513355e-38
0.1702805374 -0.02747154657 0.7556623635 1.361682636e-38
0.1724605474 -0.02747154657 0.7556623635 1.398632494e-38
0.1746405574 -0.02747154657 0.7556623635 1.435402986e-38
0.1768205524 -0.02747154657 0.7556623635 1.472281238e-38
0.1790005624 -0.02747154657 0.7556623635 1.518162412e-38
0.1811805424 -0.02747154657 0.7556623635 1.536492938e-38
0.1842005824 -0.02755154907 0.7586624235 1.563970439e-38
0.1863862924 -0.02755154907 0.7586624235 1.573152587e-38
0.1894234174 -0.02763154557 0.7616623785 1.591521648e-38
0.1907577124 -0.02755154907 0.7586624235 1.564008834e-38
0.1942376974 -0.02767154307 0.7631623635 1.545641315e-38
0.1959976924 -0.02763154557 0.7616623785 1.536493358e-38
0.1981891324 -0.02763154557 0.7616623785 1.527309248e-38
0.2003805574 -0.02763154557 0.7616623785 1.508977601e-38
0.2025719974 -0.02763154557 0.7616623785 1.499758739e-38
0.2047634074 -0.02763154557 0.7616623785 1.481356467e-38
0.2069548624 -0.02763154557 0.7616623785 1.472317251e-38
0.2091462724 -0.02763154557 0.7616623785 1.426472231e-38
0.2113376974 -0.02763154557 0.7616623785 1.389772784e-38
0.2135291224 -0.02763154557 0.7616623785 1.444801215e-38
0.2157205324 -0.02763154557 0.7616623785 1.499830345e-38
0.2179119874 -0.02763154557 0.7616623785 1.481391079e-38
0.2205691174 -0.02767154307 0.7631623635 1.462950972e-38
0.2222948374 -0.02763154557 0.7616623785 1.435614302e-38
0.2244862624 -0.02763154557 0.7616623785 1.408065335e-38
0.2266777024 -0.02763154557 0.7616623785 1.426469849e-38
0.2288691274 -0.02763154557 0.7616623785 1.444910096e-38
0.2310605674 -0.02763154557 0.7616623785 1.472569765e-38
0.2332519774 -0.02763154557 0.7616623785 1.500117892e-38
0.2354434024 -0.02763154557 0.7616623785 1.500186976e-38
0.2366577124 -0.02755154907 0.7586624235 1.500153345e-38
0.2388433924 -0.02755154907 0.7586624235 1.500119854e-38
0.2410291324 -0.02755154907 0.7586624235 1.500118452e-38
0.2432148574 -0.02755154907 0.7586624235 1.500117051e-38
0.2454005974 -0.02755154907 0.7586624235 1.500116631e-38
0.2485919674 -0.02763154557 0.7616623785 1.5092999e-38
0.2507834224 -0.02763154557 0.7616623785 1.51848331e-38
0.2529748324 -0.02763154557 0.7616623785 1.518483169e-38
0.2541434224 -0.02755154907 0.7586624235 1.518447997e-38
0.2563291624 -0.02755154907 0.7586624235 1.527632387e-38
0.2585148424 -0.02755154907 0.7586624235 1.546000467e-38
0.2607005824 -0.02755154907 0.7586624235 1.546001448e-38
0.2628863074 -0.02755154907 0.7586624235 1.555075977e-38
0.2650720024 -0.02755154907 0.7586624235 1.564437491e-38
0.2672577274 -0.02755154907 0.7586624235 1.573549154e-38
0.2694434224 -0.02755154907 0.7586624235 1.545962632e-38
0.2716291474 -0.02755154907 0.7586624235 1.527558959e-38
0.2738148424 -0.02755154907 0.7586624235 1.500079356e-38
0.2760005674 -0.02755154907 0.7586624235 1.472422349e-38
0.2781862624 -0.02755154907 0.7586624235 1.518377231e-38
0.2803719874 -0.02755154907 0.7586624235 1.573443076e-38
0.2825577274 -0.02755154907 0.7586624235 1.582627046e-38
0.2858462974 -0.02763154557 0.7616623785 1.591846469e-38
0.2880376924 -0.02763154557 0.7616623785 1.564331693e-38
0.2907862474 -0.02767154307 0.7631623635 1.545928441e-38
0.2929805674 -0.02767154307 0.7631623635 1.527561201e-38
0.2963005624 -0.02775154557 0.7661624085 1.518342059e-38
0.2985005524 -0.02775154557 0.7661624085 1.509230536e-38
0.3018377074 -0.02783154657 0.7691623635 1.500118593e-38
0.3046148674 -0.02787154407 0.7706624385 1.491006649e-38
0.3091205374 -0.02803154307 0.7766623635 1.491078396e-38
0.3124948474 -0.02811154407 0.7796624085 1.518808411e-38
0.3164605774 -0.02823154707 0.7841624385 1.546287734e-38
0.3186948574 -0.02823154707 0.7841624385 1.537068731e-38
0.3209291374 -0.02823154707 0.7841624385 1.527886022e-38
0.3243405874 -0.02831154657 0.7871624085 1.555437652e-38
0.3265805974 -0.02831154657 0.7871624085 1.5829869e-38
0.3300091324 -0.02839154307 0.7901623635 1.54635906e-38
0.3334491574 -0.02847154557 0.7931624235 1.509516541e-38
0.3363005674 -0.02851154457 0.7946623935 1.481606459e-38
0.3397605724 -0.02859154407 0.7976623635 1.463418726e-38
0.3420205474 -0.02859154407 0.7976623635 1.43590395e-38
0.3454977274 -0.02867154357 0.8006624085 1.417464964e-38
0.3489862924 -0.02875154307 0.8036623785 1.371511203e-38
0.3512576824 -0.02875154307 0.8036623785 1.32563185e-38
0.09126913241 -0.02469725907 0.7316624085 1.12265601e-38
0.09340340741 -0.02469725907 0.7316624085 1.140736404e-38
0.09491486741 -0.02462297307 0.7286624385 1.168108387e-38
0.09704342741 -0.02462297307 0.7286624385 1.223497511e-38
0.09917200241 -0.02462297307 0.7286624385 1.278634402e-38
0.1013005924 -0.02462297307 0.7286624385 1.352317898e-38
0.1034291374 -0.02462297307 0.7286624385 1.425715389e-38
0.1055577274 -0.02462297307 0.7286624385 1.425680357e-38
0.1076863024 -0.02462297307 0.7286624385 1.434863766e-38
0.1098148624 -0.02462297307 0.7286624385 1.462414275e-38
0.1126119724 -0.02469725907 0.7316624085 1.499041414e-38
0.1147462774 -0.02469725907 0.7316624085 1.480746622e-38
0.1168805524 -0.02469725907 0.7316624085 1.46266735e-38
0.1190148574 -0.02469725907 0.7316624085 1.472031106e-38
0.1214948524 -0.02473440207 0.7331623935 1.481356467e-38
0.1236319924 -0.02473440207 0.7331623935 1.499721885e-38
0.1257691324 -0.02473440207 0.7331623935 1.518124437e-38
0.1286148574 -0.02480869107 0.7361624385 1.490609381e-38
0.1307577274 -0.02480869107 0.7361624385 1.46313132e-38
0.1336205524 -0.02488297407 0.7391623935 1.47231571e-38
0.1357691374 -0.02488297407 0.7391623935 1.481498979e-38
0.1382834224 -0.02492011707 0.7406623785 1.472351163e-38
0.1404348424 -0.02492011707 0.7406623785 1.46323922e-38
0.1425862624 -0.02492011707 0.7406623785 1.472315009e-38
0.1447377124 -0.02492011707 0.7406623785 1.490610362e-38
0.1476434074 -0.02499440307 0.7436624235 1.472028023e-38
0.1501805674 -0.02503154607 0.7451624085 1.462628534e-38
0.1531062724 -0.02510582907 0.7481623785 1.434969705e-38
0.1572005674 -0.02529154707 0.7556623635 1.407347309e-38
0.1586034124 -0.02521726107 0.7526624085 1.388729097e-38
0.1607777074 -0.02521726107 0.7526624085 1.370144937e-38
0.1637405374 -0.02529154707 0.7556623635 1.323938521e-38
0.1651262824 -0.02521726107 0.7526624085 1.277772183e-38
0.1673005624 -0.02521726107 0.7526624085 1.269237014e-38
0.1694748574 -0.02521726107 0.7526624085 1.26963134e-38
0.1716491374 -0.02521726107 0.7526624085 1.315764187e-38
0.1738234324 -0.02521726107 0.7526624085 1.361897875e-38
0.1759977124 -0.02521726107 0.7526624085 1.435510606e-38
0.1781720074 -0.02521726107 0.7526624085 1.509157808e-38
0.1803462724 -0.02521726107 0.7526624085 1.527273234e-38
0.1833605524 -0.02529154707 0.7556623635 1.545566065e-38
0.1855405624 -0.02529154707 0.7556623635 1.582297881e-38
0.1885720024 -0.02536583307 0.7586624235 1.619070755e-38
0.1907577124 -0.02536583307 0.7586624235 1.591523049e-38
0.1920805474 -0.02529154707 0.7556623635 1.563972541e-38
0.1951291324 -0.02536583307 0.7586624235 1.554860878e-38
0.1973148424 -0.02536583307 0.7586624235 1.545892427e-38
0.1995005674 -0.02536583307 0.7586624235 1.527417708e-38
0.2016862774 -0.02536583307 0.7586624235 1.518233738e-38
0.2047634074 -0.02544011607 0.7616623785 1.499866359e-38
0.2060576974 -0.02536583307 0.7586624235 1.490719103e-38
0.2091462724 -0.02544011607 0.7616623785 1.463168874e-38
0.2113376974 -0.02544011607 0.7616623785 1.435689692e-38
0.2135291224 -0.02544011607 0.7616623785 1.481571426e-38
0.2157205324 -0.02544011607 0.7616623785 1.536672304e-38
0.2179119874 -0.02544011607 0.7616623785 1.499722445e-38
0.2201034274 -0.02544011607 0.7616623785 1.472134382e-38
0.2222948374 -0.02544011607 0.7616623785 1.444653938e-38
0.2244862624 -0.02544011607 0.7616623785 1.426396561e-38
0.2266777024 -0.02544011607 0.7616623785 1.435582212e-38
0.2288691274 -0.02544011607 0.7616623785 1.444766042e-38
0.2301005524 -0.02536583307 0.7586624235 1.463205168e-38
0.2322862624 -0.02536583307 0.7586624235 1.481677084e-38
0.2344720024 -0.02536583307 0.7586624235 1.481674422e-38
0.2366577124 -0.02536583307 0.7586624235 1.490862316e-38
0.2388433924 -0.02536583307 0.7586624235 1.481611504e-38
0.2410291324 -0.02536583307 0.7586624235 1.481573528e-38
0.2422205674 -0.02529154707 0.7556623635 1.481535693e-38
0.2454005974 -0.02536583307 0.7586624235 1.490719523e-38
0.2485919674 -0.02544011607 0.7616623785 1.499939366e-38
0.2507834224 -0.02544011607 0.7616623785 1.50915977e-38
0.2529748324 -0.02544011607 0.7616623785 1.518344441e-38
0.2541434224 -0.02536583307 0.7586624235 1.536746432e-38
0.2553005374 -0.02529154707 0.7556623635 1.536817338e-38
0.2574805474 -0.02529154707 0.7556623635 1.546037742e-38
0.2596605574 -0.02529154707 0.7556623635 1.545967116e-38
0.2628863074 -0.02536583307 0.7586624235 1.555112831e-38
0.2640205324 -0.02529154707 0.7556623635 1.573478109e-38
0.2662005424 -0.02529154707 0.7556623635 1.582661378e-38
0.2694434224 -0.02536583307 0.7586624235 1.555074576e-38
0.2716291474 -0.02536583307 0.7586624235 1.536672164e-38
0.2738148424 -0.02536583307 0.7586624235 1.527560921e-38
0.2760005674 -0.02536583307 0.7586624235 1.518377652e-38
0.2781862624 -0.02536583307 0.7586624235 1.545928581e-38
0.2803719874 -0.02536583307 0.7586624235 1.58266334e-38
0.2825577274 -0.02536583307 0.7586624235 1.59184759e-38
0.2858462974 -0.02544011607 0.7616623785 1.601030579e-38
0.2880376924 -0.02544011607 0.7616623785 1.582662919e-38
0.2902291024 -0.02544011607 0.7616623785 1.56429568e-38
0.2929805674 -0.02547725907 0.7631623635 1.545892708e-38
0.2963005624 -0.02555154507 0.7661624085 1.536709158e-38
0.2985005524 -0.02555154507 0.7661624085 1.527561622e-38
0.3018377074 -0.02562583107 0.7691623635 1.518448838e-38
0.3046148674 -0.02566297407 0.7706624385 1.481749672e-38
0.3091205374 -0.02581154307 0.7766623635 1.445052467e-38
0.3124948474 -0.02588583207 0.7796624085 1.509338436e-38
0.3153005674 -0.02592297207 0.7811623935 1.564475887e-38
0.3186948574 -0.02599725807 0.7841624385 1.546180955e-38
0.3209291374 -0.02599725807 0.7841624385 1.528245595e-38
0.3231634174 -0.02599725807 0.7841624385 1.527780645e-38
0.3265805974 -0.02607154407 0.7871624085 1.527886162e-38
0.3300091324 -0.02614583007 0.7901623635 1.518736524e-38
0.3334491574 -0.02622011607 0.7931624235 1.509624161e-38
0.3357005974 -0.02622011607 0.7931624235 1.481965331e-38
0.3385548274 -0.02625725907 0.7946623935 1.463526486e-38
0.3420205474 -0.02633154357 0.7976623635 1.435940104e-38
0.3442805374 -0.02633154357 0.7976623635 1.417464124e-38
0.3465405724 -0.02633154357 0.7976623635 1.39906003e-38
0.3500291374 -0.02640583107 0.8006624085 1.380660141e-38
0.3522948424 -0.02640583107 0.8006624085 1.343893292e-38
0.09278629241 -0.02249440257 0.7286624385 1.113113167e-38
0.09491486741 -0.02249440257 0.7286624385 1.113042262e-38
0.09704342741 -0.02249440257 0.7286624385 1.168323766e-38
0.09917200241 -0.02249440257 0.7286624385 1.223532544e-38
0.1013005924 -0.02249440257 0.7286624385 1.333986112e-38
0.1034291374 -0.02249440257 0.7286624385 1.444117801e-38
0.1055577274 -0.02249440257 0.7286624385 1.42571553e-38
0.1076863024 -0.02249440257 0.7286624385 1.416496247e-38
0.1098148624 -0.02249440257 0.7286624385 1.471597825e-38
0.1119434374 -0.02249440257 0.7286624385 1.526699683e-38
0.1140720124 -0.02249440257 0.7286624385 1.489966045e-38
0.1168805524 -0.02256297507 0.7316624085 1.462595463e-38
0.1190148574 -0.02256297507 0.7316624085 1.472102572e-38
0.1211491324 -0.02256297507 0.7316624085 1.481428214e-38
0.1232834074 -0.02256297507 0.7316624085 1.490646235e-38
0.1257691324 -0.02259725757 0.7331623935 1.508977321e-38
0.1279062874 -0.02259725757 0.7331623935 1.490681968e-38
0.1300434124 -0.02259725757 0.7331623935 1.481498979e-38
0.1329005674 -0.02266583157 0.7361624385 1.490790849e-38
0.1350434224 -0.02266583157 0.7361624385 1.509121935e-38
0.1379177074 -0.02273440107 0.7391623935 1.518413105e-38
0.1400662624 -0.02273440107 0.7391623935 1.527524908e-38
0.1425862624 -0.02276868957 0.7406623785 1.518377091e-38
0.1447377124 -0.02276868957 0.7406623785 1.518376671e-38
0.1468891324 -0.02276868957 0.7406623785 1.509192841e-38
0.1498005874 -0.02283725907 0.7436624235 1.499829645e-38
0.1519577074 -0.02283725907 0.7436624235 1.481283039e-38
0.1552719724 -0.02294011857 0.7481623785 1.462951393e-38
0.1582148524 -0.02300868807 0.7511624235 1.44465562e-38
0.1603862974 -0.02300868807 0.7511624235 1.426144047e-38
0.1629519874 -0.02304297357 0.7526624085 1.352531316e-38
0.1651262824 -0.02304297357 0.7526624085 1.287422085e-38
0.1669005724 -0.02300868807 0.7511624235 1.232141981e-38
0.1690719874 -0.02300868807 0.7511624235 1.177650389e-38
0.1712434324 -0.02300868807 0.7511624235 1.232536447e-38
0.1734148624 -0.02300868807 0.7511624235 1.297002342e-38
0.1755862924 -0.02300868807 0.7511624235 1.398238309e-38
0.1777577224 -0.02300868807 0.7511624235 1.499472454e-38
0.1799291374 -0.02300868807 0.7511624235 1.518090666e-38
0.1825205524 -0.02304297357 0.7526624085 1.536385598e-38
0.1846948474 -0.02304297357 0.7526624085 1.591486475e-38
0.1868691274 -0.02304297357 0.7526624085 1.655879363e-38
0.1890434224 -0.02304297357 0.7526624085 1.619253204e-38
0.1912177174 -0.02304297357 0.7526624085 1.582447119e-38
0.1933919974 -0.02304297357 0.7526624085 1.573227556e-38
0.1964405524 -0.02311154607 0.7556623635 1.56418736e-38
0.1986205474 -0.02311154607 0.7556623635 1.55500367e-38
0.2016862774 -0.02318011707 0.7586624235 1.545748094e-38
0.2038719874 -0.02318011707 0.7586624235 1.527344841e-38
0.2060576974 -0.02318011707 0.7586624235 1.509014175e-38
0.2082434374 -0.02318011707 0.7586624235 1.490719243e-38
0.2104291474 -0.02318011707 0.7586624235 1.481500241e-38
0.2126148574 -0.02318011707 0.7586624235 1.527382396e-38
0.2148005674 -0.02318011707 0.7586624235 1.582411386e-38
0.2169862924 -0.02318011707 0.7586624235 1.527237782e-38
0.2191720024 -0.02318011707 0.7586624235 1.481319193e-38
0.2213577124 -0.02318011707 0.7586624235 1.462951253e-38
0.2235434224 -0.02318011707 0.7586624235 1.453768544e-38
0.2257291324 -0.02318011707 0.7586624235 1.453769385e-38
0.2279148424 -0.02318011707 0.7586624235 1.453913438e-38
0.2301005524 -0.02318011707 0.7586624235 1.463169295e-38
0.2322862624 -0.02318011707 0.7586624235 1.47231543e-38
0.2344720024 -0.02318011707 0.7586624235 1.472278015e-38
0.2356805824 -0.02311154607 0.7556623635 1.4815001e-38
0.2378605624 -0.02311154607 0.7556623635 1.472354946e-38
0.2390519824 -0.02304297357 0.7526624085 1.472389278e-38
0.2412262624 -0.02304297357 0.7526624085 1.472244384e-38
0.2434005574 -0.02304297357 0.7526624085 1.481535833e-38
0.2465805424 -0.02311154607 0.7556623635 1.490719803e-38
0.2477491324 -0.02304297357 0.7526624085 1.509195223e-38
0.2499234274 -0.02304297357 0.7526624085 1.527563023e-38
0.2520977074 -0.02304297357 0.7526624085 1.555148844e-38
0.2542720024 -0.02304297357 0.7526624085 1.546036481e-38
0.2564462824 -0.02304297357 0.7526624085 1.546037041e-38
0.2596605574 -0.02311154607 0.7556623635 1.555113532e-38
0.2618405224 -0.02311154607 0.7556623635 1.564259667e-38
0.2640205324 -0.02311154607 0.7556623635 1.582589491e-38
0.2662005424 -0.02311154607 0.7556623635 1.60095631e-38
0.2694434224 -0.02318011707 0.7586624235 1.573441254e-38
0.2705605624 -0.02311154607 0.7556623635 1.545891306e-38
0.2727405724 -0.02311154607 0.7556623635 1.55511157e-38
0.2749205374 -0.02311154607 0.7556623635 1.564331413e-38
0.2771005474 -0.02311154607 0.7556623635 1.573551256e-38
0.2792805574 -0.02311154607 0.7556623635 1.591883603e-38
0.2825577274 -0.02318011707 0.7586624235 1.600960794e-38
0.2847434074 -0.02318011707 0.7586624235 1.610286576e-38
0.2869291474 -0.02318011707 0.7586624235 1.591989962e-38
0.2902291024 -0.02324868657 0.7616623785 1.582698512e-38
0.2929805674 -0.02328297207 0.7631623635 1.573407203e-38
0.2951748274 -0.02328297207 0.7631623635 1.564223793e-38
0.2985005524 -0.02335154757 0.7661624085 1.545892708e-38
0.3018377074 -0.02342011707 0.7691623635 1.536708738e-38
0.3057576724 -0.02352297357 0.7736624085 1.47242347e-38
0.3079720174 -0.02352297357 0.7736624085 1.40821121e-38
0.3124948474 -0.02366011857 0.7796624085 1.500119293e-38
0.3153005674 -0.02369440407 0.7811623935 1.592026676e-38
0.3175291624 -0.02369440407 0.7811623935 1.555328491e-38
0.3197577274 -0.02369440407 0.7811623935 1.527706796e-38
0.3231634174 -0.02376297507 0.7841624385 1.500120975e-38
0.3253976974 -0.02376297507 0.7841624385 1.481788628e-38
0.3288205474 -0.02383154757 0.7871624085 1.491042803e-38
0.3322548574 -0.02390011557 0.7901623635 1.509445635e-38
0.3357005974 -0.02396868657 0.7931624235 1.491150142e-38
0.3379520074 -0.02396868657 0.7931624235 1.472711297e-38
0.3408091324 -0.02400297507 0.7946623935 1.445160648e-38
0.3430634374 -0.02400297507 0.7946623935 1.417501678e-38
0.3465405724 -0.02407154757 0.7976623635 1.426648654e-38
0.3488005474 -0.02407154757 0.7976623635 1.435798012e-38
0.3510605374 -0.02407154757 0.7976623635 1.399029622e-38
0.3576605974 -0.02431154607 0.8081624085 1.36225927e-38
0.3611862724 -0.02438011557 0.8111623635 1.334600721e-38
0.3634719724 -0.02438011557 0.8111623635 1.307159654e-38
0.3670148524 -0.02444868807 0.8141624235 1.307305109e-38
0.3693062674 -0.02444868807 0.8141624235 1.30806153e-38
0.3715977124 -0.02444868807 0.8141624235 1.318037373e-38
0.09278629241 -0.02036583207 0.7286624385 1.067266325e-38
0.09491486741 -0.02036583207 0.7286624385 1.030245981e-38
0.09704342741 -0.02036583207 0.7286624385 1.094711176e-38
0.09917200241 -0.02036583207 0.7286624385 1.150063586e-38
0.1013005924 -0.02036583207 0.7286624385 1.214240814e-38
0.1034291374 -0.02036583207 0.7286624385 1.278418742e-38
0.1055577274 -0.02036583207 0.7286624385 1.315261261e-38
0.1076863024 -0.02036583207 0.7286624385 1.3521035e-38
0.1098148624 -0.02036583207 0.7286624385 1.388802385e-38
0.1119434374 -0.02036583207 0.7286624385 1.425537144e-38
0.1140720124 -0.02036583207 0.7286624385 1.425717211e-38
0.1162005724 -0.02036583207 0.7286624385 1.425825391e-38
0.1183291474 -0.02036583207 0.7286624385 1.444480037e-38
0.1211491324 -0.02042868807 0.7316624085 1.463133001e-38
0.1232834074 -0.02042868807 0.7316624085 1.490646656e-38
0.1254177124 -0.02042868807 0.7316624085 1.527345121e-38
0.1275519874 -0.02042868807 0.7316624085 1.509049908e-38
0.1300434124 -0.02046011757 0.7331623935 1.49068323e-38
0.1321805524 -0.02046011757 0.7331623935 1.499903073e-38
0.1350434224 -0.02052297657 0.7361624385 1.518306185e-38
0.1379177074 -0.02058583257 0.7391623935 1.527525748e-38
0.1400662624 -0.02058583257 0.7391623935 1.545856974e-38
0.1422148474 -0.02058583257 0.7391623935 1.536673425e-38
0.1447377124 -0.02061725907 0.7406623785 1.536708457e-38
0.1468891324 -0.02061725907 0.7406623785 1.518233038e-38
0.1490405524 -0.02061725907 0.7406623785 1.508977882e-38
0.1511919724 -0.02061725907 0.7406623785 1.499651119e-38
0.1541148724 -0.02068011807 0.7436624235 1.490502602e-38
0.1562719924 -0.02068011807 0.7436624235 1.481354085e-38
0.1588205524 -0.02071154457 0.7451624085 1.472206409e-38
0.1617691324 -0.02077440207 0.7481623785 1.462915239e-38
0.1647291274 -0.02083726107 0.7511624235 1.462411613e-38
0.1669005724 -0.02083726107 0.7511624235 1.416384984e-38
0.1690719874 -0.02083726107 0.7511624235 1.379543166e-38
0.1712434324 -0.02083726107 0.7511624235 1.324334248e-38
0.1734148624 -0.02083726107 0.7511624235 1.269450712e-38
0.1755862924 -0.02083726107 0.7511624235 1.343065265e-38
0.1777577224 -0.02083726107 0.7511624235 1.425896998e-38
0.1799291374 -0.02083726107 0.7511624235 1.46277511e-38
0.1821005674 -0.02083726107 0.7511624235 1.499690216e-38
0.1842720124 -0.02083726107 0.7511624235 1.554900815e-38
0.1864434274 -0.02083726107 0.7511624235 1.610143503e-38
0.1886148574 -0.02083726107 0.7511624235 1.591702696e-38
0.1907863024 -0.02083726107 0.7511624235 1.582482853e-38
0.1929577024 -0.02083726107 0.7511624235 1.582482432e-38
0.1955662924 -0.02086868757 0.7526624085 1.582518165e-38
0.1977405724 -0.02086868757 0.7526624085 1.573298602e-38
0.2008005574 -0.02093154357 0.7556623635 1.564114772e-38
0.2029805374 -0.02093154357 0.7556623635 1.54571166e-38
0.2060576974 -0.02099440557 0.7586624235 1.527345121e-38
0.2082434374 -0.02099440557 0.7586624235 1.509014456e-38
0.2104291474 -0.02099440557 0.7586624235 1.49068407e-38
0.2117005624 -0.02093154357 0.7556623635 1.508980404e-38
0.2138805724 -0.02093154357 0.7556623635 1.536422733e-38
0.2151348574 -0.02086868757 0.7526624085 1.499687833e-38
0.2173091374 -0.02086868757 0.7526624085 1.472172778e-38
0.2194834324 -0.02086868757 0.7526624085 1.453805538e-38
0.2216576974 -0.02086868757 0.7526624085 1.444693315e-38
0.2238319924 -0.02086868757 0.7526624085 1.444692894e-38
0.2260062724 -0.02086868757 0.7526624085 1.444729608e-38
0.2281805674 -0.02086868757 0.7526624085 1.453950012e-38
0.2303548474 -0.02086868757 0.7526624085 1.472388437e-38
0.2325291574 -0.02086868757 0.7526624085 1.472388157e-38
0.2347034524 -0.02086868757 0.7526624085 1.481572407e-38
0.2368777324 -0.02086868757 0.7526624085 1.472389699e-38
0.2390519824 -0.02086868757 0.7526624085 1.472388718e-38
0.2407291174 -0.02083726107 0.7511624235 1.463168314e-38
0.2429005924 -0.02083726107 0.7511624235 1.454092664e-38
0.2455748374 -0.02086868757 0.7526624085 1.481643733e-38
0.2477491324 -0.02086868757 0.7526624085 1.509230676e-38
0.2499234274 -0.02086868757 0.7526624085 1.527562322e-38
0.2520977074 -0.02086868757 0.7526624085 1.546000748e-38
0.2542720024 -0.02086868757 0.7526624085 1.536816778e-38
0.2564462824 -0.02086868757 0.7526624085 1.527669241e-38
0.2586205774 -0.02086868757 0.7526624085 1.536852931e-38
0.2618405224 -0.02093154357 0.7556623635 1.54603536e-38
0.2640205324 -0.02093154357 0.7556623635 1.564473084e-38
0.2662005424 -0.02093154357 0.7556623635 1.58291165e-38
0.2694434224 -0.02099440557 0.7586624235 1.536957888e-38
0.2705605624 -0.02093154357 0.7556623635 1.500188657e-38
0.2727405724 -0.02093154357 0.7556623635 1.527704414e-38
0.2749205374 -0.02093154357 0.7556623635 1.5644033e-38
0.2771005474 -0.02093154357 0.7556623635 1.57358755e-38
0.2792805574 -0.02093154357 0.7556623635 1.591992204e-38
0.2814605674 -0.02093154357 0.7556623635 1.601177435e-38
0.2836405774 -0.02093154357 0.7556623635 1.619578446e-38
0.2869291474 -0.02099440557 0.7586624235 1.64709126e-38
0.2891148274 -0.02099440557 0.7586624235 1.683753291e-38
0.2924205574 -0.02105725857 0.7616623785 1.63779939e-38
0.2951748274 -0.02108868807 0.7631623635 1.601065331e-38
0.2973691024 -0.02108868807 0.7631623635 1.573479089e-38
0.3007005874 -0.02115154557 0.7661624085 1.545928441e-38
0.3046148674 -0.02124583107 0.7706624385 1.49079141e-38
0.3068234374 -0.02124583107 0.7706624385 1.444838349e-38
0.3101862574 -0.02130868707 0.7736624085 1.491043644e-38
0.3147205774 -0.02143440207 0.7796624085 1.546216688e-38
0.3175291624 -0.02146582857 0.7811623935 1.536961392e-38
0.3197577274 -0.02146582857 0.7811623935 1.527670222e-38
0.3219862924 -0.02146582857 0.7811623935 1.500155447e-38
0.3253976974 -0.02152869057 0.7841624385 1.48182394e-38
0.3288205474 -0.02159154657 0.7871624085 1.491043223e-38
0.3322548574 -0.02165440107 0.7901623635 1.500227053e-38
0.3357005974 -0.02171726007 0.7931624235 1.481932121e-38
0.3379520074 -0.02171726007 0.7931624235 1.472748431e-38
0.3402034474 -0.02171726007 0.7931624235 1.435978359e-38
0.3430634374 -0.02174868957 0.7946623935 1.399208007e-38
0.3453176974 -0.02174868957 0.7946623935 1.445089602e-38
0.3475720174 -0.02174868957 0.7946623935 1.50019118e-38
0.3510605374 -0.02181154557 0.7976623635 1.454130219e-38
0.3570405724 -0.02200011657 0.8066624235 1.408212751e-38
0.3599405674 -0.02203154607 0.8081624085 1.380662383e-38
0.3622205824 -0.02203154607 0.8081624085 1.353145785e-38
0.3657577024 -0.02209440207 0.8111623635 1.334776864e-38
0.3680434324 -0.02209440207 0.8111623635 1.325563187e-38
0.3728662774 -0.02222011557 0.8171623785 1.316887748e-38
0.3751634074 -0.02222011557 0.8171623785 1.317390814e-38
0.09278629241 -0.01823726007 0.7286624385 1.021455636e-38
0.09491486741 -0.01823726007 0.7286624385 9.569921234e-39
0.09704342741 -0.01823726007 0.7286624385 1.021098445e-38
0.09917200241 -0.01823726007 0.7286624385 1.085383152e-38
0.1013005924 -0.01823726007 0.7286624385 1.094602435e-38
0.1034291374 -0.01823726007 0.7286624385 1.113077715e-38
0.1055577274 -0.01823726007 0.7286624385 1.204878038e-38
0.1076863024 -0.01823726007 0.7286624385 1.296857448e-38
0.1098148624 -0.01823726007 0.7286624385 1.30650777e-38
0.1119434374 -0.01823726007 0.7286624385 1.324803823e-38
0.1140720124 -0.01823726007 0.7286624385 1.352319299e-38
0.1162005724 -0.01823726007 0.7286624385 1.389089932e-38
0.1183291474 -0.01823726007 0.7286624385 1.416892254e-38
0.1211491324 -0.01829440257 0.7316624085 1.453948751e-38
0.1232834074 -0.01829440257 0.7316624085 1.499937685e-38
0.1254177124 -0.01829440257 0.7316624085 1.54581984e-38
0.1275519874 -0.01829440257 0.7316624085 1.518233458e-38
0.1296862924 -0.01829440257 0.7316624085 1.499866639e-38
0.1321805524 -0.01832297457 0.7331623935 1.509050469e-38
0.1343177074 -0.01832297457 0.7331623935 1.527453582e-38
0.1371862924 -0.01838011707 0.7361624385 1.545964314e-38
0.1393291474 -0.01838011707 0.7361624385 1.573408184e-38
0.1414720024 -0.01838011707 0.7361624385 1.564117715e-38
0.1443634024 -0.01843725957 0.7391623935 1.554897031e-38
0.1465119874 -0.01843725957 0.7391623935 1.536492657e-38
0.1490405524 -0.01846583157 0.7406623785 1.518090385e-38
0.1511919724 -0.01846583157 0.7406623785 1.518055353e-38
0.1533434224 -0.01846583157 0.7406623785 1.518054512e-38
0.1562719924 -0.01852297407 0.7436624235 1.518089545e-38
0.1584291424 -0.01852297407 0.7436624235 1.527344701e-38
0.1609805674 -0.01855154607 0.7451624085 1.582481872e-38
0.1639348324 -0.01860868707 0.7481623785 1.637655056e-38
0.1669005724 -0.01866583107 0.7511624235 1.610176434e-38
0.1690719874 -0.01866583107 0.7511624235 1.582086565e-38
0.1704319774 -0.01860868707 0.7481623785 1.406952283e-38
0.1725977074 -0.01860868707 0.7481623785 1.241756991e-38
0.1747634074 -0.01860868707 0.7481623785 1.296357044e-38
0.1769291374 -0.01860868707 0.7481623785 1.352140494e-38
0.1790948374 -0.01860868707 0.7481623785 1.407421858e-38
0.1812605524 -0.01860868707 0.7481623785 1.462954476e-38
0.1834262674 -0.01860868707 0.7481623785 1.509088444e-38
0.1855919824 -0.01860868707 0.7481623785 1.564081141e-38
0.1877577124 -0.01860868707 0.7481623785 1.573191963e-38
0.1899234124 -0.01860868707 0.7481623785 1.582411807e-38
0.1920891424 -0.01860868707 0.7481623785 1.591703396e-38
0.1942548424 -0.01860868707 0.7481623785 1.600814499e-38
0.1973005774 -0.01866583107 0.7511624235 1.591594375e-38
0.1994720074 -0.01866583107 0.7511624235 1.591629128e-38
0.2020891324 -0.01869440307 0.7526624085 1.564077498e-38
0.2042634124 -0.01869440307 0.7526624085 1.54571166e-38
0.2073405574 -0.01875154407 0.7556623635 1.518126259e-38
0.2095205524 -0.01875154407 0.7556623635 1.49975972e-38
0.2117005624 -0.01875154407 0.7556623635 1.490576731e-38
0.2129605624 -0.01869440307 0.7526624085 1.490576311e-38
0.2151348574 -0.01869440307 0.7526624085 1.472208931e-38
0.2173091374 -0.01869440307 0.7526624085 1.463026082e-38
0.2190148474 -0.01866583107 0.7511624235 1.453843233e-38
0.2211862924 -0.01866583107 0.7511624235 1.444692894e-38
0.2233577224 -0.01866583107 0.7511624235 1.435542696e-38
0.2255291374 -0.01866583107 0.7511624235 1.435508504e-38
0.2277005824 -0.01866583107 0.7511624235 1.453841552e-38
0.2298719824 -0.01866583107 0.7511624235 1.472352004e-38
0.2320434424 -0.01866583107 0.7511624235 1.47242375e-38
0.2342148574 -0.01866583107 0.7511624235 1.481572127e-38
0.2363862724 -0.01866583107 0.7511624235 1.481608701e-38
0.2385577324 -0.01866583107 0.7511624235 1.481536814e-38
0.2407291174 -0.01866583107 0.7511624235 1.453950152e-38
0.2429005924 -0.01866583107 0.7511624235 1.435726546e-38
0.2455748374 -0.01869440307 0.7526624085 1.472532491e-38
0.2477491324 -0.01869440307 0.7526624085 1.509230536e-38
0.2499234274 -0.01869440307 0.7526624085 1.527561622e-38
0.2520977074 -0.01869440307 0.7526624085 1.545928301e-38
0.2542720024 -0.01869440307 0.7526624085 1.527560781e-38
0.2564462824 -0.01869440307 0.7526624085 1.518485412e-38
0.2586205774 -0.01869440307 0.7526624085 1.527669522e-38
0.2607948124 -0.01869440307 0.7526624085 1.536888104e-38
0.2629691074 -0.01869440307 0.7526624085 1.546142419e-38
0.2651434324 -0.01869440307 0.7526624085 1.564473505e-38
0.2683805524 -0.01875154407 0.7556623635 1.509372067e-38
0.2694920074 -0.01869440307 0.7526624085 1.463419006e-38
0.2727405724 -0.01875154407 0.7556623635 1.509301582e-38
0.2749205374 -0.01875154407 0.7556623635 1.564475186e-38
0.2760148774 -0.01869440307 0.7526624085 1.573730903e-38
0.2781891574 -0.01869440307 0.7526624085 1.592062829e-38
0.2814605674 -0.01875154407 0.7556623635 1.610430629e-38
0.2836405774 -0.01875154407 0.7556623635 1.628760874e-38
0.2858205424 -0.01875154407 0.7556623635 1.702300037e-38
0.2880005524 -0.01875154407 0.7556623635 1.78480807e-38
0.2913005674 -0.01880868807 0.7586624235 1.71130352e-38
0.2946119674 -0.01886583057 0.7616623785 1.646982799e-38
0.2973691024 -0.01889440107 0.7631623635 1.601065051e-38
0.3007005874 -0.01895154507 0.7661624085 1.564330712e-38
0.3040434274 -0.01900868757 0.7691623635 1.518412684e-38
0.3062490874 -0.01900868757 0.7691623635 1.481643733e-38
0.3101862574 -0.01909440207 0.7736624085 1.491151123e-38
0.3135605674 -0.01915154457 0.7766623635 1.509447317e-38
0.3169463224 -0.01920868857 0.7796624085 1.518595834e-38
0.3197577274 -0.01923725907 0.7811623935 1.527778683e-38
0.3219862924 -0.01923725907 0.7811623935 1.509410743e-38
0.3253976974 -0.01929440307 0.7841624385 1.49100763e-38
0.3288205474 -0.01935154557 0.7871624085 1.491079237e-38
0.3322548574 -0.01940868807 0.7901623635 1.500263627e-38
0.3345005374 -0.01940868807 0.7901623635 1.481933242e-38
0.3379520074 -0.01946583207 0.7931624235 1.472749132e-38
0.3402034474 -0.01946583207 0.7931624235 1.426830823e-38
0.3430634374 -0.01949440257 0.7946623935 1.390060331e-38
0.3453176974 -0.01949440257 0.7946623935 1.472711857e-38
0.3475720174 -0.01949440257 0.7946623935 1.56451148e-38
0.3510605374 -0.01955154507 0.7976623635 1.509266689e-38
0.3545605474 -0.01960868757 0.8006624085 1.454165952e-38
0.3580719724 -0.01966583007 0.8036623785 1.426615724e-38
0.3615948724 -0.01972297407 0.8066624235 1.399063814e-38
0.3645005974 -0.01975154607 0.8081624085 1.371547777e-38
0.3680434324 -0.01980868707 0.8111623635 1.343927343e-38
0.3728662774 -0.01992297357 0.8171623785 1.32527536e-38
0.3751634074 -0.01992297357 0.8171623785 1.307124762e-38
0.3774605824 -0.01992297357 0.8171623785 1.233872865e-38
0.09491486741 -0.01610868807 0.7286624385 1.021527383e-38
0.09704342741 -0.01610868807 0.7286624385 1.039787563e-38
0.09917200241 -0.01610868807 0.7286624385 1.067266185e-38
0.1013005924 -0.01610868807 0.7286624385 1.039464143e-38
0.1034291374 -0.01610868807 0.7286624385 1.012057548e-38
0.1055577274 -0.01610868807 0.7286624385 1.067123673e-38
0.1076863024 -0.01610868807 0.7286624385 1.1314088e-38
0.1098148624 -0.01610868807 0.7286624385 1.168358519e-38
0.1119434374 -0.01610868807 0.7286624385 1.205308657e-38
0.1140720124 -0.01610868807 0.7286624385 1.251263119e-38
0.1162005724 -0.01610868807 0.7286624385 1.297253174e-38
0.1183291474 -0.01610868807 0.7286624385 1.352498666e-38
