# .PCD v0.7 - Point Cloud Data file format
VERSION 0.7
FIELDS x y z rgb
SIZE 4 4 4 4
TYPE F F F F
COUNT 1 1 1 1
WIDTH 849
HEIGHT 1
VIEWPOINT 0 0 0 1 0 0 0
POINTS 849
DATA ascii
0.330453607 -0.02300743536 0.8476994848 1.270023983e-38
0.332882167 -0.02300743536 0.8476994848 1.288462549e-38
0.335310727 -0.02300743536 0.8476994848 1.31594061e-38
0.338939317 -0.02304172011 0.8506995448 1.30654084e-38
0.341373637 -0.02304172011 0.8506995448 1.306649441e-38
0.343807882 -0.02304172011 0.8506995448 1.288355069e-38
0.347459302 -0.02307600486 0.8536994998 1.26998825e-38
0.349899307 -0.02307600486 0.8536994998 1.288391503e-38
0.352339267 -0.02307600486 0.8536994998 1.30683175e-38
0.354779272 -0.02307600486 0.8536994998 1.297470236e-38
0.358459312 -0.02311029246 0.8566995598 1.297433662e-38
0.360905047 -0.02311029246 0.8566995598 1.306616651e-38
0.363350767 -0.02311029246 0.8566995598 1.315764327e-38
0.367053607 -0.02314457721 0.8596995148 1.315728454e-38
0.369505012 -0.02314457721 0.8596995148 1.315763907e-38
0.374493607 -0.02321314956 0.8656995298 1.29743212e-38
0.378867922 -0.02326457811 0.8701995598 1.288176684e-38
0.381339322 -0.02326457811 0.8701995598 1.269665952e-38
0.385096462 -0.02329886286 0.8731995148 1.251190952e-38
0.387573622 -0.02329886286 0.8731995148 1.214384587e-38
0.390050722 -0.02329886286 0.8731995148 1.186980514e-38
0.392527882 -0.02329886286 0.8731995148 1.113335694e-38
0.182516437 -0.02042172021 0.8311995298 1.003087836e-38
0.184913587 -0.02042172021 0.8311995298 9.568112157e-39
0.187310722 -0.02042172021 0.8311995298 8.831993258e-39
0.188844997 -0.02039314761 0.8281994698 8.186997996e-39
0.191236432 -0.02039314761 0.8281994698 8.369957129e-39
0.192753577 -0.02036457651 0.8251995148 8.645104885e-39
0.195139312 -0.02036457651 0.8251995148 8.738016578e-39
0.196639297 -0.02033600676 0.8221995448 8.923116895e-39
0.199019332 -0.02033600676 0.8221995448 8.923470022e-39
0.200502172 -0.02030743431 0.8191994998 9.015678264e-39
0.202876432 -0.02030743431 0.8191994998 9.107886505e-39
0.205250677 -0.02030743431 0.8191994998 9.292274962e-39
0.207625027 -0.02030743431 0.8191994998 9.659616947e-39
0.209079307 -0.02027886321 0.8161995448 1.002695893e-38
0.211447882 -0.02027886321 0.8161995448 1.01184357e-38
0.213816457 -0.02027886321 0.8161995448 1.021026979e-38
0.216185017 -0.02027886321 0.8161995448 1.030174655e-38
0.218553592 -0.02027886321 0.8161995448 1.039322472e-38
0.220922167 -0.02027886321 0.8161995448 1.030067456e-38
0.224245012 -0.02030743431 0.8191994998 1.029995289e-38
0.227579317 -0.02033600676 0.8221995448 1.048362108e-38
0.229959322 -0.02033600676 0.8221995448 1.066728927e-38
0.237196462 -0.02047886241 0.8371995298 1.085382872e-38
0.242047867 -0.02055029151 0.8446995298 1.103821578e-38
0.244470697 -0.02055029151 0.8446995298 1.13130048e-38
0.246893587 -0.02055029151 0.8446995298 1.167962652e-38
0.247824982 -0.02050743486 0.8401994998 1.149846525e-38
0.251739307 -0.02055029151 0.8446995298 1.131622919e-38
0.254162197 -0.02055029151 0.8446995298 1.140627102e-38
0.256585042 -0.02055029151 0.8446995298 1.14977576e-38
0.259007917 -0.02055029151 0.8446995298 1.140557458e-38
0.261430717 -0.02055029151 0.8446995298 1.131338315e-38
0.263853592 -0.02055029151 0.8446995298 1.140558018e-38
0.266276437 -0.02055029151 0.8446995298 1.149632827e-38
0.268699327 -0.02055029151 0.8446995298 1.149667719e-38
0.271122157 -0.02055029151 0.8446995298 1.149703032e-38
0.273545047 -0.02055029151 0.8446995298 1.112896527e-38
0.274382167 -0.02050743486 0.8401994998 1.075982962e-38
0.276796417 -0.02050743486 0.8401994998 1.020809918e-38
0.278142172 -0.02047886241 0.8371995298 9.748201431e-39
0.279476437 -0.02045028996 0.8341994848 9.564529037e-39
0.281879287 -0.02045028996 0.8341994848 9.472697745e-39
0.283196437 -0.02042172021 0.8311995298 9.564180114e-39
0.284502142 -0.02039314761 0.8281994698 9.655656878e-39
0.286893592 -0.02039314761 0.8281994698 9.656017011e-39
0.288182167 -0.02036457651 0.8251995148 9.748571373e-39
0.290567857 -0.02036457651 0.8251995148 9.653868821e-39
0.291839317 -0.02033600676 0.8221995448 9.563829789e-39
0.294219292 -0.02033600676 0.8221995448 9.564908789e-39
0.296599297 -0.02033600676 0.8221995448 9.656755496e-39
0.300110722 -0.02036457651 0.8251995148 1.011845671e-38
0.303633577 -0.02039314761 0.8281994698 1.067232414e-38
0.309453562 -0.02047886241 0.8371995298 1.131587606e-38
0.313010707 -0.02050743486 0.8401994998 1.19626832e-38
0.317156422 -0.02055029151 0.8446995298 1.205560751e-38
0.320739277 -0.02057886276 0.8476994848 1.214779613e-38
0.324333607 -0.02060743386 0.8506995448 1.260625194e-38
0.325596442 -0.02057886276 0.8476994848 1.30650777e-38
0.328025002 -0.02057886276 0.8476994848 1.297396807e-38
0.331636462 -0.02060743386 0.8506995448 1.279100614e-38
0.334070752 -0.02060743386 0.8506995448 1.288391083e-38
0.336505027 -0.02060743386 0.8506995448 1.306792794e-38
0.338939317 -0.02060743386 0.8506995448 1.315867603e-38
0.341373637 -0.02060743386 0.8506995448 1.334164357e-38
0.345019297 -0.02063600496 0.8536994998 1.306722869e-38
0.347459302 -0.02063600496 0.8536994998 1.28835577e-38
0.349899307 -0.02063600496 0.8536994998 1.325089968e-38
0.352339267 -0.02063600496 0.8536994998 1.361933608e-38
0.354779272 -0.02063600496 0.8536994998 1.315838316e-38
0.358459312 -0.02066457741 0.8566995598 1.26974022e-38
0.360905047 -0.02066457741 0.8566995598 1.288213959e-38
0.363350767 -0.02066457741 0.8566995598 1.306581058e-38
0.367053607 -0.02069314716 0.8596995148 1.306509311e-38
0.372030757 -0.02075029221 0.8656995298 1.31569244e-38
0.374493607 -0.02075029221 0.8656995298 1.306544484e-38
0.378867922 -0.02079314886 0.8701995598 1.297360514e-38
0.381339322 -0.02079314886 0.8701995598 1.278993134e-38
0.383810752 -0.02079314886 0.8701995598 1.269810285e-38
0.387573622 -0.02082171996 0.8731995148 1.242260477e-38
0.390050722 -0.02082171996 0.8731995148 1.214708567e-38
0.392527882 -0.02082171996 0.8731995148 1.159319163e-38
0.184062142 -0.01800171951 0.8281994698 9.937249205e-39
0.187310722 -0.01802457696 0.8311995298 9.476994126e-39
0.188844997 -0.01800171951 0.8281994698 9.015668455e-39
0.191236432 -0.01800171951 0.8281994698 8.830209405e-39
0.192753577 -0.01797886266 0.8251995148 8.737296311e-39
0.195139312 -0.01797886266 0.8251995148 8.736218712e-39
0.196639297 -0.01795600596 0.8221995448 8.830921265e-39
0.199019332 -0.01795600596 0.8221995448 8.646531407e-39
0.201399307 -0.01795600596 0.8221995448 8.555779114e-39
0.202876432 -0.01793314851 0.8191994998 8.648699215e-39
0.205250677 -0.01793314851 0.8191994998 8.740536113e-39
0.207625027 -0.01793314851 0.8191994998 9.016042601e-39
0.209999272 -0.01793314851 0.8191994998 9.291191759e-39
0.212373607 -0.01793314851 0.8191994998 9.015686671e-39
0.213816457 -0.01791029181 0.8161995448 8.740181584e-39
0.217122187 -0.01793314851 0.8191994998 8.832019883e-39
0.218553592 -0.01791029181 0.8161995448 9.015334946e-39
0.220922167 -0.01791029181 0.8161995448 9.381962268e-39
0.224245012 -0.01793314851 0.8191994998 9.840778214e-39
0.238619332 -0.01821886311 0.8566995598 1.02070426e-38
0.240099292 -0.01819600566 0.8536994998 1.057653418e-38
0.241567882 -0.01817314896 0.8506995448 1.076271349e-38
0.244002172 -0.01817314896 0.8506995448 1.103821718e-38
0.245453557 -0.01815029076 0.8476994848 1.158922735e-38
0.247882162 -0.01815029076 0.8476994848 1.223315202e-38
0.249316432 -0.01812743406 0.8446995298 1.177540807e-38
0.251739307 -0.01812743406 0.8446995298 1.131551593e-38
0.254162197 -0.01812743406 0.8446995298 1.12233231e-38
0.256585042 -0.01812743406 0.8446995298 1.113185474e-38
0.259007917 -0.01812743406 0.8446995298 1.122405598e-38
0.261430717 -0.01812743406 0.8446995298 1.131446636e-38
0.263853592 -0.01812743406 0.8446995298 1.149778842e-38
0.266276437 -0.01812743406 0.8446995298 1.177256624e-38
0.268699327 -0.01812743406 0.8446995298 1.177147883e-38
0.271122157 -0.01812743406 0.8446995298 1.177146902e-38
0.273545047 -0.01812743406 0.8446995298 1.149595412e-38
0.274382167 -0.01809314856 0.8401994998 1.121901131e-38
0.276796417 -0.01809314856 0.8401994998 1.066692073e-38
0.279210727 -0.01809314856 0.8401994998 1.020846071e-38
0.280550752 -0.01807029111 0.8371995298 1.011770141e-38
0.282959332 -0.01807029111 0.8371995298 1.011626789e-38
0.284282152 -0.01804743366 0.8341994848 1.011483576e-38
0.285593572 -0.01802457696 0.8311995298 1.020739152e-38
0.287990752 -0.01802457696 0.8311995298 1.030030602e-38
0.289285012 -0.01800171951 0.8281994698 1.039035206e-38
0.291676417 -0.01800171951 0.8281994698 1.084773868e-38
0.294067837 -0.01800171951 0.8281994698 1.130835109e-38
0.296459287 -0.01800171951 0.8281994698 1.066729488e-38
0.298850752 -0.01800171951 0.8281994698 1.01195231e-38
0.302373607 -0.01802457696 0.8311995298 1.067521081e-38
0.307044982 -0.01807029111 0.8371995298 1.131805088e-38
0.310596412 -0.01809314856 0.8401994998 1.196089234e-38
0.314733577 -0.01812743406 0.8446995298 1.269737278e-38
0.317156422 -0.01812743406 0.8446995298 1.251442345e-38
0.320739277 -0.01815029076 0.8476994848 1.233039233e-38
0.323167882 -0.01815029076 0.8476994848 1.278956981e-38
0.326767897 -0.01817314896 0.8506995448 1.334022686e-38
0.328025002 -0.01815029076 0.8476994848 1.315655867e-38
0.330453607 -0.01815029076 0.8476994848 1.297503867e-38
0.334070752 -0.01817314896 0.8506995448 1.29753974e-38
0.336505027 -0.01817314896 0.8506995448 1.297610646e-38
0.340139332 -0.01819600566 0.8536994998 1.334343863e-38
0.342579292 -0.01819600566 0.8536994998 1.371043169e-38
0.345019297 -0.01819600566 0.8536994998 1.334274079e-38
0.348676492 -0.01821886311 0.8566995598 1.306722589e-38
0.349899307 -0.01819600566 0.8536994998 1.361823186e-38
0.352339267 -0.01819600566 0.8536994998 1.426145448e-38
0.356013592 -0.01821886311 0.8566995598 1.334239747e-38
0.358459312 -0.01821886311 0.8566995598 1.24240397e-38
0.362150752 -0.01824171981 0.8596995148 1.269990212e-38
0.364602157 -0.01824171981 0.8596995148 1.306617211e-38
0.368310712 -0.01826457666 0.8626994698 1.306509872e-38
0.372030757 -0.01828743411 0.8656995298 1.315728314e-38
0.376396447 -0.01832172021 0.8701995598 1.306579516e-38
0.378867922 -0.01832172021 0.8701995598 1.306542942e-38
0.381339322 -0.01832172021 0.8701995598 1.297286946e-38
0.383810752 -0.01832172021 0.8701995598 1.288176544e-38
0.387573622 -0.01834457706 0.8731995148 1.260627296e-38
0.390050722 -0.01834457706 0.8731995148 1.242259496e-38
0.392527882 -0.01834457706 0.8731995148 1.205309358e-38
0.395005042 -0.01834457706 0.8731995148 1.177832698e-38
0.397482142 -0.01834457706 0.8731995148 1.095290753e-38
0.184062142 -0.01561029126 0.8281994698 1.021957301e-38
0.187310722 -0.01562743431 0.8311995298 1.021670175e-38
0.188844997 -0.01561029126 0.8281994698 1.021383469e-38
0.191236432 -0.01561029126 0.8281994698 9.844703251e-39
0.193627867 -0.01561029126 0.8281994698 9.384088038e-39
0.196019257 -0.01561029126 0.8281994698 9.199339447e-39
0.197525002 -0.01559314806 0.8251995148 8.922756761e-39
0.199019332 -0.01557600501 0.8221995448 8.645816744e-39
0.201399307 -0.01557600501 0.8221995448 8.368876728e-39
0.203779312 -0.01557600501 0.8221995448 8.004407405e-39
0.205250677 -0.01555886271 0.8191994998 7.72926105e-39
0.207625027 -0.01555886271 0.8191994998 8.280275428e-39
0.209999272 -0.01555886271 0.8191994998 8.83164994e-39
0.212373607 -0.01555886271 0.8191994998 8.739817247e-39
0.214747852 -0.01555886271 0.8191994998 8.648344687e-39
0.217122187 -0.01555886271 0.8191994998 8.739825654e-39
0.218553592 -0.01554172026 0.8161995448 8.831306622e-39
0.220922167 -0.01554172026 0.8161995448 9.290129574e-39
0.237127882 -0.01579029126 0.8596995148 9.657470158e-39
0.238619332 -0.01577314881 0.8566995598 9.93369271e-39
0.240099292 -0.01575600501 0.8536994998 1.030210669e-38
0.242539297 -0.01575600501 0.8536994998 1.05790453e-38
0.244979302 -0.01575600501 0.8536994998 1.085490632e-38
0.246436447 -0.01573886256 0.8506995448 1.122296157e-38
0.248870737 -0.01573886256 0.8506995448 1.159102102e-38
0.250310722 -0.01572172026 0.8476994848 1.140771016e-38
0.252739282 -0.01572172026 0.8476994848 1.122260844e-38
0.255167887 -0.01572172026 0.8476994848 1.094782362e-38
0.257596402 -0.01572172026 0.8476994848 1.07648743e-38
0.260025007 -0.01572172026 0.8476994848 1.094819216e-38
0.261430717 -0.01570457721 0.8446995298 1.122335533e-38
0.263853592 -0.01570457721 0.8446995298 1.158999667e-38
0.266276437 -0.01570457721 0.8446995298 1.186513181e-38
0.268699327 -0.01570457721 0.8446995298 1.204843286e-38
0.271122157 -0.01570457721 0.8446995298 1.223209124e-38
0.273545047 -0.01570457721 0.8446995298 1.168142438e-38
0.275967892 -0.01570457721 0.8446995298 1.122296157e-38
0.278390722 -0.01570457721 0.8446995298 1.094637748e-38
0.279210727 -0.01567886211 0.8401994998 1.067015493e-38
0.281624977 -0.01567886211 0.8401994998 1.085418605e-38
0.284039272 -0.01567886211 0.8401994998 1.113041001e-38
0.285367912 -0.01566172041 0.8371995298 1.094602155e-38
0.287776492 -0.01566172041 0.8371995298 1.085383152e-38
0.290185072 -0.01566172041 0.8371995298 1.09442377e-38
0.291490717 -0.01564457676 0.8341994848 1.102997895e-38
0.293893582 -0.01564457676 0.8341994848 1.140163132e-38
0.296296432 -0.01564457676 0.8341994848 1.177327389e-38
0.298699297 -0.01564457676 0.8341994848 1.159103363e-38
0.302227867 -0.01566172041 0.8371995298 1.140916751e-38
0.305767897 -0.01567886211 0.8401994998 1.140989758e-38
0.308182147 -0.01567886211 0.8401994998 1.150244914e-38
0.312310747 -0.01570457721 0.8446995298 1.186943099e-38
0.315882157 -0.01572172026 0.8476994848 1.214672554e-38
0.319465042 -0.01573886256 0.8506995448 1.214779753e-38
0.321899332 -0.01573886256 0.8506995448 1.214887653e-38
0.325499302 -0.01575600501 0.8536994998 1.251658005e-38
0.326767897 -0.01573886256 0.8506995448 1.27928012e-38
0.329202172 -0.01573886256 0.8506995448 1.270060557e-38
0.331636462 -0.01573886256 0.8506995448 1.270025385e-38
0.335259277 -0.01575600501 0.8536994998 1.260878409e-38
0.337699282 -0.01575600501 0.8536994998 1.260913582e-38
0.340139332 -0.01575600501 0.8536994998 1.288427797e-38
0.342579292 -0.01575600501 0.8536994998 1.325162416e-38
0.345019297 -0.01575600501 0.8536994998 1.306759863e-38
0.348676492 -0.01577314881 0.8566995598 1.288319476e-38
0.351122212 -0.01577314881 0.8566995598 1.315904597e-38
0.353567857 -0.01577314881 0.8566995598 1.352711803e-38
0.356013592 -0.01577314881 0.8566995598 1.306687697e-38
0.358459312 -0.01577314881 0.8566995598 1.260626876e-38
0.362150752 -0.01579029126 0.8596995148 1.279137888e-38
0.364602157 -0.01579029126 0.8596995148 1.297505688e-38
0.368310712 -0.01580743356 0.8626994698 1.306725812e-38
0.372030757 -0.01582457736 0.8656995298 1.315979286e-38
0.376396447 -0.01585029171 0.8701995598 1.315905858e-38
0.378867922 -0.01585029171 0.8701995598 1.315832991e-38
0.381339322 -0.01585029171 0.8701995598 1.297393024e-38
0.385096462 -0.01586743401 0.8731995148 1.288175563e-38
0.387573622 -0.01586743401 0.8731995148 1.278994115e-38
0.391347847 -0.01588457706 0.8761994848 1.269810426e-38
0.393830722 -0.01588457706 0.8761994848 1.242331383e-38
0.396313597 -0.01588457706 0.8761994848 1.214849958e-38
0.397482142 -0.01586743401 0.8731995148 1.122760827e-38
0.399959302 -0.01586743401 0.8731995148 1.040046663e-38
0.187310722 -0.01323029106 0.8311995298 1.104465615e-38
0.188844997 -0.01321886226 0.8281994698 1.150061905e-38
0.191236432 -0.01321886226 0.8281994698 1.076487289e-38
0.193627867 -0.01321886226 0.8281994698 1.012129575e-38
0.196019257 -0.01321886226 0.8281994698 9.569554093e-39
0.197525002 -0.01320743391 0.8251995148 9.108940282e-39
0.199019332 -0.01319600556 0.8221995448 8.645456611e-39
0.201399307 -0.01319600556 0.8221995448 8.27847476e-39
0.203779312 -0.01319600556 0.8221995448 7.452314027e-39
0.206159287 -0.01319600556 0.8221995448 6.717630057e-39
0.208539337 -0.01319600556 0.8221995448 7.544149523e-39
0.209999272 -0.01318457676 0.8191994998 8.370313059e-39
0.212373607 -0.01318457676 0.8191994998 8.462151357e-39
0.214747852 -0.01318457676 0.8191994998 8.64654542e-39
0.217122187 -0.01318457676 0.8191994998 8.647628623e-39
0.233167882 -0.01335029091 0.8626994698 8.73910819e-39
0.235625047 -0.01335029091 0.8626994698 9.106094244e-39
0.236173597 -0.01332743421 0.8566995598 9.565637464e-39
0.238619332 -0.01332743421 0.8566995598 9.751469259e-39
0.240099292 -0.01331600541 0.8536994998 1.00276834e-38
0.242539297 -0.01331600541 0.8536994998 1.039573444e-38
0.244979302 -0.01331600541 0.8536994998 1.076414562e-38
0.246436447 -0.01330457706 0.8506995448 1.085884537e-38
0.248870737 -0.01330457706 0.8506995448 1.10407241e-38
0.251305057 -0.01330457706 0.8506995448 1.104000664e-38
0.253739302 -0.01330457706 0.8506995448 1.113041141e-38
0.256173577 -0.01330457706 0.8506995448 1.076594489e-38
0.257596402 -0.01329314796 0.8476994848 1.039788404e-38
0.260025007 -0.01329314796 0.8476994848 1.076307223e-38
0.262453582 -0.01329314796 0.8476994848 1.122262525e-38
0.264882142 -0.01329314796 0.8476994848 1.159070152e-38
0.266276437 -0.01328171961 0.8446995298 1.204915032e-38
0.268699327 -0.01328171961 0.8446995298 1.23246456e-38
0.271122157 -0.01328171961 0.8446995298 1.269198058e-38
0.273545047 -0.01328171961 0.8446995298 1.195729101e-38
0.275967892 -0.01328171961 0.8446995298 1.131444534e-38
0.278390722 -0.01328171961 0.8446995298 1.122369024e-38
0.280813567 -0.01328171961 0.8446995298 1.113185474e-38
0.283236442 -0.01328171961 0.8446995298 1.168286912e-38
0.284039272 -0.01326457686 0.8401994998 1.223353178e-38
0.286453582 -0.01326457686 0.8401994998 1.18661996e-38
0.288867877 -0.01326457686 0.8401994998 1.149777441e-38
0.291282142 -0.01326457686 0.8401994998 1.158816937e-38
0.293696437 -0.01326457686 0.8401994998 1.168216007e-38
0.296110732 -0.01326457686 0.8401994998 1.195982315e-38
0.298525042 -0.01326457686 0.8401994998 1.223497511e-38
0.300939292 -0.01326457686 0.8401994998 1.241865171e-38
0.305042182 -0.01328171961 0.8446995298 1.269487566e-38
0.307465027 -0.01328171961 0.8446995298 1.223641565e-38
0.309887902 -0.01328171961 0.8446995298 1.177795283e-38
0.313453582 -0.01329314796 0.8476994848 1.168647466e-38
0.317030767 -0.01330457706 0.8506995448 1.16868334e-38
0.319465042 -0.01330457706 0.8506995448 1.187301692e-38
0.321899332 -0.01330457706 0.8506995448 1.205669211e-38
0.325499302 -0.01331600541 0.8536994998 1.214960801e-38
0.327939307 -0.01331600541 0.8536994998 1.23332734e-38
0.329202172 -0.01330457706 0.8506995448 1.233362512e-38
0.332819272 -0.01331600541 0.8536994998 1.242546482e-38
0.335259277 -0.01331600541 0.8536994998 1.233363493e-38
0.337699282 -0.01331600541 0.8536994998 1.22414393e-38
0.340139332 -0.01331600541 0.8536994998 1.251551086e-38
0.342579292 -0.01331600541 0.8536994998 1.279173481e-38
0.345019297 -0.01331600541 0.8536994998 1.270061678e-38
0.348676492 -0.01332743421 0.8566995598 1.270096431e-38
0.351122212 -0.01332743421 0.8566995598 1.279314732e-38
0.353567857 -0.01332743421 0.8566995598 1.288463109e-38
0.356013592 -0.01332743421 0.8566995598 1.28835633e-38
0.358459312 -0.01332743421 0.8566995598 1.288320737e-38
0.362150752 -0.01333886256 0.8596995148 1.288321158e-38
0.365853532 -0.01335029091 0.8626994698 1.297504427e-38
0.368310712 -0.01335029091 0.8626994698 1.306867063e-38
0.372030757 -0.01336171956 0.8656995298 1.325197588e-38
0.376396447 -0.01337886276 0.8701995598 1.325197028e-38
0.378867922 -0.01337886276 0.8701995598 1.325125281e-38
0.381339322 -0.01337886276 0.8701995598 1.306722309e-38
0.385096462 -0.01339029111 0.8731995148 1.29753988e-38
0.387573622 -0.01339029111 0.8731995148 1.297541001e-38
0.391347847 -0.01340171946 0.8761994848 1.306724411e-38
0.393830722 -0.01340171946 0.8761994848 1.279173622e-38
0.396313597 -0.01340171946 0.8761994848 1.251405071e-38
0.397482142 -0.01339029111 0.8731995148 1.159423419e-38
0.401279257 -0.01340171946 0.8761994848 1.067628561e-38
0.403762132 -0.01340171946 0.8761994848 9.947747733e-39
0.188844997 -0.01082743371 0.8281994698 1.095105221e-38
0.191236432 -0.01082743371 0.8281994698 1.058158305e-38
0.193627867 -0.01082743371 0.8281994698 1.030569681e-38
0.196019257 -0.01082743371 0.8281994698 9.93833381e-39
0.198410722 -0.01082743371 0.8281994698 9.570989023e-39
0.199910737 -0.01082171961 0.8251995148 9.110732542e-39
0.202296427 -0.01082171961 0.8251995148 8.742312959e-39
0.204682147 -0.01082171961 0.8251995148 8.281341816e-39
0.206159287 -0.01081600536 0.8221995448 7.912204768e-39
0.208539337 -0.01081600536 0.8221995448 8.187709856e-39
0.210919312 -0.01081600536 0.8221995448 8.552183382e-39
0.226722172 -0.01089886236 0.8656995298 8.55146872e-39
0.228253582 -0.01089314796 0.8626994698 8.642953892e-39
0.230710747 -0.01089314796 0.8626994698 8.64583356e-39
0.233167882 -0.01089314796 0.8626994698 8.646551025e-39
0.235625047 -0.01089314796 0.8626994698 8.922417647e-39
0.236173597 -0.01088171961 0.8566995598 9.29013518e-39
0.238619332 -0.01088171961 0.8566995598 9.567812279e-39
0.241065052 -0.01088171961 0.8566995598 9.845455748e-39
0.242539297 -0.01087600536 0.8536994998 1.012166429e-38
0.244979302 -0.01087600536 0.8536994998 1.049007406e-38
0.247419307 -0.01087600536 0.8536994998 1.067373805e-38
0.249859312 -0.01087600536 0.8536994998 1.085776777e-38
0.252299317 -0.01087600536 0.8536994998 1.104036397e-38
0.254739322 -0.01087600536 0.8536994998 1.12222455e-38
0.256173577 -0.01087029111 0.8506995448 1.085706152e-38
0.258607912 -0.01087029111 0.8506995448 1.049007126e-38
0.261042157 -0.01087029111 0.8506995448 1.085525384e-38
0.263476432 -0.01087029111 0.8506995448 1.122153645e-38
0.264882142 -0.01086457656 0.8476994848 1.149777862e-38
0.267310747 -0.01086457656 0.8476994848 1.177399136e-38
0.269739262 -0.01086457656 0.8476994848 1.186509958e-38
0.272167867 -0.01086457656 0.8476994848 1.195621621e-38
0.274596472 -0.01086457656 0.8476994848 1.131336774e-38
0.275967892 -0.01085886231 0.8446995298 1.057905091e-38
0.278390722 -0.01085886231 0.8446995298 1.076273171e-38
0.280813567 -0.01085886231 0.8446995298 1.094676143e-38
0.283236442 -0.01085886231 0.8446995298 1.131482088e-38
0.285659287 -0.01085886231 0.8446995298 1.177473405e-38
0.288082177 -0.01085886231 0.8446995298 1.159108127e-38
0.290505007 -0.01085886231 0.8446995298 1.149922756e-38
0.292927897 -0.01085886231 0.8446995298 1.16835992e-38
0.295350772 -0.01085886231 0.8446995298 1.186798906e-38
0.296110732 -0.01085029101 0.8401994998 1.214313962e-38
0.300196462 -0.01085886231 0.8446995298 1.242152998e-38
0.302619292 -0.01085886231 0.8446995298 1.251050963e-38
0.305042182 -0.01085886231 0.8446995298 1.250906349e-38
0.308596417 -0.01086457656 0.8476994848 1.214350395e-38
0.311025022 -0.01086457656 0.8476994848 1.177795143e-38
0.314596432 -0.01087029111 0.8506995448 1.141060664e-38
0.317030767 -0.01087029111 0.8506995448 1.113510576e-38
0.319465042 -0.01087029111 0.8506995448 1.150460714e-38
0.323059297 -0.01087600536 0.8536994998 1.196486643e-38
0.325499302 -0.01087600536 0.8536994998 1.214818569e-38
0.327939307 -0.01087600536 0.8536994998 1.223965125e-38
0.330379312 -0.01087600536 0.8536994998 1.242331243e-38
0.332819272 -0.01087600536 0.8536994998 1.251514933e-38
0.335259277 -0.01087600536 0.8536994998 1.251586959e-38
0.337699282 -0.01087600536 0.8536994998 1.260878549e-38
0.340139332 -0.01087600536 0.8536994998 1.279066843e-38
0.342579292 -0.01087600536 0.8536994998 1.306688818e-38
0.346230757 -0.01088171961 0.8566995598 1.279245508e-38
0.348676492 -0.01088171961 0.8566995598 1.260949315e-38
0.351122212 -0.01088171961 0.8566995598 1.251764924e-38
0.353567857 -0.01088171961 0.8566995598 1.242617528e-38
0.356013592 -0.01088171961 0.8566995598 1.270096851e-38
0.359699302 -0.01088743386 0.8596995148 1.297611767e-38
0.363396412 -0.01089314796 0.8626994698 1.297504427e-38
0.365853532 -0.01089314796 0.8626994698 1.306722589e-38
0.369567907 -0.01089886236 0.8656995298 1.315976764e-38
0.372030757 -0.01089886236 0.8656995298 1.316048931e-38
0.374493607 -0.01089886236 0.8656995298 1.316013478e-38
0.378867922 -0.01090743396 0.8701995598 1.315978726e-38
0.381339322 -0.01090743396 0.8701995598 1.297612748e-38
0.385096462 -0.01091314806 0.8731995148 1.279281802e-38
0.387573622 -0.01091314806 0.8731995148 1.297577435e-38
0.391347847 -0.01091886231 0.8761994848 1.325163817e-38
0.393830722 -0.01091886231 0.8761994848 1.288214239e-38
0.396313597 -0.01091886231 0.8761994848 1.251226125e-38
0.400110757 -0.01092457671 0.8791995298 1.186974348e-38
0.402599347 -0.01092457671 0.8791995298 1.131944657e-38
0.405087862 -0.01092457671 0.8791995298 1.067910922e-38
0.406245007 -0.01091886231 0.8761994848 1.013070687e-38
0.408727882 -0.01091886231 0.8761994848 1.133614865e-38
0.193627867 -0.008436005163 0.8281994698 1.04904356e-38
0.196019257 -0.008436005163 0.8281994698 1.02159955e-38
0.198410722 -0.008436005163 0.8281994698 1.003052804e-38
0.199910737 -0.008436005163 0.8251995148 9.663543385e-39
0.202296427 -0.008436005163 0.8251995148 9.294762267e-39
0.204682147 -0.008436005163 0.8251995148 9.201489039e-39
0.206159287 -0.008436005163 0.8221995448 9.108218613e-39
0.221796472 -0.008436005163 0.8656995298 8.923471423e-39
0.224259322 -0.008436005163 0.8656995298 8.829487737e-39
0.226722172 -0.008436005163 0.8656995298 8.732992923e-39
0.228253582 -0.008436005163 0.8626994698 8.642599363e-39
0.230710747 -0.008436005163 0.8626994698 8.644401433e-39
0.233167882 -0.008436005163 0.8626994698 8.646196496e-39
0.235625047 -0.008436005163 0.8626994698 8.831305221e-39
0.236173597 -0.008436005163 0.8566995598 9.013908424e-39
0.238619332 -0.008436005163 0.8566995598 9.384130077e-39
0.241065052 -0.008436005163 0.8566995598 9.752537048e-39
0.243510742 -0.008436005163 0.8566995598 9.939068091e-39
0.245956417 -0.008436005163 0.8566995598 1.021421164e-38
0.248402152 -0.008436005163 0.8566995598 1.03975197e-38
0.249859312 -0.008436005163 0.8536994998 1.067338772e-38
0.252299317 -0.008436005163 0.8536994998 1.094925715e-38
0.254739322 -0.008436005163 0.8536994998 1.131588167e-38
0.257179282 -0.008436005163 0.8536994998 1.094818235e-38
0.259619287 -0.008436005163 0.8536994998 1.058047743e-38
0.262059292 -0.008436005163 0.8536994998 1.085597971e-38
0.263476432 -0.008436005163 0.8506995448 1.122117771e-38
0.265910767 -0.008436005163 0.8506995448 1.131338035e-38
0.267310747 -0.008436005163 0.8476994848 1.149597234e-38
0.269739262 -0.008436005163 0.8476994848 1.140305785e-38
0.272167867 -0.008436005163 0.8476994848 1.131265588e-38
0.274596472 -0.008436005163 0.8476994848 1.057868937e-38
0.277024987 -0.008436005163 0.8476994848 9.935134646e-39
0.279453592 -0.008436005163 0.8476994848 1.030177038e-38
0.280813567 -0.008436005163 0.8446995298 1.076129538e-38
0.283236442 -0.008436005163 0.8446995298 1.103750952e-38
0.285659287 -0.008436005163 0.8446995298 1.140557878e-38
0.288082177 -0.008436005163 0.8446995298 1.140666479e-38
0.290505007 -0.008436005163 0.8446995298 1.149849468e-38
0.292927897 -0.008436005163 0.8446995298 1.177399416e-38
0.295350772 -0.008436005163 0.8446995298 1.205093698e-38
0.297773572 -0.008436005163 0.8446995298 1.23268022e-38
0.300196462 -0.008436005163 0.8446995298 1.269415399e-38
0.302619292 -0.008436005163 0.8446995298 1.251085295e-38
0.306167902 -0.008436005163 0.8476994848 1.241793004e-38
0.308596417 -0.008436005163 0.8476994848 1.205057685e-38
0.312162157 -0.008436005163 0.8506995448 1.17743557e-38
0.314596432 -0.008436005163 0.8506995448 1.113115129e-38
0.318179287 -0.008436005163 0.8536994998 1.058372844e-38
0.320619337 -0.008436005163 0.8536994998 1.122801605e-38
0.323059297 -0.008436005163 0.8536994998 1.196449929e-38
0.325499302 -0.008436005163 0.8536994998 1.205670052e-38
0.327939307 -0.008436005163 0.8536994998 1.223928831e-38
0.330379312 -0.008436005163 0.8536994998 1.242259356e-38
0.332819272 -0.008436005163 0.8536994998 1.269810285e-38
0.336447892 -0.008436005163 0.8566995598 1.278994255e-38
0.338893582 -0.008436005163 0.8566995598 1.297397929e-38
0.341339302 -0.008436005163 0.8566995598 1.315801602e-38
0.343785037 -0.008436005163 0.8566995598 1.34345917e-38
0.346230757 -0.008436005163 0.8566995598 1.297648481e-38
0.348676492 -0.008436005163 0.8566995598 1.251765485e-38
0.351122212 -0.008436005163 0.8566995598 1.224393081e-38
0.353567857 -0.008436005163 0.8566995598 1.205847456e-38
0.356013592 -0.008436005163 0.8566995598 1.251765905e-38
0.359699302 -0.008436005163 0.8596995148 1.306867063e-38
0.363396412 -0.008436005163 0.8626994698 1.315871246e-38
0.365853532 -0.008436005163 0.8626994698 1.325090389e-38
0.369567907 -0.008436005163 0.8656995298 1.315906559e-38
0.372030757 -0.008436005163 0.8656995298 1.316050332e-38
0.376396447 -0.008436005163 0.8701995598 1.316014739e-38
0.378867922 -0.008436005163 0.8701995598 1.315979426e-38
0.381339322 -0.008436005163 0.8701995598 1.288501085e-38
0.383810752 -0.008436005163 0.8701995598 1.260878829e-38
0.387573622 -0.008436005163 0.8731995148 1.297577435e-38
0.391347847 -0.008436005163 0.8761994848 1.343494622e-38
0.393830722 -0.008436005163 0.8761994848 1.297253455e-38
0.396313597 -0.008436005163 0.8761994848 1.251298152e-38
0.398796472 -0.008436005163 0.8761994848 1.223745961e-38
0.402599347 -0.008436005163 0.8791995298 1.19616014e-38
0.405087862 -0.008436005163 0.8791995298 1.149920233e-38
0.406245007 -0.008436005163 0.8761994848 1.113657292e-38
0.408727882 -0.008436005163 0.8761994848 1.077430223e-38
0.221796472 -0.005973147963 0.8656995298 9.384443968e-39
0.224259322 -0.005973147963 0.8656995298 9.198626186e-39
0.226722172 -0.005973147963 0.8656995298 9.014244735e-39
0.229185022 -0.005973147963 0.8656995298 8.830220616e-39
0.230710747 -0.005978862363 0.8626994698 8.370691409e-39
0.233167882 -0.005978862363 0.8626994698 8.002993495e-39
0.235625047 -0.005978862363 0.8626994698 8.370339683e-39
0.237127882 -0.005984576463 0.8596995148 8.737683069e-39
0.238619332 -0.005990290713 0.8566995598 8.923149125e-39
0.241065052 -0.005990290713 0.8566995598 9.200442269e-39
0.243510742 -0.005990290713 0.8566995598 9.476301884e-39
0.245956417 -0.005990290713 0.8566995598 9.660331609e-39
0.248402152 -0.005990290713 0.8566995598 9.935838098e-39
0.250847887 -0.005990290713 0.8566995598 1.021135019e-38
0.253293607 -0.005990290713 0.8566995598 1.048793848e-38
0.255739342 -0.005990290713 0.8566995598 1.085671259e-38
0.258185017 -0.005990290713 0.8566995598 1.058012711e-38
0.259619287 -0.005996004963 0.8536994998 1.039573585e-38
0.262059292 -0.005996004963 0.8536994998 1.067052347e-38
0.264499342 -0.005996004963 0.8536994998 1.094531109e-38
0.266939302 -0.005996004963 0.8536994998 1.122081758e-38
0.268344997 -0.006001719213 0.8506995448 1.15874463e-38
0.270779332 -0.006001719213 0.8506995448 1.140378092e-38
0.273213607 -0.006001719213 0.8506995448 1.122010852e-38
0.275647852 -0.006001719213 0.8506995448 1.076093104e-38
0.277024987 -0.006007433763 0.8476994848 1.03021249e-38
0.279453592 -0.006007433763 0.8476994848 1.048580991e-38
0.281882107 -0.006007433763 0.8476994848 1.076129538e-38
0.284310712 -0.006007433763 0.8476994848 1.094530549e-38
0.285659287 -0.006013148013 0.8446995298 1.122153084e-38
0.288082177 -0.006013148013 0.8446995298 1.13140852e-38
0.290505007 -0.006013148013 0.8446995298 1.14070011e-38
0.292927897 -0.006013148013 0.8446995298 1.15906777e-38
0.295350772 -0.006013148013 0.8446995298 1.177470602e-38
0.297773572 -0.006013148013 0.8446995298 1.232607773e-38
0.301310692 -0.006007433763 0.8476994848 1.278597828e-38
0.303739297 -0.006007433763 0.8476994848 1.251012007e-38
0.306167902 -0.006007433763 0.8476994848 1.223460237e-38
0.308596417 -0.006007433763 0.8476994848 1.195872734e-38
0.312162157 -0.006001719213 0.8506995448 1.177470602e-38
0.314596432 -0.006001719213 0.8506995448 1.140773258e-38
0.318179287 -0.005996004963 0.8536994998 1.104254299e-38
0.320619337 -0.005996004963 0.8536994998 1.141203737e-38
0.323059297 -0.005996004963 0.8536994998 1.187265538e-38
0.325499302 -0.005996004963 0.8536994998 1.196378042e-38
0.327939307 -0.005996004963 0.8536994998 1.214708848e-38
0.330379312 -0.005996004963 0.8536994998 1.233039793e-38
0.334002172 -0.005990290713 0.8566995598 1.251407313e-38
0.336447892 -0.005990290713 0.8566995598 1.269774973e-38
0.338893582 -0.005990290713 0.8566995598 1.278995376e-38
0.341339302 -0.005990290713 0.8566995598 1.29750695e-38
0.343785037 -0.005990290713 0.8566995598 1.306797138e-38
0.346230757 -0.005990290713 0.8566995598 1.288429058e-38
0.348676492 -0.005990290713 0.8566995598 1.260948754e-38
0.351122212 -0.005990290713 0.8566995598 1.251692197e-38
0.353567857 -0.005990290713 0.8566995598 1.242438022e-38
0.357247852 -0.005984576463 0.8596995148 1.279352848e-38
0.359699302 -0.005984576463 0.8596995148 1.325306049e-38
0.363396412 -0.005978862363 0.8626994698 1.325126262e-38
0.365853532 -0.005978862363 0.8626994698 1.334274499e-38
0.369567907 -0.005973147963 0.8656995298 1.343530496e-38
0.372030757 -0.005973147963 0.8656995298 1.352821805e-38
0.376396447 -0.005964576363 0.8701995598 1.33438324e-38
0.378867922 -0.005964576363 0.8701995598 1.325163677e-38
0.381339322 -0.005964576363 0.8701995598 1.316016e-38
0.385096462 -0.005958862263 0.8731995148 1.315980267e-38
0.387573622 -0.005958862263 0.8731995148 1.361862422e-38
0.391347847 -0.005953148013 0.8761994848 1.416962739e-38
0.393830722 -0.005953148013 0.8761994848 1.334273938e-38
0.396313597 -0.005953148013 0.8761994848 1.251585558e-38
0.400110757 -0.005947433613 0.8791995298 1.233002799e-38
0.402599347 -0.005947433613 0.8791995298 1.214493748e-38
0.405087862 -0.005947433613 0.8791995298 1.149995203e-38
0.407576467 -0.005947433613 0.8791995298 1.094642512e-38
0.408727882 -0.005953148013 0.8761994848 1.095216344e-38
0.411210757 -0.005953148013 0.8761994848 1.096015224e-38
0.221796472 -0.003510290763 0.8656995298 9.845424919e-39
0.224259322 -0.003510290763 0.8656995298 9.661037864e-39
0.226722172 -0.003510290763 0.8656995298 9.385172643e-39
0.229185022 -0.003510290763 0.8656995298 9.107517964e-39
0.230710747 -0.003521719413 0.8626994698 8.187374945e-39
0.234110767 -0.003510290763 0.8656995298 7.360135212e-39
0.236573617 -0.003510290763 0.8656995298 7.908275528e-39
0.238082122 -0.003521719413 0.8626994698 8.460010173e-39
0.239579332 -0.003533147763 0.8596995148 8.55292607e-39
0.242030737 -0.003533147763 0.8596995148 8.738748056e-39
0.243510742 -0.003544576113 0.8566995598 8.924570041e-39
0.245956417 -0.003544576113 0.8566995598 9.200080734e-39
0.248402152 -0.003544576113 0.8566995598 9.475950159e-39
0.250847887 -0.003544576113 0.8566995598 9.843653678e-39
0.253293607 -0.003544576113 0.8566995598 1.01195231e-38
0.255739342 -0.003544576113 0.8566995598 1.039466525e-38
0.258185017 -0.003544576113 0.8566995598 1.030282415e-38
0.260630752 -0.003544576113 0.8566995598 1.021062992e-38
0.263076472 -0.003544576113 0.8566995598 1.048577908e-38
0.264499342 -0.003556004913 0.8536994998 1.076128417e-38
0.266939302 -0.003556004913 0.8536994998 1.122082038e-38
0.269379307 -0.003556004913 0.8536994998 1.167892167e-38
0.271819312 -0.003556004913 0.8536994998 1.140341518e-38
0.273213607 -0.003567433263 0.8506995448 1.112826462e-38
0.275647852 -0.003567433263 0.8506995448 1.085167913e-38
0.277024987 -0.003578862363 0.8476994848 1.066765501e-38
0.279453592 -0.003578862363 0.8476994848 1.075949751e-38
0.281882107 -0.003578862363 0.8476994848 1.085168333e-38
0.284310712 -0.003578862363 0.8476994848 1.094422789e-38
0.286739317 -0.003578862363 0.8476994848 1.103642212e-38
0.289167847 -0.003578862363 0.8476994848 1.122045324e-38
0.290505007 -0.003590290713 0.8446995298 1.140556056e-38
0.294025057 -0.003578862363 0.8476994848 1.149883379e-38
0.296453572 -0.003578862363 0.8476994848 1.159067209e-38
0.298882177 -0.003578862363 0.8476994848 1.22338807e-38
0.301310692 -0.003578862363 0.8476994848 1.29689234e-38
0.303739297 -0.003578862363 0.8476994848 1.251010465e-38
0.306167902 -0.003578862363 0.8476994848 1.205092437e-38
0.309727912 -0.003567433263 0.8506995448 1.19594448e-38
0.313299277 -0.003556004913 0.8536994998 1.186725618e-38
0.315739282 -0.003556004913 0.8536994998 1.168430826e-38
0.318179287 -0.003556004913 0.8536994998 1.159426782e-38
0.320619337 -0.003556004913 0.8536994998 1.168825712e-38
0.324219352 -0.003544576113 0.8566995598 1.177974089e-38
0.326665027 -0.003544576113 0.8566995598 1.196341748e-38
0.329110762 -0.003544576113 0.8566995598 1.214601088e-38
0.331556437 -0.003544576113 0.8566995598 1.223676737e-38
0.334002172 -0.003544576113 0.8566995598 1.242116003e-38
0.336447892 -0.003544576113 0.8566995598 1.251515213e-38
0.338893582 -0.003544576113 0.8566995598 1.269954899e-38
0.341339302 -0.003544576113 0.8566995598 1.270027347e-38
0.343785037 -0.003544576113 0.8566995598 1.279210336e-38
0.346230757 -0.003544576113 0.8566995598 1.279245648e-38
0.348676492 -0.003544576113 0.8566995598 1.279173341e-38
0.351122212 -0.003544576113 0.8566995598 1.279101034e-38
0.353567857 -0.003544576113 0.8566995598 1.288393044e-38
0.357247852 -0.003533147763 0.8596995148 1.316159914e-38
0.359699302 -0.003533147763 0.8596995148 1.343638115e-38
0.363396412 -0.003521719413 0.8626994698 1.343565668e-38
0.365853532 -0.003521719413 0.8626994698 1.343565808e-38
0.369567907 -0.003510290763 0.8656995298 1.361969061e-38
0.372030757 -0.003510290763 0.8656995298 1.389520551e-38
0.376396447 -0.003493147563 0.8701995598 1.361970883e-38
0.378867922 -0.003493147563 0.8701995598 1.334418833e-38
0.381339322 -0.003493147563 0.8701995598 1.35278439e-38
0.385096462 -0.003481719213 0.8731995148 1.380264554e-38
0.387573622 -0.003481719213 0.8731995148 1.435402986e-38
0.391347847 -0.003470290863 0.8761994848 1.490395543e-38
0.393830722 -0.003470290863 0.8761994848 1.370972404e-38
0.397622197 -0.003458862213 0.8791995298 1.260697782e-38
0.400110757 -0.003458862213 0.8791995298 1.242294529e-38
0.402599347 -0.003458862213 0.8791995298 1.232860847e-38
0.405087862 -0.003458862213 0.8791995298 1.150102262e-38
0.407576467 -0.003458862213 0.8791995298 1.076453098e-38
0.410065012 -0.003458862213 0.8791995298 1.113042402e-38
0.412553617 -0.003458862213 0.8791995298 1.150393872e-38
0.224259322 -0.001047432963 0.8656995298 9.939418415e-39
0.226722172 -0.001047432963 0.8656995298 9.662472793e-39
0.229185022 -0.001047432963 0.8656995298 9.38589291e-39
0.231647872 -0.001047432963 0.8656995298 8.923848373e-39
0.234110767 -0.001047432963 0.8656995298 8.462149956e-39
0.236573617 -0.001047432963 0.8656995298 8.644018878e-39
0.238082122 -0.001064576763 0.8626994698 8.918097444e-39
0.239579332 -0.001081719063 0.8596995148 8.828421349e-39
0.242030737 -0.001081719063 0.8596995148 8.736590056e-39
0.243510742 -0.001098861513 0.8566995598 8.461805237e-39
0.245956417 -0.001098861513 0.8566995598 8.279218849e-39
0.248402152 -0.001098861513 0.8566995598 8.829522769e-39
0.250847887 -0.001098861513 0.8566995598 9.380177014e-39
0.253293607 -0.001098861513 0.8566995598 9.565284337e-39
0.255739342 -0.001098861513 0.8566995598 9.842217347e-39
0.258185017 -0.001098861513 0.8566995598 9.841134144e-39
0.260630752 -0.001098861513 0.8566995598 9.840419481e-39
0.263076472 -0.001098861513 0.8566995598 1.002481074e-38
0.265522207 -0.001098861513 0.8566995598 1.02091978e-38
0.267967882 -0.001098861513 0.8566995598 1.066837528e-38
0.269379307 -0.001116005313 0.8536994998 1.121974278e-38
0.271819312 -0.001116005313 0.8536994998 1.103606759e-38
0.273213607 -0.001133147763 0.8506995448 1.085274972e-38
0.275647852 -0.001133147763 0.8506995448 1.057652016e-38
0.278082187 -0.001133147763 0.8506995448 1.039249044e-38
0.280516462 -0.001133147763 0.8506995448 1.048432593e-38
0.282950752 -0.001133147763 0.8506995448 1.066799973e-38
0.284310712 -0.001150290063 0.8476994848 1.085274972e-38
0.286739317 -0.001150290063 0.8476994848 1.103426832e-38
0.289167847 -0.001150290063 0.8476994848 1.112897368e-38
0.291596452 -0.001150290063 0.8476994848 1.122045044e-38
0.294025057 -0.001150290063 0.8476994848 1.122260283e-38
0.296453572 -0.001150290063 0.8476994848 1.131516e-38
0.298882177 -0.001150290063 0.8476994848 1.168286632e-38
0.302425057 -0.001133147763 0.8506995448 1.214239553e-38
0.304859302 -0.001133147763 0.8506995448 1.195907766e-38
0.307293577 -0.001133147763 0.8506995448 1.18676051e-38
0.309727912 -0.001133147763 0.8506995448 1.168358098e-38
0.313299277 -0.001116005313 0.8536994998 1.159138816e-38
0.315739282 -0.001116005313 0.8536994998 1.159318462e-38
0.318179287 -0.001116005313 0.8536994998 1.159533982e-38
0.321773617 -0.001098861513 0.8566995598 1.159534262e-38
0.324219352 -0.001098861513 0.8566995598 1.159534822e-38
0.326665027 -0.001098861513 0.8566995598 1.177938496e-38
0.329110762 -0.001098861513 0.8566995598 1.186834919e-38
0.331556437 -0.001098861513 0.8566995598 1.205237892e-38
0.334002172 -0.001098861513 0.8566995598 1.223641144e-38
0.336447892 -0.001098861513 0.8566995598 1.223928551e-38
0.338893582 -0.001098861513 0.8566995598 1.224072604e-38
0.341339302 -0.001098861513 0.8566995598 1.242404391e-38
0.343785037 -0.001098861513 0.8566995598 1.269954899e-38
0.346230757 -0.001098861513 0.8566995598 1.269954759e-38
0.349893592 -0.001081719063 0.8596995148 1.279138449e-38
0.352345042 -0.001081719063 0.8596995148 1.288322139e-38
0.354796447 -0.001081719063 0.8596995148 1.297649742e-38
0.357247852 -0.001081719063 0.8596995148 1.316017542e-38
0.360939322 -0.001064576763 0.8626994698 1.334419533e-38
0.363396412 -0.001064576763 0.8626994698 1.343602242e-38
0.367105057 -0.001047432963 0.8656995298 1.352821385e-38
0.369567907 -0.001047432963 0.8656995298 1.407886529e-38
0.372030757 -0.001047432963 0.8656995298 1.462989508e-38
0.374493607 -0.001047432963 0.8656995298 1.407818146e-38
0.378867922 -0.001021718613 0.8701995598 1.361861582e-38
0.381339322 -0.001021718613 0.8701995598 1.361858779e-38
0.385096462 -0.001004576313 0.8731995148 1.371080444e-38
0.387573622 -0.001004576313 0.8731995148 1.407709265e-38
0.391347847 -0.0009874332627 0.8761994848 1.444370455e-38
0.393830722 -0.0009874332627 0.8761994848 1.361753121e-38
0.397622197 -0.0009702908127 0.8791995298 1.278993415e-38
0.400110757 -0.0009702908127 0.8791995298 1.269809865e-38
0.402599347 -0.0009702908127 0.8791995298 1.26044737e-38
0.405087862 -0.0009702908127 0.8791995298 1.205346492e-38
0.407576467 -0.0009702908127 0.8791995298 1.159426082e-38
0.410065012 -0.0009702908127 0.8791995298 1.168355996e-38
0.412553617 -0.0009702908127 0.8791995298 1.177078379e-38
0.226722172 0.001415423787 0.8656995298 9.941932345e-39
0.229185022 0.001415423787 0.8656995298 9.75682362e-39
0.231647872 0.001415423787 0.8656995298 9.663550392e-39
0.235524997 0.001449709887 0.8701995598 9.570272959e-39
0.236573617 0.001415423787 0.8656995298 9.476996929e-39
0.239036452 0.001415423787 0.8656995298 9.474129872e-39
0.239579332 0.001369709487 0.8596995148 9.104280964e-39
0.242030737 0.001369709487 0.8596995148 8.735869789e-39
0.243510742 0.001346852787 0.8566995598 8.000475361e-39
0.245956417 0.001346852787 0.8566995598 7.356908022e-39
0.248402152 0.001346852787 0.8566995598 8.090873125e-39
0.250847887 0.001346852787 0.8566995598 8.918112858e-39
0.253293607 0.001346852787 0.8566995598 9.102505519e-39
0.256739302 0.001369709487 0.8596995148 9.379081198e-39
0.259190752 0.001369709487 0.8596995148 9.472344618e-39
0.261642157 0.001369709487 0.8596995148 9.564545853e-39
0.264093607 0.001369709487 0.8596995148 9.656747088e-39
0.265522207 0.001346852787 0.8566995598 9.748949724e-39
0.267967882 0.001346852787 0.8566995598 1.02113642e-38
0.270413572 0.001346852787 0.8566995598 1.076200444e-38
0.272859292 0.001346852787 0.8566995598 1.06697976e-38
0.274259317 0.001323995337 0.8536994998 1.057759916e-38
0.276699277 0.001323995337 0.8536994998 1.039392397e-38
0.279139282 0.001323995337 0.8536994998 1.020881805e-38
0.281579287 0.001323995337 0.8536994998 1.030065354e-38
0.284019337 0.001323995337 0.8536994998 1.048432453e-38
0.285385027 0.001301138637 0.8506995448 1.076126595e-38
0.287819317 0.001301138637 0.8506995448 1.103713257e-38
0.290253592 0.001301138637 0.8506995448 1.103785284e-38
0.292687882 0.001301138637 0.8506995448 1.112897227e-38
0.295122172 0.001301138637 0.8506995448 1.103821578e-38
0.297556447 0.001301138637 0.8506995448 1.103965491e-38
0.299990737 0.001301138637 0.8506995448 1.122476504e-38
0.302425057 0.001301138637 0.8506995448 1.140843183e-38
0.304859302 0.001301138637 0.8506995448 1.150026312e-38
0.308419312 0.001323995337 0.8536994998 1.168322786e-38
0.310859317 0.001323995337 0.8536994998 1.15020792e-38
0.313299277 0.001323995337 0.8536994998 1.14102381e-38
0.315739282 0.001323995337 0.8536994998 1.150206799e-38
0.319327897 0.001346852787 0.8566995598 1.159498108e-38
0.321773617 0.001346852787 0.8566995598 1.150350712e-38
0.324219352 0.001346852787 0.8566995598 1.150351273e-38
0.326665027 0.001346852787 0.8566995598 1.159535243e-38
0.329110762 0.001346852787 0.8566995598 1.16857558e-38
0.331556437 0.001346852787 0.8566995598 1.18683534e-38
0.334002172 0.001346852787 0.8566995598 1.205310059e-38
0.336447892 0.001346852787 0.8566995598 1.196377762e-38
0.338893582 0.001346852787 0.8566995598 1.187194773e-38
0.341339302 0.001346852787 0.8566995598 1.223965405e-38
0.343785037 0.001346852787 0.8566995598 1.260735336e-38
0.346230757 0.001346852787 0.8566995598 1.269954619e-38
0.349893592 0.001369709487 0.8596995148 1.288321578e-38
0.352345042 0.001369709487 0.8596995148 1.297541001e-38
0.354796447 0.001369709487 0.8596995148 1.315872788e-38
0.358482157 0.001392566337 0.8626994698 1.315837475e-38
0.360939322 0.001392566337 0.8626994698 1.325235844e-38
0.364642162 0.001415423787 0.8656995298 1.343602522e-38
0.367105057 0.001415423787 0.8656995298 1.371116737e-38
0.369567907 0.001415423787 0.8656995298 1.453660504e-38
0.372030757 0.001415423787 0.8656995298 1.536313431e-38
0.376396447 0.001449709887 0.8701995598 1.462845875e-38
0.378867922 0.001449709887 0.8701995598 1.398559626e-38
0.381339322 0.001449709887 0.8701995598 1.380155393e-38
0.385096462 0.001472566737 0.8731995148 1.361717528e-38
0.387573622 0.001472566737 0.8731995148 1.380014002e-38
0.391347847 0.001495423437 0.8761994848 1.398415993e-38
0.393830722 0.001495423437 0.8761994848 1.352569151e-38
0.397622197 0.001518280887 0.8791995298 1.306579376e-38
0.400110757 0.001518280887 0.8791995298 1.297359673e-38
0.402599347 0.001518280887 0.8791995298 1.297253034e-38
0.405087862 0.001518280887 0.8791995298 1.269559873e-38
0.407576467 0.001518280887 0.8791995298 1.242043276e-38
0.410065012 0.001518280887 0.8791995298 1.223674355e-38
0.412553617 0.001518280887 0.8791995298 1.205058105e-38
0.415042162 0.001518280887 0.8791995298 1.168110629e-38
0.235524997 0.003921138537 0.8701995598 9.66426085e-39
0.236573617 0.003878281887 0.8656995298 9.664615379e-39
0.240467917 0.003921138537 0.8701995598 9.756809607e-39
0.241499302 0.003878281887 0.8656995298 9.570268756e-39
0.242030737 0.003821136837 0.8596995148 9.292260949e-39
0.243510742 0.003792567087 0.8566995598 8.647628623e-39
0.245956417 0.003792567087 0.8566995598 8.089429788e-39
0.249384997 0.003821136837 0.8596995148 8.458196893e-39
0.250847887 0.003792567087 0.8566995598 8.826979412e-39
0.254287852 0.003821136837 0.8596995148 9.009938545e-39
0.256739302 0.003821136837 0.8596995148 9.192885066e-39
0.259190752 0.003821136837 0.8596995148 9.10176143e-39
0.262653577 0.003849709287 0.8626994698 9.102490105e-39
0.264093607 0.003821136837 0.8596995148 8.829147221e-39
0.266545012 0.003821136837 0.8596995148 8.554375013e-39
0.268996417 0.003821136837 0.8596995148 9.197600436e-39
0.270413572 0.003792567087 0.8566995598 9.932979449e-39
0.272859292 0.003792567087 0.8566995598 1.002766378e-38
0.275305027 0.003792567087 0.8566995598 1.012272367e-38
0.277750747 0.003792567087 0.8566995598 9.842192124e-39
0.279139282 0.003763994637 0.8536994998 9.658162399e-39
0.281579287 0.003763994637 0.8536994998 9.841474659e-39
0.284019337 0.003763994637 0.8536994998 1.002550158e-38
0.286459297 0.003763994637 0.8536994998 1.021024737e-38
0.288899302 0.003763994637 0.8536994998 1.03942799e-38
0.291339307 0.003763994637 0.8536994998 1.057759636e-38
0.293779312 0.003763994637 0.8536994998 1.085274832e-38
0.296219272 0.003763994637 0.8536994998 1.06687228e-38
0.298659277 0.003763994637 0.8536994998 1.048505601e-38
0.301099282 0.003763994637 0.8536994998 1.066908994e-38
