# .PCD v0.7 - Point Cloud Data file format
VERSION 0.7
FIELDS x y z rgb
SIZE 4 4 4 4
TYPE F F F F
COUNT 1 1 1 1
WIDTH 863
HEIGHT 1
VIEWPOINT 0 0 0 1 0 0 0
POINTS 863
DATA ascii
0.445978099 0.03960525184 0.7862689266 1.383003252e-38
0.448138129 0.03960525184 0.7862689266 1.622101344e-38
0.449555269 0.03951382684 0.7847689416 1.695895542e-38
0.455440984 0.03997096984 0.7922689416 1.769328206e-38
0.457612414 0.03997096984 0.7922689416 1.705043499e-38
0.460535254 0.04006239484 0.7937689266 1.640758652e-38
0.01139522198 0.03375096184 0.6587688666 1.215493715e-38
0.01331237498 0.03375096184 0.6587688666 1.197091303e-38
0.01504094648 0.03365668234 0.6572688966 1.205629835e-38
0.01714665998 0.03375096184 0.6587688666 1.214166825e-38
0.01886950898 0.03365668234 0.6572688966 1.204659716e-38
0.02098094498 0.03375096184 0.6587688666 1.186006612e-38
0.02289808748 0.03375096184 0.6587688666 1.177111029e-38
0.02501808248 0.03384525784 0.6602689416 1.168214185e-38
0.02734951448 0.03403382284 0.6632688966 1.159138115e-38
0.02927523998 0.03403382284 0.6632688966 1.158815116e-38
0.03120095498 0.03403382284 0.6632688966 1.103749691e-38
0.03312665798 0.03403382284 0.6632688966 1.048719579e-38
0.03526950848 0.03412810834 0.6647688816 1.09467264e-38
0.03719809448 0.03412810834 0.6647688816 1.131443272e-38
0.03934953398 0.03422239834 0.6662689566 1.13140796e-38
0.04173237398 0.03441096334 0.6692689116 1.131372507e-38
0.04366951898 0.03441096334 0.6692689116 1.140628223e-38
0.04606951898 0.03459953434 0.6722688816 1.140663676e-38
0.04801236398 0.03459953434 0.6722688816 1.159030495e-38
0.04995522398 0.03459953434 0.6722688816 1.177434589e-38
0.05189806898 0.03459953434 0.6722688816 1.214277528e-38
0.05384092898 0.03459953434 0.6722688816 1.251119626e-38
0.05578378898 0.03459953434 0.6722688816 1.251084033e-38
0.05772664898 0.03459953434 0.6722688816 1.251084314e-38
0.05966950898 0.03459953434 0.6722688816 1.288105918e-38
0.06161236898 0.03459953434 0.6722688816 1.334524911e-38
0.06355522898 0.03459953434 0.6722688816 1.334452184e-38
0.06601809398 0.03478810984 0.6752689266 1.334343723e-38
0.06796666898 0.03478810984 0.6752689266 1.306828107e-38
0.06991522898 0.03478810984 0.6752689266 1.288784147e-38
0.07213237898 0.03488239534 0.6767689116 1.260875046e-38
0.07408380398 0.03488239534 0.6767689116 1.242435079e-38
0.07630950398 0.03497668084 0.6782688966 1.223995112e-38
0.07826379398 0.03497668084 0.6782688966 1.214597164e-38
0.08021806898 0.03497668084 0.6782688966 1.159460974e-38
0.08217237398 0.03497668084 0.6782688966 1.11336372e-38
0.08412664898 0.03497668084 0.6782688966 1.131766552e-38
0.08608092398 0.03497668084 0.6782688966 1.150169945e-38
0.08803522898 0.03497668084 0.6782688966 1.150170365e-38
0.08998950398 0.03497668084 0.6782688966 1.159356017e-38
0.09253807898 0.03516525634 0.6812689416 1.177832838e-38
0.09449809898 0.03516525634 0.6812689416 1.19634343e-38
0.09676095398 0.03525954184 0.6827689266 1.223894079e-38
0.09841810898 0.03516525634 0.6812689416 1.251446129e-38
0.100378084 0.03516525634 0.6812689416 1.279105939e-38
0.102649519 0.03525954184 0.6827689266 1.297578696e-38
0.104612374 0.03525954184 0.6827689266 1.343387003e-38
0.106258099 0.03516525634 0.6812689416 1.389196711e-38
0.108218119 0.03516525634 0.6812689416 1.361861021e-38
0.110178094 0.03516525634 0.6812689416 1.343566789e-38
0.112138099 0.03516525634 0.6812689416 1.361899276e-38
0.114098104 0.03516525634 0.6812689416 1.389448804e-38
0.116058109 0.03516525634 0.6812689416 1.37115233e-38
0.118018099 0.03516525634 0.6812689416 1.352894533e-38
0.119303824 0.03497668084 0.6782688966 1.334529255e-38
0.122958109 0.03544810684 0.6857688816 1.316088868e-38
0.124926649 0.03544810684 0.6857688816 1.297791974e-38
0.126203824 0.03525954184 0.6827689266 1.279497742e-38
0.128166664 0.03525954184 0.6827689266 1.261131904e-38
0.130129534 0.03525954184 0.6827689266 1.242798296e-38
0.131738089 0.03516525634 0.6812689416 1.251871843e-38
0.133698094 0.03516525634 0.6812689416 1.260984347e-38
0.135658099 0.03516525634 0.6812689416 1.260985188e-38
0.137618104 0.03516525634 0.6812689416 1.270168457e-38
0.138480949 0.03488239534 0.6767689116 1.288535416e-38
0.140432359 0.03488239534 0.6767689116 1.316122639e-38
0.142383799 0.03488239534 0.6767689116 1.334454566e-38
0.143960944 0.03478810984 0.6752689266 1.36196822e-38
0.145909519 0.03478810984 0.6752689266 1.371186522e-38
0.147858109 0.03478810984 0.6752689266 1.380406646e-38
0.149806684 0.03478810984 0.6752689266 1.380299727e-38
0.151755244 0.03478810984 0.6752689266 1.380334899e-38
0.153703819 0.03478810984 0.6752689266 1.389517748e-38
0.154869514 0.03459953434 0.6722688816 1.398737732e-38
0.156812374 0.03459953434 0.6722688816 1.398810179e-38
0.158755219 0.03459953434 0.6722688816 1.389698796e-38
0.160698079 0.03459953434 0.6722688816 1.407922823e-38
0.162640924 0.03459953434 0.6722688816 1.435509765e-38
0.164583784 0.03459953434 0.6722688816 1.417178959e-38
0.166526629 0.03459953434 0.6722688816 1.398846753e-38
0.169292389 0.03478810984 0.6752689266 1.417177138e-38
0.171240949 0.03478810984 0.6752689266 1.435544517e-38
0.173189539 0.03478810984 0.6752689266 1.426325515e-38
0.175138084 0.03478810984 0.6752689266 1.407922682e-38
0.177509524 0.03488239534 0.6767689116 1.389555863e-38
0.179035234 0.03478810984 0.6752689266 1.371225058e-38
0.181412389 0.03488239534 0.6767689116 1.334527293e-38
0.182932384 0.03478810984 0.6752689266 1.307046709e-38
0.185315224 0.03488239534 0.6767689116 1.32534038e-38
0.187266664 0.03488239534 0.6767689116 1.352853895e-38
0.188778109 0.03478810984 0.6752689266 1.361928704e-38
0.191169514 0.03488239534 0.6767689116 1.371148967e-38
0.192675244 0.03478810984 0.6752689266 1.380333498e-38
0.195072379 0.03488239534 0.6767689116 1.389552781e-38
0.197023804 0.03488239534 0.6767689116 1.39884395e-38
0.198975244 0.03488239534 0.6767689116 1.417355943e-38
0.200926654 0.03488239534 0.6767689116 1.398775146e-38
0.202878094 0.03488239534 0.6767689116 1.380372454e-38
0.204829519 0.03488239534 0.6767689116 1.352929845e-38
0.206780944 0.03488239534 0.6767689116 1.334559803e-38
0.208732384 0.03488239534 0.6767689116 1.343776283e-38
0.210683824 0.03488239534 0.6767689116 1.343813978e-38
0.212635234 0.03488239534 0.6767689116 1.352963476e-38
0.214586659 0.03488239534 0.6767689116 1.362147867e-38
0.217018084 0.03497668084 0.6782688966 1.362112834e-38
0.218972359 0.03497668084 0.6782688966 1.362183039e-38
0.220926634 0.03497668084 0.6782688966 1.352998088e-38
0.222880939 0.03497668084 0.6782688966 1.343815099e-38
0.224835229 0.03497668084 0.6782688966 1.3438158e-38
0.227778094 0.03516525634 0.6812689416 1.343850832e-38
0.229738099 0.03516525634 0.6812689416 1.362073738e-38
0.232198084 0.03525954184 0.6827689266 1.380370632e-38
0.234160954 0.03525954184 0.6827689266 1.389663483e-38
0.236123809 0.03525954184 0.6827689266 1.398775567e-38
0.238086649 0.03525954184 0.6827689266 1.40799527e-38
0.241072384 0.03544810684 0.6857688816 1.417213151e-38
0.243040939 0.03544810684 0.6857688816 1.380441538e-38
0.245009509 0.03544810684 0.6857688816 1.343671887e-38
0.246978094 0.03544810684 0.6857688816 1.362003673e-38
0.248946679 0.03544810684 0.6857688816 1.380372454e-38
0.250915234 0.03544810684 0.6857688816 1.407888911e-38
0.252883804 0.03544810684 0.6857688816 1.426253908e-38
0.254852389 0.03544810684 0.6857688816 1.407884847e-38
0.256820944 0.03544810684 0.6857688816 1.389518028e-38
0.257715244 0.03525954184 0.6827689266 1.407885548e-38
0.259678084 0.03525954184 0.6827689266 1.426253208e-38
0.261640984 0.03525954184 0.6827689266 1.435437318e-38
0.263603824 0.03525954184 0.6827689266 1.444693595e-38
0.265566694 0.03525954184 0.6827689266 1.463133562e-38
0.267529534 0.03525954184 0.6827689266 1.481570726e-38
0.269492374 0.03525954184 0.6827689266 1.453982522e-38
0.272569489 0.03544810684 0.6857688816 1.435578289e-38
0.274538104 0.03544810684 0.6857688816 1.435469408e-38
0.276506659 0.03544810684 0.6857688816 1.435434375e-38
0.278475229 0.03544810684 0.6857688816 1.407812821e-38
0.281012419 0.03554239834 0.6872689566 1.389409708e-38
0.283555234 0.03563668234 0.6887689266 1.407776807e-38
0.286678084 0.03582525334 0.6917688966 1.426179499e-38
0.288658099 0.03582525334 0.6917688966 1.41699567e-38
0.291218089 0.03591953884 0.6932688816 1.407847293e-38
0.293200954 0.03591953884 0.6932688816 1.389479633e-38
0.295183819 0.03591953884 0.6932688816 1.371041348e-38
0.297166639 0.03591953884 0.6932688816 1.380225458e-38
0.299740939 0.03601382434 0.6947689416 1.398556684e-38
0.301726669 0.03601382434 0.6947689416 1.435290882e-38
0.303712399 0.03601382434 0.6947689416 1.472060674e-38
0.307498069 0.03629667934 0.6992688816 1.435111096e-38
0.309492379 0.03629667934 0.6992688816 1.407452407e-38
0.311486644 0.03629667934 0.6992688816 1.370861281e-38
0.313480909 0.03629667934 0.6992688816 1.334378335e-38
0.316698094 0.03648525484 0.7022689416 1.371041067e-38
0.318698119 0.03648525484 0.7022689416 1.407810719e-38
0.320698114 0.03648525484 0.7022689416 1.380188043e-38
0.324558079 0.03676810534 0.7067688816 1.361713885e-38
0.326566654 0.03676810534 0.7067688816 1.370682895e-38
0.329200984 0.03686239684 0.7082689566 1.388908323e-38
0.331212364 0.03686239684 0.7082689566 1.370578919e-38
0.333223849 0.03686239684 0.7082689566 1.352031052e-38
0.335869534 0.03695668234 0.7097689266 1.333913665e-38
0.337883824 0.03695668234 0.7097689266 1.306291269e-38
0.339898129 0.03695668234 0.7097689266 1.287852564e-38
0.343198084 0.03714525184 0.7127688966 1.278633421e-38
0.345218059 0.03714525184 0.7127688966 1.260194856e-38
0.347238079 0.03714525184 0.7127688966 1.241758532e-38
0.349258099 0.03714525184 0.7127688966 1.241761195e-38
0.351932389 0.03723953734 0.7142688666 1.232574142e-38
0.355269499 0.03742810834 0.7172689266 1.223279469e-38
0.357958099 0.03752239834 0.7187689116 1.204839783e-38
0.361315249 0.03771096934 0.7217689566 1.18643611e-38
0.363352384 0.03771096934 0.7217689566 1.158741968e-38
0.366058114 0.03780525484 0.7232689416 1.140267389e-38
0.369440959 0.03799381984 0.7262688966 1.121828403e-38
0.372160939 0.03808810384 0.7277688816 1.094170135e-38
0.375563854 0.03827668084 0.7307689266 1.075695836e-38
0.379658119 0.03855954184 0.7352689566 1.084951552e-38
0.382403854 0.03865382134 0.7367689416 1.094206849e-38
0.385840924 0.03884239834 0.7397688966 1.057544397e-38
0.388600954 0.03893667784 0.7412688816 1.020881524e-38
0.389983819 0.03884239834 0.7397688966 9.934023416e-39
0.394138114 0.03912525334 0.7442689266 9.658526737e-39
0.396218074 0.03912525334 0.7442689266 9.47271456e-39
0.398298124 0.03912525334 0.7442689266 9.376937212e-39
0.404595244 0.03969096484 0.7532689116 9.287259715e-39
0.408103834 0.03987954034 0.7562689566 9.289755428e-39
0.410915284 0.03997382584 0.7577689416 8.830562533e-39
0.414443824 0.04016239684 0.7607688966 8.371752192e-39
0.417269524 0.04025667634 0.7622688816 7.634208173e-39
0.420818089 0.04044525784 0.7652689266 6.988837362e-39
0.423658099 0.04053953734 0.7667689116 7.997941814e-39
0.427226689 0.04072811284 0.7697689566 8.915590521e-39
0.429355249 0.04072811284 0.7697689566 1.002767219e-38
0.432940999 0.04091667784 0.7727689266 1.123201255e-38
0.435806674 0.04101096334 0.7742689116 1.24428101e-38
0.441615259 0.04148239534 0.7817688966 1.36535656e-38
0.443766664 0.04148239534 0.7817688966 1.475742025e-38
0.448138129 0.04176525634 0.7862689266 1.595343129e-38
0.455440984 0.04214239834 0.7922689416 1.68656836e-38
0.457612414 0.04214239834 0.7922689416 1.640686205e-38
0.01139522198 0.03566810434 0.6587688666 1.233897808e-38
0.01312665398 0.03557096284 0.6572688966 1.233897808e-38
0.01504094648 0.03557096284 0.6572688966 1.279923316e-38
0.01714665998 0.03566810434 0.6587688666 1.325625124e-38
0.01886950898 0.03557096284 0.6572688966 1.2703439e-38
0.02098094498 0.03566810434 0.6587688666 1.214956177e-38
0.02309810198 0.03576525634 0.6602689416 1.187119102e-38
0.02542380098 0.03595953634 0.6632688966 1.168572497e-38
0.02734951448 0.03595953634 0.6632688966 1.140842342e-38
0.02948380448 0.03605667784 0.6647688816 1.122080777e-38
0.03141236798 0.03605667784 0.6647688816 1.029886548e-38
0.03334094348 0.03605667784 0.6647688816 9.38552577e-39
0.03526950848 0.03605667784 0.6647688816 1.011805174e-38
0.03719809448 0.03605667784 0.6647688816 1.094493554e-38
0.03934953398 0.03615382384 0.6662689566 1.094529988e-38
0.04173237398 0.03634811134 0.6692689116 1.094637888e-38
0.04389808898 0.03644525134 0.6707688966 1.103857451e-38
0.04606951898 0.03654239284 0.6722688816 1.113077014e-38
0.04801236398 0.03654239284 0.6722688816 1.131516e-38
0.04995522398 0.03654239284 0.6722688816 1.159066929e-38
0.05189806898 0.03654239284 0.6722688816 1.195944901e-38
0.05384092898 0.03654239284 0.6722688816 1.241863349e-38
0.05578378898 0.03654239284 0.6722688816 1.232716374e-38
0.05772664898 0.03654239284 0.6722688816 1.223497231e-38
0.05966950898 0.03654239284 0.6722688816 1.26023171e-38
0.06161236898 0.03654239284 0.6722688816 1.306650983e-38
0.06355522898 0.03654239284 0.6722688816 1.297646098e-38
0.06601809398 0.03673668484 0.6752689266 1.288390382e-38
0.06796666898 0.03673668484 0.6752689266 1.269987129e-38
0.06991522898 0.03673668484 0.6752689266 1.260660087e-38
0.07213237898 0.03683382034 0.6767689116 1.242185368e-38
0.07408380398 0.03683382034 0.6767689116 1.23303671e-38
0.07630950398 0.03693096634 0.6782688966 1.214704644e-38
0.07798665398 0.03683382034 0.6767689116 1.196159159e-38
0.08021806898 0.03693096634 0.6782688966 1.122691883e-38
0.08217237398 0.03693096634 0.6782688966 1.058298856e-38
0.08412664898 0.03693096634 0.6782688966 1.094925014e-38
0.08579236898 0.03683382034 0.6767689116 1.140843183e-38
0.08774379398 0.03683382034 0.6767689116 1.150063166e-38
0.08969524898 0.03683382034 0.6767689116 1.159427763e-38
0.09164667398 0.03683382034 0.6767689116 1.168720754e-38
0.09359808398 0.03683382034 0.6767689116 1.187087433e-38
0.09554950898 0.03683382034 0.6767689116 1.214637802e-38
0.09780664898 0.03693096634 0.6782688966 1.251372841e-38
0.09976093898 0.03693096634 0.6782688966 1.278960344e-38
0.101715229 0.03693096634 0.6782688966 1.315693281e-38
0.103669534 0.03693096634 0.6782688966 1.324911583e-38
0.105623824 0.03693096634 0.6782688966 1.343242809e-38
0.107258089 0.03683382034 0.6767689116 1.334202752e-38
0.109209499 0.03683382034 0.6767689116 1.334203313e-38
0.111160954 0.03683382034 0.6767689116 1.325020324e-38
0.113112394 0.03683382034 0.6767689116 1.3159081e-38
0.115063804 0.03683382034 0.6767689116 1.306796017e-38
0.117015229 0.03683382034 0.6767689116 1.297720928e-38
0.118966669 0.03683382034 0.6767689116 1.288645839e-38
0.120578089 0.03673668484 0.6752689266 1.288501645e-38
0.122869534 0.03683382034 0.6767689116 1.279353408e-38
0.124820944 0.03683382034 0.6767689116 1.279354109e-38
0.126772384 0.03683382034 0.6767689116 1.270207133e-38
0.128723809 0.03683382034 0.6767689116 1.260950436e-38
0.130675219 0.03683382034 0.6767689116 1.270096851e-38
0.132626644 0.03683382034 0.6767689116 1.288464511e-38
0.134578114 0.03683382034 0.6767689116 1.288465071e-38
0.136166674 0.03673668484 0.6752689266 1.288500524e-38
0.138115249 0.03673668484 0.6752689266 1.316122639e-38
0.140063809 0.03673668484 0.6752689266 1.352821525e-38
0.142012384 0.03673668484 0.6752689266 1.371189185e-38
0.143960944 0.03673668484 0.6752689266 1.389554742e-38
0.145909519 0.03673668484 0.6752689266 1.398772624e-38
0.147858109 0.03673668484 0.6752689266 1.407921842e-38
0.149806684 0.03673668484 0.6752689266 1.40788751e-38
0.151755244 0.03673668484 0.6752689266 1.407885548e-38
0.152926654 0.03654239284 0.6722688816 1.417138882e-38
0.154869514 0.03654239284 0.6722688816 1.435542976e-38
0.156812374 0.03654239284 0.6722688816 1.42639628e-38
0.158755219 0.03654239284 0.6722688816 1.417177418e-38
0.160698079 0.03654239284 0.6722688816 1.435509064e-38
0.162640924 0.03654239284 0.6722688816 1.46302426e-38
0.164583784 0.03654239284 0.6722688816 1.444657582e-38
0.166526629 0.03654239284 0.6722688816 1.426289501e-38
0.169292389 0.03673668484 0.6752689266 1.44465576e-38
0.171240949 0.03673668484 0.6752689266 1.472206969e-38
0.173189539 0.03673668484 0.6752689266 1.444585134e-38
0.175138084 0.03673668484 0.6752689266 1.417034345e-38
0.177086674 0.03673668484 0.6752689266 1.38951943e-38
0.179035234 0.03673668484 0.6752689266 1.362040107e-38
0.180983809 0.03673668484 0.6752689266 1.334489178e-38
0.182932384 0.03673668484 0.6752689266 1.316049912e-38
0.184880974 0.03673668484 0.6752689266 1.343564267e-38
0.186829534 0.03673668484 0.6752689266 1.371114075e-38
0.188778109 0.03673668484 0.6752689266 1.371113374e-38
0.190726669 0.03673668484 0.6752689266 1.380297484e-38
0.192675244 0.03673668484 0.6752689266 1.389625088e-38
0.194623804 0.03673668484 0.6752689266 1.398700037e-38
0.196572379 0.03673668484 0.6752689266 1.389838365e-38
0.198520939 0.03673668484 0.6752689266 1.389696694e-38
0.200469544 0.03673668484 0.6752689266 1.380371333e-38
0.202418104 0.03673668484 0.6752689266 1.380372594e-38
0.204366679 0.03673668484 0.6752689266 1.371297925e-38
0.206315239 0.03673668484 0.6752689266 1.37125981e-38
0.208263814 0.03673668484 0.6752689266 1.352890609e-38
0.210212374 0.03673668484 0.6752689266 1.343779787e-38
0.212160964 0.03673668484 0.6752689266 1.352964317e-38
0.214586659 0.03683382034 0.6767689116 1.371295823e-38
0.216538099 0.03683382034 0.6767689116 1.37126023e-38
0.218489524 0.03683382034 0.6767689116 1.37125925e-38
0.220440964 0.03683382034 0.6767689116 1.352927043e-38
0.222392374 0.03683382034 0.6767689116 1.3437079e-38
0.224343814 0.03683382034 0.6767689116 1.325340941e-38
0.226789504 0.03693096634 0.6782688966 1.316157531e-38
0.228743809 0.03693096634 0.6782688966 1.34370832e-38
0.231698104 0.03712525234 0.6812689416 1.37125953e-38
0.233658109 0.03712525234 0.6812689416 1.380479513e-38
0.235618099 0.03712525234 0.6812689416 1.398845631e-38
0.237578104 0.03712525234 0.6812689416 1.389697114e-38
0.240049534 0.03722239984 0.6827689266 1.380477411e-38
0.242012374 0.03722239984 0.6827689266 1.352962215e-38
0.245009509 0.03741668134 0.6857688816 1.334452464e-38
0.246978094 0.03741668134 0.6857688816 1.352784671e-38
0.248946679 0.03741668134 0.6857688816 1.3803363e-38
0.250915234 0.03741668134 0.6857688816 1.398704381e-38
0.252883804 0.03741668134 0.6857688816 1.417105952e-38
0.254852389 0.03741668134 0.6857688816 1.398773465e-38
0.255752404 0.03722239984 0.6827689266 1.380406646e-38
0.257715244 0.03722239984 0.6827689266 1.407957575e-38
0.259678084 0.03722239984 0.6827689266 1.435472911e-38
0.261640984 0.03722239984 0.6827689266 1.435473331e-38
0.263603824 0.03722239984 0.6827689266 1.435474032e-38
0.265566694 0.03722239984 0.6827689266 1.472244664e-38
0.267529534 0.03722239984 0.6827689266 1.508977882e-38
0.269492374 0.03722239984 0.6827689266 1.463094886e-38
0.271455259 0.03722239984 0.6827689266 1.426323973e-38
0.274538104 0.03741668134 0.6857688816 1.426251386e-38
0.276506659 0.03741668134 0.6857688816 1.435471229e-38
0.278475229 0.03741668134 0.6857688816 1.426037128e-38
0.281012419 0.03751382734 0.6872689566 1.416853298e-38
0.283555234 0.03761096734 0.6887689266 1.435220257e-38
0.285529519 0.03761096734 0.6887689266 1.453730569e-38
0.288658099 0.03780524884 0.6917688966 1.435327316e-38
0.290638099 0.03780524884 0.6917688966 1.41699567e-38
0.293200954 0.03790239484 0.6932688816 1.380296924e-38
0.295183819 0.03790239484 0.6932688816 1.343526432e-38
0.297166639 0.03790239484 0.6932688816 1.37107666e-38
0.299149504 0.03790239484 0.6932688816 1.398629131e-38
0.301726669 0.03799953634 0.6947689416 1.444548701e-38
0.303712399 0.03799953634 0.6947689416 1.490285821e-38
0.305698129 0.03799953634 0.6947689416 1.453442742e-38
0.308889499 0.03819382834 0.6977689116 1.4259637e-38
0.311486644 0.03829096384 0.6992688816 1.398484517e-38
0.313480909 0.03829096384 0.6992688816 1.380153711e-38
0.316698094 0.03848524984 0.7022689416 1.407740654e-38
0.318698119 0.03848524984 0.7022689416 1.444509464e-38
0.320698114 0.03848524984 0.7022689416 1.398626468e-38
0.322698094 0.03848524984 0.7022689416 1.361606125e-38
0.326566654 0.03877667734 0.7067688816 1.352423556e-38
0.328575229 0.03877667734 0.7067688816 1.352209438e-38
0.331212364 0.03887382934 0.7082689566 1.343062882e-38
0.333223849 0.03887382934 0.7082689566 1.333878352e-38
0.335869534 0.03897096484 0.7097689266 1.315546145e-38
0.337883824 0.03897096484 0.7097689266 1.297071006e-38
0.339898129 0.03897096484 0.7097689266 1.278667613e-38
0.343198084 0.03916525234 0.7127688966 1.269413017e-38
0.345218059 0.03916525234 0.7127688966 1.251046479e-38
0.347238079 0.03916525234 0.7127688966 1.241756851e-38
0.349258099 0.03916525234 0.7127688966 1.232610856e-38
0.351932389 0.03926239234 0.7142688666 1.223352897e-38
0.355269499 0.03945667984 0.7172689266 1.205126769e-38
0.357958099 0.03955382584 0.7187689116 1.195799586e-38
0.361315249 0.03974811184 0.7217689566 1.168105304e-38
0.364018114 0.03984525334 0.7232689416 1.149451079e-38
0.366058114 0.03984525334 0.7232689416 1.121864557e-38
0.369440959 0.04003953484 0.7262688966 1.094170415e-38
0.372160939 0.04013668084 0.7277688816 1.066512146e-38
0.375563854 0.04033096834 0.7307689266 1.048145888e-38
0.379658119 0.04062240034 0.7352689566 1.057366151e-38
0.382403854 0.04071953584 0.7367689416 1.066585014e-38
0.385840924 0.04091382334 0.7397688966 1.029958015e-38
0.388600954 0.04101096334 0.7412688816 9.932951423e-39
0.389983819 0.04091382334 0.7397688966 9.658516928e-39
0.394138114 0.04120525084 0.7442689266 9.473775343e-39
0.396915229 0.04130239684 0.7457689116 9.196120664e-39
0.398998099 0.04130239684 0.7457689116 9.009941348e-39
0.404595244 0.04178811184 0.7532689116 9.008509221e-39
0.408809569 0.04207954384 0.7577689416 9.008499412e-39
0.410915284 0.04207954384 0.7577689416 8.365642531e-39
0.415155229 0.04237096084 0.7622688816 7.719230556e-39
0.418698109 0.04256525284 0.7652689266 6.613639698e-39
0.421535269 0.04266239434 0.7667689116 5.514500419e-39
0.425098129 0.04285668034 0.7697689566 8.27245338e-39
0.428672404 0.04305096784 0.7727689266 1.113981973e-38
0.430806679 0.04305096784 0.7727689266 1.327286083e-38
0.432940999 0.04305096784 0.7727689266 1.54837763e-38
0.435806674 0.04314810934 0.7742689116 1.567466818e-38
0.437943814 0.04314810934 0.7742689116 1.595090895e-38
0.443766664 0.04363382284 0.7817688966 1.576797224e-38
0.01312665398 0.03748525084 0.6572688966 1.224750692e-38
0.01504094648 0.03748525084 0.6572688966 1.224750272e-38
0.01714665998 0.03758525134 0.6587688666 1.233969134e-38
0.01906379048 0.03758525134 0.6587688666 1.224498179e-38
0.02098094498 0.03758525134 0.6587688666 1.215135403e-38
0.02309810198 0.03768525934 0.6602689416 1.196660964e-38
0.02542380098 0.03788525134 0.6632688966 1.187405528e-38
0.02734951448 0.03788525134 0.6632688966 1.159711386e-38
0.02948380448 0.03798524734 0.6647688816 1.141236807e-38
0.03141236798 0.03798524734 0.6647688816 1.085848804e-38
0.03355524098 0.03808525534 0.6662689566 1.039643229e-38
0.03548666648 0.03808525534 0.6662689566 1.067013811e-38
0.03741810248 0.03808525534 0.6662689566 1.103605077e-38
0.03979522898 0.03828525184 0.6692689116 1.094529848e-38
0.04173237398 0.03828525184 0.6692689116 1.085489791e-38
0.04389808898 0.03838525384 0.6707688966 1.03953617e-38
0.04606951898 0.03848524984 0.6722688816 1.002766659e-38
0.04801236398 0.03848524984 0.6722688816 1.039501558e-38
0.04995522398 0.03848524984 0.6722688816 1.085454619e-38
0.05189806898 0.03848524984 0.6722688816 1.10396465e-38
0.05384092898 0.03848524984 0.6722688816 1.113292674e-38
0.05578378898 0.03848524984 0.6722688816 1.131481528e-38
0.05772664898 0.03848524984 0.6722688816 1.149669541e-38
0.05966950898 0.03848524984 0.6722688816 1.168180414e-38
0.06161236898 0.03848524984 0.6722688816 1.196125108e-38
0.06355522898 0.03848524984 0.6722688816 1.205272364e-38
0.06549808898 0.03848524984 0.6722688816 1.214456053e-38
0.06796666898 0.03868525384 0.6752689266 1.214456334e-38
0.06991522898 0.03868525384 0.6752689266 1.214491786e-38
0.07186380398 0.03868525384 0.6752689266 1.205307957e-38
0.07408380398 0.03878524984 0.6767689116 1.205343129e-38
0.07603522898 0.03878524984 0.6767689116 1.186939596e-38
0.07798665398 0.03878524984 0.6767689116 1.177757168e-38
0.07993809398 0.03878524984 0.6767689116 1.131804667e-38
0.08188953398 0.03878524984 0.6767689116 1.085886078e-38
0.08384094398 0.03878524984 0.6767689116 1.10428821e-38
0.08579236898 0.03878524984 0.6767689116 1.122727616e-38
0.08745238898 0.03868525384 0.6752689266 1.131911727e-38
0.08969524898 0.03878524984 0.6767689116 1.141132551e-38
0.09164667398 0.03878524984 0.6767689116 1.159465178e-38
0.09359808398 0.03878524984 0.6767689116 1.177580464e-38
0.09524668898 0.03868525384 0.6752689266 1.196018609e-38
0.09719524898 0.03868525384 0.6752689266 1.223677158e-38
0.09914382398 0.03868525384 0.6752689266 1.2512641e-38
0.101092384 0.03868525384 0.6752689266 1.288033752e-38
0.103040959 0.03868525384 0.6752689266 1.297252754e-38
0.104989519 0.03868525384 0.6752689266 1.315656007e-38
0.106938094 0.03868525384 0.6752689266 1.315656287e-38
0.108886654 0.03868525384 0.6752689266 1.31569216e-38
0.110835244 0.03868525384 0.6752689266 1.297360934e-38
0.112783819 0.03868525384 0.6752689266 1.288249411e-38
0.114732394 0.03868525384 0.6752689266 1.279138029e-38
0.116680954 0.03868525384 0.6752689266 1.279317395e-38
0.118629529 0.03868525384 0.6752689266 1.270097972e-38
0.120578089 0.03868525384 0.6752689266 1.260914562e-38
0.122526679 0.03868525384 0.6752689266 1.260878969e-38
0.124475224 0.03868525384 0.6752689266 1.26087925e-38
0.126423814 0.03868525384 0.6752689266 1.26087953e-38
0.128372374 0.03868525384 0.6752689266 1.26087911e-38
0.130320979 0.03868525384 0.6752689266 1.260914703e-38
0.132269524 0.03868525384 0.6752689266 1.270134406e-38
0.134218114 0.03868525384 0.6752689266 1.279246629e-38
0.136166674 0.03868525384 0.6752689266 1.279174322e-38
0.137383804 0.03848524984 0.6722688816 1.306796297e-38
0.139326664 0.03848524984 0.6722688816 1.343602663e-38
0.141269524 0.03848524984 0.6722688816 1.352750759e-38
0.143212384 0.03848524984 0.6722688816 1.37104415e-38
0.145155214 0.03848524984 0.6722688816 1.398592977e-38
0.147098074 0.03848524984 0.6722688816 1.435365431e-38
0.149040934 0.03848524984 0.6722688816 1.417036588e-38
0.150983794 0.03848524984 0.6722688816 1.398702139e-38
0.152926654 0.03848524984 0.6722688816 1.398663042e-38
0.154869514 0.03848524984 0.6722688816 1.40781212e-38
0.156812374 0.03848524984 0.6722688816 1.407813661e-38
0.158755219 0.03848524984 0.6722688816 1.417033645e-38
0.160698079 0.03848524984 0.6722688816 1.426325375e-38
0.162640924 0.03848524984 0.6722688816 1.435437598e-38
0.164583784 0.03848524984 0.6722688816 1.426290342e-38
0.166526629 0.03848524984 0.6722688816 1.417141685e-38
0.168469489 0.03848524984 0.6722688816 1.407921281e-38
0.171240949 0.03868525384 0.6752689266 1.407921982e-38
0.173189539 0.03868525384 0.6752689266 1.407958696e-38
0.175138084 0.03868525384 0.6752689266 1.417213572e-38
0.177086674 0.03868525384 0.6752689266 1.398846052e-38
0.179035234 0.03868525384 0.6752689266 1.380477691e-38
0.180983809 0.03868525384 0.6752689266 1.362073458e-38
0.182932384 0.03868525384 0.6752689266 1.343563706e-38
0.184880974 0.03868525384 0.6752689266 1.361931646e-38
0.186829534 0.03868525384 0.6752689266 1.371150789e-38
0.188778109 0.03868525384 0.6752689266 1.380298185e-38
0.190726669 0.03868525384 0.6752689266 1.380262452e-38
0.192675244 0.03868525384 0.6752689266 1.371079183e-38
0.194623804 0.03868525384 0.6752689266 1.371113094e-38
0.196572379 0.03868525384 0.6752689266 1.35281592e-38
0.198520939 0.03868525384 0.6752689266 1.334522529e-38
0.200469544 0.03868525384 0.6752689266 1.352855857e-38
0.202418104 0.03868525384 0.6752689266 1.371225058e-38
0.204366679 0.03868525384 0.6752689266 1.371298906e-38
0.206315239 0.03868525384 0.6752689266 1.362257448e-38
0.208263814 0.03868525384 0.6752689266 1.334562045e-38
0.210212374 0.03868525384 0.6752689266 1.29786372e-38
0.212160964 0.03868525384 0.6752689266 1.334598059e-38
0.214109509 0.03868525384 0.6752689266 1.380407907e-38
0.216058099 0.03868525384 0.6752689266 1.38044364e-38
0.218006659 0.03868525384 0.6752689266 1.380443079e-38
0.219955249 0.03868525384 0.6752689266 1.362039687e-38
0.221903809 0.03868525384 0.6752689266 1.352855857e-38
0.223852399 0.03868525384 0.6752689266 1.34370804e-38
0.226789504 0.03888525184 0.6782688966 1.334633091e-38
0.227749534 0.03868525384 0.6752689266 1.353001311e-38
0.230698084 0.03888525184 0.6782688966 1.380587273e-38
0.233658109 0.03908525434 0.6812689416 1.389734389e-38
0.235618099 0.03908525434 0.6812689416 1.398879963e-38
0.237578104 0.03908525434 0.6812689416 1.398842128e-38
0.239538109 0.03908525434 0.6812689416 1.398842969e-38
0.242012374 0.03918525634 0.6827689266 1.380404964e-38
0.243975244 0.03918525634 0.6827689266 1.371150929e-38
0.245938084 0.03918525634 0.6827689266 1.380371613e-38
0.248946679 0.03938524834 0.6857688816 1.389591316e-38
0.249863809 0.03918525634 0.6827689266 1.398775286e-38
0.251826679 0.03918525634 0.6827689266 1.407994009e-38
0.253789534 0.03918525634 0.6827689266 1.398773885e-38
0.255752404 0.03918525634 0.6827689266 1.389590616e-38
0.257715244 0.03918525634 0.6827689266 1.407993868e-38
0.259678084 0.03918525634 0.6827689266 1.417285458e-38
0.261640984 0.03918525634 0.6827689266 1.407994709e-38
0.263603824 0.03918525634 0.6827689266 1.389556004e-38
0.265566694 0.03918525634 0.6827689266 1.435474032e-38
0.267529534 0.03918525634 0.6827689266 1.481427233e-38
0.269492374 0.03918525634 0.6827689266 1.453912037e-38
0.271455259 0.03918525634 0.6827689266 1.435472771e-38
0.273418099 0.03918525634 0.6827689266 1.43547235e-38
0.276506659 0.03938524834 0.6857688816 1.444691773e-38
0.277343779 0.03918525634 0.6827689266 1.435436617e-38
0.281012419 0.03948525634 0.6872689566 1.417033224e-38
0.283555234 0.03958525234 0.6887689266 1.407813521e-38
0.285529519 0.03958525234 0.6887689266 1.398629691e-38
0.288658099 0.03978525034 0.6917688966 1.398593538e-38
0.290638099 0.03978525034 0.6917688966 1.407776807e-38
0.292618114 0.03978525034 0.6917688966 1.398593118e-38
0.295183819 0.03988525234 0.6932688816 1.38944404e-38
0.297166639 0.03988525234 0.6932688816 1.398590315e-38
0.299149504 0.03988525234 0.6932688816 1.407777508e-38
0.301132384 0.03988525234 0.6932688816 1.426184264e-38
0.303115249 0.03988525234 0.6932688816 1.453409671e-38
0.305698129 0.03998525884 0.6947689416 1.425928527e-38
0.307683814 0.03998525884 0.6947689416 1.398449625e-38
0.311486644 0.04028525284 0.6992688816 1.380082525e-38
0.313480909 0.04028525284 0.6992688816 1.36175186e-38
0.315475264 0.04028525284 0.6992688816 1.38011952e-38
0.317469529 0.04028525284 0.6992688816 1.4074887e-38
0.320698114 0.04048525684 0.7022689416 1.361533117e-38
0.322698094 0.04048525684 0.7022689416 1.324764166e-38
0.325320949 0.04058525284 0.7037689116 1.324801301e-38
0.327323839 0.04058525284 0.7037689116 1.333913524e-38
0.330583789 0.04078525084 0.7067688816 1.324694522e-38
0.333223849 0.04088525134 0.7082689566 1.315474539e-38
0.335235229 0.04088525134 0.7082689566 1.306254555e-38
0.337883824 0.04098525334 0.7097689266 1.297034292e-38
0.339898129 0.04098525334 0.7097689266 1.278594605e-38
0.341912419 0.04098525334 0.7097689266 1.260192614e-38
0.345218059 0.04118525134 0.7127688966 1.241790622e-38
0.347238079 0.04118525134 0.7127688966 1.223424083e-38
0.349258099 0.04118525134 0.7127688966 1.214241094e-38
0.351932389 0.04128525334 0.7142688666 1.204984116e-38
0.355269499 0.04148525584 0.7172689266 1.177431926e-38
0.357958099 0.04158525184 0.7187689116 1.159603346e-38
0.361315249 0.04178525584 0.7217689566 1.131299779e-38
0.364018114 0.04188525184 0.7232689416 1.112609541e-38
0.367395229 0.04208525584 0.7262688966 1.094278175e-38
0.369440959 0.04208525584 0.7262688966 1.075695836e-38
0.372160939 0.04218525184 0.7277688816 1.048109454e-38
0.376240939 0.04248525034 0.7322689116 1.020524193e-38
0.380338099 0.04278525634 0.7367689416 1.020633214e-38
0.382403854 0.04278525634 0.7367689416 1.02059622e-38
0.385840924 0.04298524834 0.7397688966 9.929728436e-39
0.388600954 0.04308525034 0.7412688816 9.745694508e-39
0.390675244 0.04308525034 0.7412688816 9.471260013e-39
0.394138114 0.04328525284 0.7442689266 9.289022549e-39
0.396915229 0.04338525484 0.7457689116 8.644739146e-39
0.402498064 0.04388525284 0.7532689116 8.000455743e-39
0.406000984 0.04408525534 0.7562689566 8.181615609e-39
0.408809569 0.04418525734 0.7577689416 8.270937175e-39
0.410915284 0.04418525734 0.7577689416 8.181252672e-39
0.415155229 0.04448524534 0.7622688816 8.082996427e-39
0.418698109 0.04468525534 0.7652689266 9.289810078e-39
0.421535269 0.04478525134 0.7667689116 1.049663074e-38
0.423658099 0.04478525134 0.7667689116 1.225625803e-38
0.428672404 0.04518525184 0.7727689266 1.410805994e-38
0.431532394 0.04528524784 0.7742689116 1.503038758e-38
0.433669534 0.04528524784 0.7742689116 1.604490105e-38
0.437269549 0.04548525634 0.7772689566 1.594877898e-38
0.439412419 0.04548525634 0.7772689566 1.585550715e-38
0.01906379048 0.03950239384 0.6587688666 1.178689592e-38
0.02098094498 0.03950239384 0.6587688666 1.215245124e-38
0.02309810198 0.03960525184 0.6602689416 1.205918642e-38
0.02542380098 0.03981096634 0.6632688966 1.205881788e-38
0.02755522898 0.03991382284 0.6647688816 1.187513848e-38
0.02948380448 0.03991382284 0.6647688816 1.168895496e-38
0.03162381548 0.04001668534 0.6662689566 1.150313017e-38
0.03334094348 0.03991382284 0.6647688816 1.141128907e-38
0.03592094948 0.04022239384 0.6692689116 1.131944937e-38
0.03741810248 0.04001668534 0.6662689566 1.122547129e-38
0.03979522898 0.04022239384 0.6692689116 1.094818095e-38
0.04195809398 0.04032525184 0.6707688966 1.076306802e-38
0.04412665898 0.04042810234 0.6722688816 9.843269722e-39
0.04606951898 0.04042810234 0.6722688816 8.924558831e-39
0.04801236398 0.04042810234 0.6722688816 9.567411508e-39
0.04995522398 0.04042810234 0.6722688816 1.021205084e-38
0.05189806898 0.04042810234 0.6722688816 1.002837845e-38
0.05384092898 0.04042810234 0.6722688816 9.936194027e-39
0.05578378898 0.04042810234 0.6722688816 1.039502118e-38
0.05772664898 0.04042810234 0.6722688816 1.085384414e-38
0.05966950898 0.04042810234 0.6722688816 1.085349101e-38
0.06161236898 0.04042810234 0.6722688816 1.085528047e-38
0.06355522898 0.04042810234 0.6722688816 1.113293515e-38
0.06549808898 0.04042810234 0.6722688816 1.150063446e-38
0.06744093398 0.04042810234 0.6722688816 1.159282869e-38
0.06991522898 0.04063382884 0.6752689266 1.168466279e-38
0.07186380398 0.04063382884 0.6752689266 1.168466279e-38
0.07381236398 0.04063382884 0.6752689266 1.177577241e-38
0.07603522898 0.04073667934 0.6767689116 1.168356977e-38
0.07798665398 0.04073667934 0.6767689116 1.159245735e-38
0.07993809398 0.04073667934 0.6767689116 1.140986675e-38
0.08188953398 0.04073667934 0.6767689116 1.122655169e-38
0.08384094398 0.04073667934 0.6767689116 1.113542946e-38
0.08579236898 0.04073667934 0.6767689116 1.113507493e-38
0.08774379398 0.04073667934 0.6767689116 1.122691603e-38
0.08969524898 0.04073667934 0.6767689116 1.13184012e-38
0.09164667398 0.04073667934 0.6767689116 1.15020806e-38
0.09359808398 0.04073667934 0.6767689116 1.1684674e-38
0.09524668898 0.04063382884 0.6752689266 1.186690866e-38
0.09719524898 0.04063382884 0.6752689266 1.205309498e-38
0.09914382398 0.04063382884 0.6752689266 1.233147553e-38
0.101092384 0.04063382884 0.6752689266 1.260375343e-38
0.103040959 0.04063382884 0.6752689266 1.269594766e-38
0.104989519 0.04063382884 0.6752689266 1.287962005e-38
0.106938094 0.04063382884 0.6752689266 1.287962145e-38
0.108886654 0.04063382884 0.6752689266 1.297181008e-38
0.110835244 0.04063382884 0.6752689266 1.278885234e-38
0.112783819 0.04063382884 0.6752689266 1.269773712e-38
0.114732394 0.04063382884 0.6752689266 1.260662189e-38
0.116680954 0.04063382884 0.6752689266 1.260769808e-38
0.118629529 0.04063382884 0.6752689266 1.242510329e-38
0.120578089 0.04063382884 0.6752689266 1.233327059e-38
0.122526679 0.04063382884 0.6752689266 1.23332748e-38
0.124475224 0.04063382884 0.6752689266 1.242475296e-38
0.126423814 0.04063382884 0.6752689266 1.251623253e-38
0.127669519 0.04042810234 0.6722688816 1.260842396e-38
0.129612379 0.04042810234 0.6722688816 1.260914002e-38
0.131555239 0.04042810234 0.6722688816 1.260770509e-38
0.133498099 0.04042810234 0.6722688816 1.269846439e-38
0.135440944 0.04042810234 0.6722688816 1.279065862e-38
0.137018089 0.04032525184 0.6707688966 1.306688397e-38
0.138958084 0.04032525184 0.6707688966 1.334274919e-38
0.140898079 0.04032525184 0.6707688966 1.343530215e-38
0.142838104 0.04032525184 0.6707688966 1.361824447e-38
0.144778099 0.04032525184 0.6707688966 1.407705341e-38
0.146718079 0.04032525184 0.6707688966 1.462844194e-38
0.149040934 0.04042810234 0.6722688816 1.426183563e-38
0.150983794 0.04042810234 0.6722688816 1.398631233e-38
0.152926654 0.04042810234 0.6722688816 1.389446142e-38
0.154869514 0.04042810234 0.6722688816 1.380298465e-38
0.156812374 0.04042810234 0.6722688816 1.398522212e-38
0.158755219 0.04042810234 0.6722688816 1.42628838e-38
0.160698079 0.04042810234 0.6722688816 1.417141124e-38
0.162640924 0.04042810234 0.6722688816 1.408029882e-38
0.164583784 0.04042810234 0.6722688816 1.408102189e-38
0.166526629 0.04042810234 0.6722688816 1.408102189e-38
0.168469489 0.04042810234 0.6722688816 1.371403864e-38
0.170412349 0.04042810234 0.6722688816 1.343816921e-38
0.172355209 0.04042810234 0.6722688816 1.380550839e-38
0.175138084 0.04063382884 0.6752689266 1.417213291e-38
0.177086674 0.04063382884 0.6752689266 1.408029742e-38
0.179035234 0.04063382884 0.6752689266 1.398845351e-38
0.180983809 0.04063382884 0.6752689266 1.389660821e-38
0.182932384 0.04063382884 0.6752689266 1.380513425e-38
0.184880974 0.04063382884 0.6752689266 1.380549578e-38
0.186829534 0.04063382884 0.6752689266 1.380334619e-38
0.188778109 0.04063382884 0.6752689266 1.380334759e-38
0.190726669 0.04063382884 0.6752689266 1.389519009e-38
0.192675244 0.04063382884 0.6752689266 1.362005074e-38
0.194623804 0.04063382884 0.6752689266 1.34360028e-38
0.196572379 0.04063382884 0.6752689266 1.3068644e-38
0.198520939 0.04063382884 0.6752689266 1.279422772e-38
0.200469544 0.04063382884 0.6752689266 1.325342062e-38
0.202418104 0.04063382884 0.6752689266 1.371296804e-38
0.204366679 0.04063382884 0.6752689266 1.362150389e-38
0.206315239 0.04063382884 0.6752689266 1.362149829e-38
0.208263814 0.04063382884 0.6752689266 1.307048111e-38
0.210212374 0.04063382884 0.6752689266 1.261130222e-38
0.212160964 0.04063382884 0.6752689266 1.325450943e-38
0.214109509 0.04063382884 0.6752689266 1.389699637e-38
0.216058099 0.04063382884 0.6752689266 1.389663623e-38
0.218006659 0.04063382884 0.6752689266 1.389627049e-38
0.219955249 0.04063382884 0.6752689266 1.371367009e-38
0.221903809 0.04063382884 0.6752689266 1.362146465e-38
0.222869494 0.04042810234 0.6722688816 1.352926062e-38
0.225800959 0.04063382884 0.6752689266 1.352964457e-38
0.227749534 0.04063382884 0.6752689266 1.371369812e-38
0.230198074 0.04073667934 0.6767689116 1.38973551e-38
0.232652359 0.04083953734 0.6782688966 1.389770122e-38
0.234606649 0.04083953734 0.6782688966 1.398881084e-38
0.236560924 0.04083953734 0.6782688966 1.407956173e-38
0.238515229 0.04083953734 0.6782688966 1.426251526e-38
0.240469504 0.04083953734 0.6782688966 1.417032243e-38
0.242423809 0.04083953734 0.6782688966 1.407956874e-38
0.244378114 0.04083953734 0.6782688966 1.408029321e-38
0.247900969 0.04114811434 0.6827689266 1.408065335e-38
0.249338089 0.04104525184 0.6812689416 1.398917938e-38
0.251826679 0.04114811434 0.6827689266 1.398810179e-38
0.253789534 0.04114811434 0.6827689266 1.398738432e-38
0.255218119 0.04104525184 0.6812689416 1.407958556e-38
0.257178079 0.04104525184 0.6812689416 1.408031003e-38
0.259138099 0.04104525184 0.6812689416 1.408066596e-38
0.261640984 0.04114811434 0.6827689266 1.380587553e-38
0.263603824 0.04114811434 0.6827689266 1.352857258e-38
0.265018084 0.04104525184 0.6812689416 1.398631233e-38
0.267529534 0.04114811434 0.6827689266 1.453875603e-38
0.269492374 0.04114811434 0.6827689266 1.444727506e-38
0.271455259 0.04114811434 0.6827689266 1.444691633e-38
0.273418099 0.04114811434 0.6827689266 1.453875183e-38
0.275380939 0.04114811434 0.6827689266 1.463022999e-38
0.277343779 0.04114811434 0.6827689266 1.444620307e-38
0.280443829 0.04135382284 0.6857688816 1.426217475e-38
0.282983839 0.04145668534 0.6872689566 1.380407486e-38
0.285529519 0.04155953734 0.6887689266 1.343672868e-38
0.287503849 0.04155953734 0.6887689266 1.371223096e-38
0.290638099 0.04176525034 0.6917688966 1.407850095e-38
0.292618114 0.04176525034 0.6917688966 1.416962319e-38
0.294598069 0.04176525034 0.6917688966 1.43536389e-38
0.296578129 0.04176525034 0.6917688966 1.426035586e-38
0.299149504 0.04186810834 0.6932688816 1.416925465e-38
0.301132384 0.04186810834 0.6932688816 1.417034766e-38
0.303115249 0.04186810834 0.6932688816 1.416925324e-38
0.305098114 0.04186810834 0.6932688816 1.398448924e-38
0.307683814 0.04197097084 0.6947689416 1.380045951e-38
0.310880959 0.04217667934 0.6977689116 1.361822345e-38
0.313480909 0.04227953734 0.6992688816 1.343347906e-38
0.315475264 0.04227953734 0.6992688816 1.352495863e-38
0.317469529 0.04227953734 0.6992688816 1.370790235e-38
0.320698114 0.04248525034 0.7022689416 1.325050872e-38
0.322698094 0.04248525034 0.7022689416 1.288102836e-38
0.325320949 0.04258811434 0.7037689116 1.306471336e-38
0.327323839 0.04258811434 0.7037689116 1.324730675e-38
0.330583789 0.04279382284 0.7067688816 1.315403633e-38
0.332592364 0.04279382284 0.7067688816 1.306219523e-38
0.335235229 0.04289668534 0.7082689566 1.296963666e-38
0.337883824 0.04299953734 0.7097689266 1.296891499e-38
0.339898129 0.04299953734 0.7097689266 1.278488106e-38
0.341912419 0.04299953734 0.7097689266 1.260122549e-38
0.345218059 0.04320525034 0.7127688966 1.232752807e-38
0.347238079 0.04320525034 0.7127688966 1.214241234e-38
0.349258099 0.04320525034 0.7127688966 1.195873154e-38
0.351278059 0.04320525034 0.7127688966 1.186580864e-38
0.355269499 0.04351382284 0.7172689266 1.149773938e-38
0.359278114 0.04382239984 0.7217689566 1.122151683e-38
0.361978114 0.04392525634 0.7232689416 1.103713117e-38
0.364018114 0.04392525634 0.7232689416 1.085058892e-38
0.368063779 0.04423382284 0.7277688816 1.066691653e-38
0.370112359 0.04423382284 0.7277688816 1.05747223e-38
0.374183824 0.04454239984 0.7322689116 1.029921721e-38
0.377595274 0.04474811284 0.7352689566 1.002335619e-38
0.380338099 0.04485097084 0.7367689416 9.839330672e-39
0.382403854 0.04485097084 0.7367689416 9.747490972e-39
0.385840924 0.04505667934 0.7397688966 9.652781413e-39
0.389978134 0.04536525634 0.7442689266 9.560585783e-39
0.392058109 0.04536525634 0.7442689266 9.285076492e-39
0.396220939 0.04567382134 0.7487688816 9.100327901e-39
0.400400974 0.04598239834 0.7532689116 8.089418577e-39
0.402498064 0.04598239834 0.7532689116 7.075668822e-39
0.406000984 0.04618811284 0.7562689566 7.347616012e-39
0.408809569 0.04629097084 0.7577689416 7.626356697e-39
0.412332379 0.04649667934 0.7607688966 8.088766974e-39
0.415155229 0.04659953584 0.7622688816 8.567719578e-39
0.418698109 0.04680525634 0.7652689266 1.207760229e-38
0.421535269 0.04690810684 0.7667689116 1.557418528e-38
0.425098129 0.04711382734 0.7697689566 1.631570338e-38
0.427226689 0.04711382734 0.7697689566 1.705003982e-38
0.431532394 0.04742239834 0.7742689116 1.677418581e-38
0.433669534 0.04742239834 0.7742689116 1.65901687e-38
0.437269549 0.04762811284 0.7772689566 1.622283933e-38
0.439412419 0.04762811284 0.7772689566 1.585478128e-38
0.02098094498 0.04141953634 0.6587688666 1.233721805e-38
0.02309810198 0.04152525484 0.6602689416 1.224395884e-38
0.02542380098 0.04173668584 0.6632688966 1.224322316e-38
0.02734951448 0.04173668584 0.6632688966 1.205989268e-38
0.02948380448 0.04184239234 0.6647688816 1.196876904e-38
0.03141236798 0.04184239234 0.6647688816 1.187621188e-38
0.03334094348 0.04184239234 0.6647688816 1.178365752e-38
0.03592094948 0.04215953584 0.6692689116 1.178329738e-38
0.03741810248 0.04194811684 0.6662689566 1.187478676e-38
0.03979522898 0.04215953584 0.6692689116 1.169005358e-38
0.04218379898 0.04237096084 0.6722688816 1.150529098e-38
0.04412665898 0.04237096084 0.6722688816 1.095175146e-38
0.04606951898 0.04237096084 0.6722688816 1.030639186e-38
0.04801236398 0.04237096084 0.6722688816 1.039715116e-38
0.04995522398 0.04237096084 0.6722688816 1.057974735e-38
0.05189806898 0.04237096084 0.6722688816 1.021240817e-38
0.05384092898 0.04237096084 0.6722688816 9.93690869e-39
0.05578378898 0.04237096084 0.6722688816 9.935123435e-39
0.05772664898 0.04237096084 0.6722688816 1.002552961e-38
0.05966950898 0.04237096084 0.6722688816 1.020992507e-38
0.06161236898 0.04237096084 0.6722688816 1.048578749e-38
0.06355522898 0.04237096084 0.6722688816 1.058120751e-38
0.06549808898 0.04237096084 0.6722688816 1.067375626e-38
0.06796666898 0.04258239784 0.6752689266 1.085598812e-38
0.06991522898 0.04258239784 0.6752689266 1.094675022e-38
0.07186380398 0.04258239784 0.6752689266 1.113078275e-38
0.07381236398 0.04258239784 0.6752689266 1.131480127e-38
0.07576093898 0.04258239784 0.6752689266 1.131443272e-38
0.07798665398 0.04268811034 0.6767689116 1.131407259e-38
0.07993809398 0.04268811034 0.6767689116 1.113075893e-38
0.08188953398 0.04268811034 0.6767689116 1.09478068e-38
0.08384094398 0.04268811034 0.6767689116 1.09488844e-38
0.08579236898 0.04268811034 0.6767689116 1.095032213e-38
0.08745238898 0.04258239784 0.6752689266 1.09510438e-38
0.08940094898 0.04258239784 0.6752689266 1.104539323e-38
0.09134952398 0.04258239784 0.6752689266 1.12265573e-38
0.09329808398 0.04258239784 0.6752689266 1.141023249e-38
0.09524668898 0.04258239784 0.6752689266 1.159390769e-38
0.09719524898 0.04258239784 0.6752689266 1.177794162e-38
0.09914382398 0.04258239784 0.6752689266 1.196090075e-38
0.101092384 0.04258239784 0.6752689266 1.223569258e-38
0.103040959 0.04258239784 0.6752689266 1.232645608e-38
0.104989519 0.04258239784 0.6752689266 1.250905088e-38
0.106938094 0.04258239784 0.6752689266 1.250976834e-38
0.108886654 0.04258239784 0.6752689266 1.2510476e-38
0.110835244 0.04258239784 0.6752689266 1.242078449e-38
0.112783819 0.04258239784 0.6752689266 1.232823293e-38
0.114732394 0.04258239784 0.6752689266 1.223747643e-38
0.116680954 0.04258239784 0.6752689266 1.214671573e-38
0.118629529 0.04258239784 0.6752689266 1.205416277e-38
0.120578089 0.04258239784 0.6752689266 1.196197274e-38
0.121840939 0.04237096084 0.6722688816 1.196305455e-38
0.123783799 0.04237096084 0.6722688816 1.205596764e-38
0.125726659 0.04237096084 0.6722688816 1.214708707e-38
0.127669519 0.04237096084 0.6722688816 1.233039793e-38
0.129612379 0.04237096084 0.6722688816 1.23300392e-38
0.131555239 0.04237096084 0.6722688816 1.232967767e-38
0.133138069 0.04226525434 0.6707688966 1.242115163e-38
0.135078094 0.04226525434 0.6707688966 1.260446949e-38
0.137018089 0.04226525434 0.6707688966 1.269702806e-38
0.138958084 0.04226525434 0.6707688966 1.288177104e-38
0.140898079 0.04226525434 0.6707688966 1.306723149e-38
0.142838104 0.04226525434 0.6707688966 1.325269475e-38
0.144778099 0.04226525434 0.6707688966 1.361716547e-38
0.146338099 0.04215953584 0.6692689116 1.40734829e-38
0.148658074 0.04226525434 0.6707688966 1.388982312e-38
0.150598099 0.04226525434 0.6707688966 1.379798762e-38
0.152538094 0.04226525434 0.6707688966 1.380014142e-38
0.154478089 0.04226525434 0.6707688966 1.3803356e-38
0.156418084 0.04226525434 0.6707688966 1.41710427e-38
0.158358109 0.04226525434 0.6707688966 1.463093905e-38
0.160298104 0.04226525434 0.6707688966 1.42639572e-38
0.162238099 0.04226525434 0.6707688966 1.399025138e-38
0.164178064 0.04226525434 0.6707688966 1.399025979e-38
0.166118089 0.04226525434 0.6707688966 1.408210369e-38
0.168058084 0.04226525434 0.6707688966 1.408247223e-38
0.170412349 0.04237096084 0.6722688816 1.417501118e-38
0.172355209 0.04237096084 0.6722688816 1.417356224e-38
0.175138084 0.04258239784 0.6752689266 1.426396701e-38
0.177086674 0.04258239784 0.6752689266 1.408030022e-38
0.179035234 0.04258239784 0.6752689266 1.389662362e-38
