# .PCD v0.7 - Point Cloud Data file format
VERSION 0.7
FIELDS x y z rgb
SIZE 4 4 4 4
TYPE F F F F
COUNT 1 1 1 1
WIDTH 861
HEIGHT 1
VIEWPOINT 0 0 0 1 0 0 0
POINTS 861
DATA ascii
-0.4409746151 -0.1760712822 0.768475265 1.270822724e-38
-0.4387146251 -0.1760712822 0.768475265 1.325959894e-38
-0.4364546501 -0.1760712822 0.768475265 1.380917419e-38
-0.4341946151 -0.1760712822 0.768475265 1.298049953e-38
-0.4319346401 -0.1760712822 0.768475265 1.22440219e-38
-0.4296746501 -0.1760712822 0.768475265 1.21511088e-38
-0.4290661001 -0.1765969722 0.77147531 1.205998516e-38
-0.4268003951 -0.1765969722 0.77147531 1.187702463e-38
-0.4245346901 -0.1765969722 0.77147531 1.169155717e-38
-0.4279889201 -0.1784369772 0.781975265 1.150537085e-38
-0.4273317851 -0.1789627122 0.784975325 1.141314579e-38
-0.4250403701 -0.1789627122 0.784975325 1.067807086e-38
-0.4243661051 -0.1794884172 0.78797528 1.003382389e-38
-0.4204575551 -0.1789627122 0.784975325 1.040084498e-38
-0.4197718001 -0.1794884172 0.78797528 1.077249315e-38
-0.4174746701 -0.1794884172 0.78797528 1.086540625e-38
-0.4151775251 -0.1794884172 0.78797528 1.104765072e-38
-0.4128803501 -0.1794884172 0.78797528 1.09543901e-38
-0.4105832201 -0.1794884172 0.78797528 1.086108324e-38
-0.4082860901 -0.1794884172 0.78797528 1.067629962e-38
-0.4044175301 -0.1789627122 0.784975325 1.058017895e-38
-0.4036917701 -0.1794884172 0.78797528 9.933402641e-39
-0.4013946401 -0.1794884172 0.78797528 9.294839339e-39
-0.4006518101 -0.1800141522 0.790975325 8.453232093e-39
-0.3983489501 -0.1800141522 0.790975325 7.718196397e-39
-0.3960460901 -0.1800141522 0.790975325 6.983160702e-39
-0.3952803701 -0.1805398722 0.793975295 6.249171777e-39
-0.3945032501 -0.1810655622 0.79697534 5.607018348e-39
-0.3937146701 -0.1815912672 0.79997531 5.05745011e-39
-0.3936746651 -0.1823798472 0.80447534 4.691911596e-39
-0.3913461101 -0.1823798472 0.80447534 4.323487809e-39
-0.3905260601 -0.1829055522 0.807475295 4.690106724e-39
-0.3896946701 -0.1834312872 0.810475355 5.148575148e-39
-0.3888517901 -0.1839570072 0.81347531 5.056030594e-39
-0.3879974951 -0.1844827122 0.816475265 5.05709418e-39
-0.3871318151 -0.1850084022 0.819475325 5.058516498e-39
-0.3877346951 -0.1860598572 0.82547534 5.058900454e-39
-0.3868403951 -0.1865855622 0.828475295 4.967806244e-39
-0.3844660601 -0.1865855622 0.828475295 4.967094385e-39
-0.3850175201 -0.1876369872 0.83447531 4.412858421e-39
-0.3826317851 -0.1876369872 0.83447531 3.96159127e-39
-0.4494575051 -0.1743312672 0.77147531 1.206644935e-38
-0.4454946251 -0.1738112772 0.768475265 1.224976161e-38
-0.4415432501 -0.1732912872 0.765475295 1.243235781e-38
-0.4392889301 -0.1732912872 0.765475295 1.252419751e-38
-0.4370346251 -0.1732912872 0.765475295 1.289118497e-38
-0.4347804101 -0.1732912872 0.765475295 1.325851994e-38
-0.4325261051 -0.1732912872 0.765475295 1.27975418e-38
-0.4302718001 -0.1732912872 0.765475295 1.233585319e-38
-0.4280175401 -0.1732912872 0.765475295 1.242876628e-38
-0.4274146151 -0.1738112772 0.768475265 1.25220269e-38
-0.4268003951 -0.1743312672 0.77147531 1.224399947e-38
-0.4261746851 -0.1748512872 0.77447528 1.187557709e-38
-0.4255375151 -0.1753712922 0.777475325 1.169118583e-38
-0.4273317851 -0.1766712822 0.784975325 1.159898319e-38
-0.4250403701 -0.1766712822 0.784975325 1.104509335e-38
-0.4227489551 -0.1766712822 0.784975325 1.058521802e-38
-0.4204575551 -0.1766712822 0.784975325 1.095293836e-38
-0.4181660951 -0.1766712822 0.784975325 1.141355497e-38
-0.4174746701 -0.1771912722 0.78797528 1.141284171e-38
-0.4151775251 -0.1771912722 0.78797528 1.150431427e-38
-0.4128803501 -0.1771912722 0.78797528 1.122952245e-38
-0.4105832201 -0.1771912722 0.78797528 1.104292134e-38
-0.4082860901 -0.1771912722 0.78797528 1.095353671e-38
-0.4059889601 -0.1771912722 0.78797528 1.094318252e-38
-0.4036917701 -0.1771912722 0.78797528 1.103650199e-38
-0.4013946401 -0.1771912722 0.78797528 1.112974439e-38
-0.3990975101 -0.1771912722 0.78797528 1.076237438e-38
-0.3983489501 -0.1777113072 0.790975325 1.039541074e-38
-0.3960460901 -0.1777113072 0.790975325 9.290535951e-39
-0.3968175401 -0.1787512872 0.79697534 8.277821755e-39
-0.3945032501 -0.1787512872 0.79697534 7.635679536e-39
-0.3937146701 -0.1792712922 0.79997531 7.08573575e-39
-0.3936746651 -0.1800513072 0.80447534 6.530410977e-39
-0.3913461101 -0.1800513072 0.80447534 6.066911892e-39
-0.3905260601 -0.1805712672 0.807475295 5.883225486e-39
-0.3881917751 -0.1805712672 0.807475295 5.788183819e-39
-0.3888517901 -0.1816112772 0.81347531 5.424451579e-39
-0.3879974951 -0.1821312672 0.816475265 5.148917064e-39
-0.3871318151 -0.1826512872 0.819475325 5.057053542e-39
-0.3892146401 -0.1842112722 0.828475295 4.965244671e-39
-0.3868403951 -0.1842112722 0.828475295 4.599006909e-39
-0.3874032551 -0.1852512822 0.83447531 4.233468396e-39
-0.3864803501 -0.1857712722 0.837475265 4.417150598e-39
-0.3855460901 -0.1862912922 0.840475325 4.600814584e-39
-0.3831489551 -0.1862912922 0.840475325 6.259228896e-39
-0.4517232101 -0.1720655622 0.77147531 1.224976021e-38
-0.4477546601 -0.1715512722 0.768475265 1.224977983e-38
-0.4454946251 -0.1715512722 0.768475265 1.234088945e-38
-0.4415432501 -0.1710369822 0.765475295 1.234016358e-38
-0.4392889301 -0.1710369822 0.765475295 1.243198787e-38
-0.4370346251 -0.1710369822 0.765475295 1.261600638e-38
-0.4347804101 -0.1710369822 0.765475295 1.279896551e-38
-0.4341946151 -0.1715512722 0.768475265 1.26149414e-38
-0.4302718001 -0.1710369822 0.765475295 1.252274717e-38
-0.4280175401 -0.1710369822 0.765475295 1.279789352e-38
-0.4274146151 -0.1715512722 0.768475265 1.307160074e-38
-0.4251546401 -0.1715512722 0.768475265 1.261134146e-38
-0.4228946501 -0.1715512722 0.768475265 1.215144651e-38
-0.4222689851 -0.1720655622 0.77147531 1.196705946e-38
-0.4232604101 -0.1730941422 0.777475325 1.178087734e-38
-0.4217946251 -0.1733512572 0.77897531 1.150393732e-38
-0.4211318051 -0.1738655472 0.781975265 1.122808892e-38
-0.4188460751 -0.1738655472 0.781975265 1.159652251e-38
-0.4165603451 -0.1738655472 0.781975265 1.205856285e-38
-0.4158746801 -0.1743798672 0.784975325 1.197209993e-38
-0.4151775251 -0.1748941272 0.78797528 1.19674322e-38
-0.4128803501 -0.1748941272 0.78797528 1.159649869e-38
-0.4105832201 -0.1748941272 0.78797528 1.122983213e-38
-0.4082860901 -0.1748941272 0.78797528 1.123086629e-38
-0.4059889601 -0.1748941272 0.78797528 1.132631574e-38
-0.4036917701 -0.1748941272 0.78797528 1.215645055e-38
-0.4013946401 -0.1748941272 0.78797528 1.307373492e-38
-0.3990975101 -0.1748941272 0.78797528 1.307302446e-38
-0.3968003801 -0.1748941272 0.78797528 1.316304107e-38
-0.3960460901 -0.1754084472 0.790975325 1.169185425e-38
-0.3952803701 -0.1759226922 0.793975295 1.031324281e-38
-0.3945032501 -0.1764370122 0.79697534 9.761149429e-39
-0.3937146701 -0.1769512722 0.79997531 9.206553331e-39
-0.3929146601 -0.1774655622 0.802975265 8.468644974e-39
-0.3905889101 -0.1774655622 0.802975265 7.818600834e-39
-0.3890175401 -0.1777227222 0.80447534 7.076722598e-39
-0.3881917751 -0.1782369972 0.807475295 6.434967138e-39
-0.3873546701 -0.1787512872 0.810475355 5.793211677e-39
-0.3865060601 -0.1792655772 0.81347531 5.242544821e-39
-0.3856460951 -0.1797798372 0.816475265 5.054199097e-39
-0.3892146401 -0.1818369822 0.828475295 4.874132245e-39
-0.3883146701 -0.1823513022 0.83147534 4.230583122e-39
-0.3874032551 -0.1828655622 0.83447531 3.589881438e-39
-0.3879432251 -0.1838941272 0.840475325 4.420341355e-39
-0.3855460901 -0.1838941272 0.840475325 5.335111795e-39
-0.3831489551 -0.1838941272 0.840475325 4.781947825e-39
-0.4557032051 -0.1703084322 0.77447528 1.225154827e-38
-0.4534317851 -0.1703084322 0.77447528 1.22494183e-38
-0.4477546601 -0.1692912672 0.768475265 1.215652902e-38
-0.4454946251 -0.1692912672 0.768475265 1.206359911e-38
-0.4415432501 -0.1687826922 0.765475295 1.215541779e-38
-0.4392889301 -0.1687826922 0.765475295 1.215538977e-38
-0.4370346251 -0.1687826922 0.765475295 1.233939287e-38
-0.4347804101 -0.1687826922 0.765475295 1.252344081e-38
-0.4325261051 -0.1687826922 0.765475295 1.25231017e-38
-0.4294403951 -0.1685284272 0.763975325 1.252166396e-38
-0.4271889551 -0.1685284272 0.763975325 1.261242186e-38
-0.4249375151 -0.1685284272 0.763975325 1.270317836e-38
-0.4235089601 -0.1687826922 0.765475295 1.251950596e-38
-0.4212546551 -0.1687826922 0.765475295 1.233655664e-38
-0.4206346151 -0.1692912672 0.768475265 1.224365055e-38
-0.4167460901 -0.1687826922 0.765475295 1.223863811e-38
-0.4193603501 -0.1703084322 0.77447528 1.223828918e-38
-0.4195146701 -0.1710712722 0.77897531 1.233013729e-38
-0.4164289601 -0.1708169922 0.777475325 1.233301976e-38
-0.4149546401 -0.1710712722 0.77897531 1.242806423e-38
-0.4126746701 -0.1710712722 0.77897531 1.242947954e-38
-0.4103946551 -0.1710712722 0.77897531 1.243055014e-38
-0.4081146551 -0.1710712722 0.77897531 1.159828675e-38
-0.4074175001 -0.1715798622 0.781975265 1.067990656e-38
-0.4051317701 -0.1715798622 0.781975265 1.09550305e-38
-0.4028460701 -0.1715798622 0.781975265 1.123520611e-38
-0.4021261301 -0.1720884372 0.784975325 1.197276555e-38
-0.3982746551 -0.1715798622 0.781975265 1.261565466e-38
-0.3975432551 -0.1720884372 0.784975325 1.270717346e-38
-0.3952518101 -0.1720884372 0.784975325 1.270710199e-38
-0.3945032051 -0.1725969822 0.78797528 1.160034245e-38
-0.3937432451 -0.1731055722 0.790975325 1.040469154e-38
-0.3929717951 -0.1736141322 0.793975295 9.668936983e-39
-0.3937146701 -0.1746312822 0.79997531 9.022156466e-39
-0.3929146601 -0.1751398422 0.802975265 8.376094816e-39
-0.3905889101 -0.1751398422 0.802975265 7.825415348e-39
-0.3890175401 -0.1753941372 0.80447534 7.639926872e-39
-0.3866889851 -0.1753941372 0.80447534 7.454473428e-39
-0.3858575051 -0.1759027122 0.807475295 6.808407573e-39
-0.3850147001 -0.1764112722 0.810475355 6.162693445e-39
-0.3841603751 -0.1769198472 0.81347531 5.794279467e-39
-0.3847747001 -0.1779369822 0.819475325 5.426227024e-39
-0.3897889451 -0.1804798572 0.83447531 4.781591895e-39
-0.3874032551 -0.1804798572 0.83447531 4.231991427e-39
-0.3879432251 -0.1814969922 0.840475325 4.599671125e-39
-0.3855460901 -0.1814969922 0.840475325 5.059217147e-39
-0.3831489551 -0.1814969922 0.840475325 4.505345521e-39
-0.3807518201 -0.1814969922 0.840475325 3.950805476e-39
-0.4645603451 -0.1692941322 0.781975265 1.225372729e-38
-0.4605546551 -0.1687912872 0.77897531 1.25274275e-38
-0.4557032051 -0.1680369822 0.77447528 1.234302643e-38
-0.4517232101 -0.1675341222 0.77147531 1.224905676e-38
-0.4477546601 -0.1670312772 0.768475265 1.206396906e-38
-0.4454946251 -0.1670312772 0.768475265 1.187992812e-38
-0.4432346501 -0.1670312772 0.768475265 1.187991831e-38
-0.4392889301 -0.1665284322 0.765475295 1.197137686e-38
-0.4370346251 -0.1665284322 0.765475295 1.206319554e-38
-0.4347804101 -0.1665284322 0.765475295 1.224723367e-38
-0.4325261051 -0.1665284322 0.765475295 1.234123137e-38
-0.4294403951 -0.1662770022 0.763975325 1.252131504e-38
-0.4271889551 -0.1662770022 0.763975325 1.242804602e-38
-0.4232860751 -0.1657741272 0.760975265 1.242768448e-38
-0.4210403951 -0.1657741272 0.760975265 1.242768168e-38
-0.4187946251 -0.1657741272 0.760975265 1.252023043e-38
-0.4181832101 -0.1662770022 0.763975325 1.261206313e-38
-0.4143032201 -0.1657741272 0.760975265 1.279682013e-38
-0.4161146051 -0.1670312772 0.768475265 1.307377276e-38
-0.4170889151 -0.1680369822 0.77447528 1.344111894e-38
-0.4132060601 -0.1675341222 0.77147531 1.316561806e-38
-0.4109403551 -0.1675341222 0.77147531 1.288903678e-38
-0.4102746251 -0.1680369822 0.77447528 1.288796198e-38
-0.4080032501 -0.1680369822 0.77447528 1.297868344e-38
-0.4025546051 -0.1670312772 0.768475265 1.16003971e-38
-0.4002946751 -0.1670312772 0.768475265 1.02199934e-38
-0.4027661051 -0.1685398422 0.777475325 1.067952821e-38
-0.4004889551 -0.1685398422 0.777475325 1.123449986e-38
-0.3989946401 -0.1687912872 0.77897531 1.169763741e-38
-0.3982746551 -0.1692941322 0.781975265 1.224902874e-38
-0.3975432551 -0.1697969922 0.784975325 1.224940849e-38
-0.3952518101 -0.1697969922 0.784975325 1.233832648e-38
-0.3929603951 -0.1697969922 0.784975325 1.141705401e-38
-0.3922060601 -0.1702998372 0.78797528 1.058909401e-38
-0.3914403851 -0.1708027122 0.790975325 9.668582455e-39
-0.3921889901 -0.1718084322 0.79697534 8.837772213e-39
-0.3929146601 -0.1728141522 0.802975265 8.283544658e-39
-0.3905889101 -0.1728141522 0.802975265 7.825067826e-39
-0.3890175401 -0.1730655522 0.80447534 8.101633696e-39
-0.3881917751 -0.1735684272 0.807475295 8.46396744e-39
-0.3858575051 -0.1735684272 0.807475295 7.732884808e-39
-0.3835232651 -0.1735684272 0.807475295 7.087881138e-39
-0.3826747001 -0.1740713022 0.810475355 6.535071696e-39
-0.3832946051 -0.1750769922 0.816475265 5.980479803e-39
-0.3897889451 -0.1780941372 0.83447531 5.42445298e-39
-0.3874032551 -0.1780941372 0.83447531 4.873067258e-39
-0.3879432251 -0.1790998422 0.840475325 4.872695914e-39
-0.3870032051 -0.1796027022 0.84347528 4.872345589e-39
-0.3846003551 -0.1796027022 0.84347528 4.229148193e-39
-0.3821975351 -0.1796027022 0.84347528 3.585257153e-39
-0.4673946401 -0.1665112722 0.77897531 1.151655601e-38
-0.4651146251 -0.1665112722 0.77897531 1.225122877e-38
-0.4645603451 -0.1670084172 0.781975265 1.261855955e-38
-0.4605546551 -0.1665112722 0.77897531 1.307772442e-38
-0.4557032051 -0.1657655622 0.77447528 1.25252653e-38
-0.4517232101 -0.1652684172 0.77147531 1.206502564e-38
-0.4494575051 -0.1652684172 0.77147531 1.178738077e-38
-0.4454946251 -0.1647712722 0.768475265 1.141788218e-38
-0.4432346501 -0.1647712722 0.768475265 1.150971347e-38
-0.4392889301 -0.1642741422 0.765475295 1.160154196e-38
-0.4370346251 -0.1642741422 0.765475295 1.178628215e-38
-0.4347804101 -0.1642741422 0.765475295 1.197102794e-38
-0.4325261051 -0.1642741422 0.765475295 1.215433879e-38
-0.4294403951 -0.1640255772 0.763975325 1.224581836e-38
-0.4255318001 -0.1635284322 0.760975265 1.233765806e-38
-0.4232860751 -0.1635284322 0.760975265 1.252132625e-38
-0.4210403951 -0.1635284322 0.760975265 1.261280021e-38
-0.4187946251 -0.1635284322 0.760975265 1.270426436e-38
-0.4165489451 -0.1635284322 0.760975265 1.307482233e-38
-0.4126746701 -0.1630312872 0.75797531 1.335679721e-38
-0.4120574951 -0.1635284322 0.760975265 1.344864392e-38
-0.4138546151 -0.1647712722 0.768475265 1.354083534e-38
-0.4099832501 -0.1642741422 0.765475295 1.316595858e-38
-0.4077289451 -0.1642741422 0.765475295 1.280509479e-38
-0.4070746301 -0.1647712722 0.768475265 1.242773072e-38
-0.4048146401 -0.1647712722 0.768475265 1.205816768e-38
-0.4025546051 -0.1647712722 0.768475265 1.058765488e-38
-0.4002946751 -0.1647712722 0.768475265 9.025396269e-39
-0.3996118301 -0.1652684172 0.77147531 9.021829964e-39
-0.3989174951 -0.1657655622 0.77447528 8.926786896e-39
-0.3989946401 -0.1665112722 0.77897531 9.389213988e-39
-0.3982746551 -0.1670084172 0.781975265 9.759784564e-39
-0.3959889251 -0.1670084172 0.781975265 1.077105122e-38
-0.3937032251 -0.1670084172 0.781975265 1.178229265e-38
-0.3929603951 -0.1675055622 0.784975325 1.114013642e-38
-0.3906689351 -0.1675055622 0.784975325 1.058982689e-38
-0.3883775201 -0.1675055622 0.784975325 9.116140153e-39
-0.3891375251 -0.1684998372 0.790975325 7.735032998e-39
-0.3913946501 -0.1699912722 0.79997531 7.547787294e-39
-0.3905889101 -0.1704884322 0.802975265 7.271553531e-39
-0.3882631751 -0.1704884322 0.802975265 7.362304422e-39
-0.3866889851 -0.1707369972 0.80447534 7.545274766e-39
-0.3843603851 -0.1707369972 0.80447534 7.086474234e-39
-0.3835232651 -0.1712341272 0.807475295 6.719839905e-39
-0.3811889351 -0.1712341272 0.807475295 6.44468234e-39
-0.3803347001 -0.1717312872 0.810475355 6.077707496e-39
-0.3897889451 -0.1757084322 0.83447531 5.704994334e-39
-0.3874032551 -0.1757084322 0.83447531 5.33549435e-39
-0.3879432251 -0.1767027072 0.840475325 5.244372114e-39
-0.3855460901 -0.1767027072 0.840475325 5.245097987e-39
-0.3831489551 -0.1767027072 0.840475325 4.874894551e-39
-0.3821975351 -0.1771998522 0.84347528 4.597601407e-39
-0.3797946401 -0.1771998522 0.84347528 6.623012984e-39
-0.4714175051 -0.1647227022 0.781975265 1.160730691e-38
-0.4691317751 -0.1647227022 0.781975265 1.206577393e-38
-0.4668460901 -0.1647227022 0.781975265 1.25249388e-38
-0.4645603451 -0.1647227022 0.781975265 1.30762979e-38
-0.4605546551 -0.1642312722 0.77897531 1.36265836e-38
-0.4557032051 -0.1634941422 0.77447528 1.279969699e-38
-0.4534317851 -0.1634941422 0.77447528 1.197354467e-38
-0.4494575051 -0.1630027122 0.77147531 1.150504995e-38
-0.4454946251 -0.1625112672 0.768475265 1.104658994e-38
-0.4415432501 -0.1620198372 0.765475295 1.113950303e-38
-0.4392889301 -0.1620198372 0.765475295 1.123276645e-38
-0.4361946551 -0.1617741522 0.763975325 1.15100596e-38
-0.4339432451 -0.1617741522 0.763975325 1.178556188e-38
-0.4316918051 -0.1617741522 0.763975325 1.187775331e-38
-0.4277774801 -0.1612827072 0.760975265 1.206252292e-38
-0.4255318001 -0.1612827072 0.760975265 1.233912942e-38
-0.4216346351 -0.1607912772 0.75797531 1.261282964e-38
-0.4193946401 -0.1607912772 0.75797531 1.279648942e-38
-0.4171546751 -0.1607912772 0.75797531 1.297942753e-38
-0.4149146801 -0.1607912772 0.75797531 1.344612438e-38
-0.4126746701 -0.1607912772 0.75797531 1.399751431e-38
-0.4104346751 -0.1607912772 0.75797531 1.38145804e-38
-0.4098117701 -0.1612827072 0.760975265 1.363197579e-38
-0.4075660901 -0.1612827072 0.760975265 1.316633272e-38
-0.4053203201 -0.1612827072 0.760975265 1.270464692e-38
-0.4046746751 -0.1617741522 0.763975325 1.196781336e-38
-0.4024232651 -0.1617741522 0.763975325 1.122447637e-38
-0.4009660751 -0.1620198372 0.765475295 9.557044702e-39
-0.4002946751 -0.1625112672 0.768475265 7.905447707e-39
-0.3980346401 -0.1625112672 0.768475265 7.26404117e-39
-0.3973461101 -0.1630027122 0.77147531 6.710518468e-39
-0.3982118501 -0.1639855722 0.777475325 6.983516632e-39
-0.3982746551 -0.1647227022 0.781975265 7.358399004e-39
-0.3959889251 -0.1647227022 0.781975265 9.294843542e-39
-0.3937032251 -0.1647227022 0.781975265 1.132166342e-38
-0.3914174951 -0.1647227022 0.781975265 1.095430462e-38
-0.3906689351 -0.1652141322 0.784975325 1.05855165e-38
-0.3883775201 -0.1652141322 0.784975325 8.655885074e-39
-0.3891375251 -0.1661969772 0.790975325 6.723047477e-39
-0.3883546301 -0.1666884072 0.793975295 6.718039237e-39
-0.3875603951 -0.1671798522 0.79697534 6.812370445e-39
-0.3867546551 -0.1676712822 0.79997531 6.717292345e-39
-0.3859374701 -0.1681626822 0.802975265 6.626912798e-39
-0.3843603851 -0.1684084122 0.80447534 6.536175919e-39
-0.3820318151 -0.1684084122 0.80447534 6.444692149e-39
-0.3811889351 -0.1688998422 0.807475295 6.35320978e-39
-0.3788546501 -0.1688998422 0.807475295 6.25994496e-39
-0.3809432051 -0.1703741172 0.816475265 5.983010548e-39
-0.3874032551 -0.1733227122 0.83447531 5.798975218e-39
-0.3879432251 -0.1743055722 0.840475325 5.706775384e-39
-0.3855460901 -0.1743055722 0.840475325 5.704988729e-39
-0.3831489551 -0.1743055722 0.840475325 5.611366577e-39
-0.3821975351 -0.1747969872 0.84347528 5.60957852e-39
-0.3797946401 -0.1747969872 0.84347528 6.43431133e-39
-0.4714175051 -0.1624369872 0.781975265 1.169770187e-38
-0.4708689551 -0.1629227172 0.784975325 1.20654152e-38
-0.4685775401 -0.1629227172 0.784975325 1.252314233e-38
-0.4645603451 -0.1624369872 0.781975265 1.279863481e-38
-0.4622746601 -0.1624369872 0.781975265 1.316596979e-38
-0.4574175401 -0.1617084222 0.777475325 1.252347444e-38
-0.4534317851 -0.1612227072 0.77447528 1.18820651e-38
-0.4511603501 -0.1612227072 0.77447528 1.141571718e-38
-0.4471918001 -0.1607370072 0.77147531 1.095475164e-38
-0.4432346501 -0.1602512772 0.768475265 1.012752031e-38
-0.4392889301 -0.1597655622 0.765475295 9.387807084e-39
-0.4361946551 -0.1595227122 0.763975325 1.022077673e-38
-0.4339432451 -0.1595227122 0.763975325 1.10541065e-38
-0.4316918051 -0.1595227122 0.763975325 1.141893175e-38
-0.4294403951 -0.1595227122 0.763975325 1.178380465e-38
-0.4238746901 -0.1585512972 0.75797531 1.205971331e-38
-0.4216346351 -0.1585512972 0.75797531 1.242775174e-38
-0.4177489601 -0.1580655672 0.75497534 1.261140312e-38
-0.4155146801 -0.1580655672 0.75497534 1.288725012e-38
-0.4132804001 -0.1580655672 0.75497534 1.307736148e-38
-0.4110461201 -0.1580655672 0.75497534 1.335361206e-38
-0.4088117951 -0.1580655672 0.75497534 1.307920979e-38
-0.4065775151 -0.1580655672 0.75497534 1.280476269e-38
-0.4059546701 -0.1585512972 0.75797531 1.197248669e-38
-0.4037146601 -0.1585512972 0.75797531 1.114021209e-38
-0.4014746651 -0.1585512972 0.75797531 1.01253427e-38
-0.3992346551 -0.1585512972 0.75797531 9.105448246e-39
-0.3969946601 -0.1585512972 0.75797531 8.093804642e-39
-0.3987118151 -0.1597655622 0.765475295 7.174006343e-39
-0.3980346401 -0.1602512772 0.768475265 6.43536931e-39
-0.3973461101 -0.1607370072 0.77147531 5.791069092e-39
-0.3982118501 -0.1617084222 0.777475325 5.69742452e-39
-0.3967146401 -0.1619512722 0.77897531 5.604166706e-39
-0.3959889251 -0.1624369872 0.781975265 7.085745559e-39
-0.3937032251 -0.1624369872 0.781975265 8.657342424e-39
-0.3914174951 -0.1624369872 0.781975265 8.657691348e-39
-0.3906689351 -0.1629227172 0.784975325 8.750237302e-39
-0.3883775201 -0.1629227172 0.784975325 7.643182088e-39
-0.3876117551 -0.1634084172 0.78797528 6.629418319e-39
-0.3868346801 -0.1638941322 0.790975325 6.445402607e-39
-0.3860461001 -0.1643798472 0.793975295 6.261351863e-39
-0.3852460901 -0.1648655772 0.79697534 6.166985622e-39
-0.3844346801 -0.1653512772 0.79997531 6.16772831e-39
-0.3836117801 -0.1658369772 0.802975265 6.166678738e-39
-0.3820318151 -0.1660798422 0.80447534 6.16595847e-39
-0.3811889351 -0.1665655572 0.807475295 5.981568612e-39
-0.3818146451 -0.1675369872 0.81347531 5.797182957e-39
-0.3794689301 -0.1675369872 0.81347531 5.706785193e-39
-0.3874032551 -0.1709370072 0.83447531 5.616737754e-39
-0.3864803501 -0.1714227072 0.837475265 5.708567645e-39
-0.3855460901 -0.1719084072 0.840475325 5.800767479e-39
-0.3831489551 -0.1719084072 0.840475325 5.982650414e-39
-0.3807518201 -0.1719084072 0.840475325 6.164890681e-39
-0.3783546401 -0.1719084072 0.840475325 6.628018422e-39
-0.4726060451 -0.1611112872 0.78797528 1.215690597e-38
-0.4685775401 -0.1606312872 0.784975325 1.261606664e-38
-0.4645603451 -0.1601512872 0.781975265 1.261605122e-38
-0.4622746601 -0.1601512872 0.781975265 1.270715664e-38
-0.4582746401 -0.1596712722 0.77897531 1.224760782e-38
-0.4551403901 -0.1594312872 0.777475325 1.18788267e-38
-0.4511603501 -0.1589512572 0.77447528 1.141821009e-38
-0.4471918001 -0.1584712872 0.77147531 1.095651868e-38
-0.4432346501 -0.1579912722 0.768475265 9.207693988e-39
-0.4409746151 -0.1579912722 0.768475265 7.554280911e-39
-0.4370346251 -0.1575112722 0.765475295 8.931797939e-39
-0.4347804101 -0.1575112722 0.765475295 1.040154703e-38
-0.4316918051 -0.1572712872 0.763975325 1.095330129e-38
-0.4277774801 -0.1567912722 0.760975265 1.159831197e-38
-0.4238746901 -0.1563112722 0.75797531 1.187598066e-38
-0.4216346351 -0.1563112722 0.75797531 1.224296812e-38
-0.4177489601 -0.1558312722 0.75497534 1.251847881e-38
-0.4155146801 -0.1558312722 0.75497534 1.279505029e-38
-0.4132804001 -0.1558312722 0.75497534 1.280042006e-38
-0.4110461201 -0.1558312722 0.75497534 1.27986236e-38
-0.4088117951 -0.1558312722 0.75497534 1.233764825e-38
-0.4065775151 -0.1558312722 0.75497534 1.196454973e-38
-0.4043432351 -0.1558312722 0.75497534 1.076529048e-38
-0.4021089551 -0.1558312722 0.75497534 9.661815584e-39
-0.3998746751 -0.1558312722 0.75497534 8.374668294e-39
-0.3992346551 -0.1563112722 0.75797531 7.084302221e-39
-0.3985832351 -0.1567912722 0.760975265 6.719105625e-39
-0.3963374651 -0.1567912722 0.760975265 6.436788826e-39
-0.3956689301 -0.1572712872 0.763975325 5.698880469e-39
-0.3973461101 -0.1584712872 0.77147531 4.963469226e-39
-0.3950803601 -0.1584712872 0.77147531 4.417470095e-39
-0.3967146401 -0.1596712722 0.77897531 3.866469729e-39
-0.3944346701 -0.1596712722 0.77897531 4.8766742e-39
-0.3921546551 -0.1596712722 0.77897531 5.984076936e-39
-0.3914174951 -0.1601512872 0.781975265 6.448989931e-39
-0.3891317651 -0.1601512872 0.781975265 6.907081406e-39
-0.3868460801 -0.1601512872 0.781975265 6.722324407e-39
-0.3860861201 -0.1606312872 0.784975325 6.537222689e-39
-0.3837946601 -0.1606312872 0.784975325 6.078050814e-39
-0.3845318201 -0.1615912722 0.790975325 5.709618619e-39
-0.3852460901 -0.1625513022 0.79697534 5.70852981e-39
-0.3829318301 -0.1625513022 0.79697534 5.707128511e-39
-0.3836117801 -0.1635112572 0.802975265 5.797921442e-39
-0.3812860751 -0.1635112572 0.802975265 5.98122109e-39
-0.3797032151 -0.1637513022 0.80447534 5.705343257e-39
-0.3788546501 -0.1642312722 0.807475295 5.428760572e-39
-0.3809432051 -0.1656712872 0.816475265 5.428044508e-39
-0.3785918051 -0.1656712872 0.816475265 5.522379921e-39
-0.3850175201 -0.1685512722 0.83447531 5.708910963e-39
-0.3840889001 -0.1690312722 0.837475265 5.893300822e-39
-0.3831489551 -0.1695113022 0.840475325 6.353197168e-39
-0.3807518201 -0.1695113022 0.840475325 6.811658586e-39
-0.3783546401 -0.1695113022 0.840475325 6.810942522e-39
-0.4726060451 -0.1588141272 0.78797528 1.206400829e-38
-0.4685775401 -0.1583398572 0.784975325 1.243097333e-38
-0.4662860801 -0.1583398572 0.784975325 1.243023905e-38
-0.4622746601 -0.1578655722 0.781975265 1.252133886e-38
-0.4582746401 -0.1573912722 0.77897531 1.206214316e-38
-0.4559946251 -0.1573912722 0.77897531 1.160295307e-38
-0.4537146551 -0.1573912722 0.77897531 1.105121002e-38
-0.4505860901 -0.1571541372 0.777475325 1.049946696e-38
-0.4449260951 -0.1562055522 0.77147531 9.20981135e-39
-0.4426603901 -0.1562055522 0.77147531 7.920503258e-39
-0.4370346251 -0.1552569822 0.765475295 8.287821421e-39
-0.4347804101 -0.1552569822 0.765475295 8.652702725e-39
-0.4325261051 -0.1552569822 0.765475295 9.111573321e-39
-0.4294403951 -0.1550198622 0.763975325 9.57072698e-39
-0.4238746901 -0.1540712772 0.75797531 1.012602233e-38
-0.4216346351 -0.1540712772 0.75797531 1.068136952e-38
-0.4177489601 -0.1535970072 0.75497534 1.09576229e-38
-0.4155146801 -0.1535970072 0.75497534 1.132567674e-38
-0.4132804001 -0.1535970072 0.75497534 1.141679057e-38
-0.4110461201 -0.1535970072 0.75497534 1.141603807e-38
-0.4104346751 -0.1540712772 0.75797531 1.095180471e-38
-0.4065775151 -0.1535970072 0.75497534 1.039575266e-38
-0.4043432351 -0.1535970072 0.75497534 9.385904121e-39
-0.4021089551 -0.1535970072 0.75497534 8.376417115e-39
-0.3998746751 -0.1535970072 0.75497534 7.36262532e-39
-0.3992346551 -0.1540712772 0.75797531 6.440688639e-39
-0.3985832351 -0.1545455472 0.760975265 5.886452676e-39
-0.3979203851 -0.1550198622 0.763975325 5.332586655e-39
-0.3956689301 -0.1550198622 0.763975325 4.596485973e-39
-0.4012746551 -0.1573912722 0.77897531 3.9525585e-39
-0.3989946401 -0.1573912722 0.77897531 3.861078934e-39
-0.3982746551 -0.1578655722 0.781975265 3.769614782e-39
-0.3959889251 -0.1578655722 0.781975265 4.412118536e-39
-0.3937032251 -0.1578655722 0.781975265 5.05496841e-39
-0.3914174951 -0.1578655722 0.781975265 5.521682074e-39
-0.3891317651 -0.1578655722 0.781975265 5.988739056e-39
-0.3868460801 -0.1578655722 0.781975265 5.986932782e-39
-0.3860861201 -0.1583398572 0.784975325 5.985133515e-39
-0.3837946601 -0.1583398572 0.784975325 5.708546626e-39
-0.3845318201 -0.1592884122 0.790975325 5.524151162e-39
-0.3837375251 -0.1597626972 0.793975295 5.432668793e-39
-0.3829318301 -0.1602369972 0.79697534 5.338364209e-39
-0.3821146601 -0.1607112822 0.79997531 5.520642311e-39
-0.3812860751 -0.1611855672 0.802975265 5.610660323e-39
-0.3789603401 -0.1611855672 0.802975265 5.425530579e-39
-0.3766346351 -0.1611855672 0.802975265 5.332617484e-39
-0.3794689301 -0.1628455572 0.81347531 5.243291713e-39
-0.3771232451 -0.1628455572 0.81347531 5.244352496e-39
-0.3791660651 -0.1642684122 0.82247528 5.337608909e-39
-0.3797175251 -0.1652169972 0.828475295 5.523070761e-39
-0.3816975251 -0.1666398372 0.837475265 5.983680369e-39
-0.3793060751 -0.1666398372 0.837475265 6.444648709e-39
-0.3769146101 -0.1666398372 0.837475265 6.533971677e-39
-0.3745232051 -0.1666398372 0.837475265 6.525429361e-39
-0.4760803451 -0.1574541372 0.793975295 1.187924008e-38
-0.4685775401 -0.1560484422 0.784975325 1.224621213e-38
-0.4662860801 -0.1560484422 0.784975325 1.233803501e-38
-0.4639946801 -0.1560484422 0.784975325 1.242949496e-38
-0.4599889301 -0.1555798422 0.781975265 1.187918263e-38
-0.4577032001 -0.1555798422 0.781975265 1.141927227e-38
-0.4537146551 -0.1551112872 0.77897531 1.068457429e-38
-0.4514346551 -0.1551112872 0.77897531 1.00406342e-38
-0.4483089851 -0.1548770022 0.777475325 9.212307063e-39
-0.4460318351 -0.1548770022 0.777475325 8.380396802e-39
-0.4420746851 -0.1544084172 0.77447528 7.644268094e-39
-0.4381289651 -0.1539398472 0.77147531 6.998567979e-39
-0.4341946151 -0.1534712772 0.768475265 7.271582959e-39
-0.4294403951 -0.1527684222 0.763975325 7.638917937e-39
-0.4238746901 -0.1518312822 0.75797531 8.373953632e-39
-0.4199832401 -0.1513627272 0.75497534 9.110445276e-39
-0.4177489601 -0.1513627272 0.75497534 9.47995507e-39
-0.4155146801 -0.1513627272 0.75497534 9.938764009e-39
-0.4132804001 -0.1513627272 0.75497534 1.003023096e-38
-0.4110461201 -0.1513627272 0.75497534 1.012169652e-38
-0.4088117951 -0.1513627272 0.75497534 9.478478101e-39
-0.4065775151 -0.1513627272 0.75497534 8.925305723e-39
-0.4059546701 -0.1518312822 0.75797531 8.003716565e-39
-0.4037146601 -0.1518312822 0.75797531 7.085717533e-39
-0.3998746751 -0.1513627272 0.75497534 6.43138682e-39
-0.4008289151 -0.1522998522 0.760975265 5.881441633e-39
-0.4009660751 -0.1530027072 0.765475295 5.055991358e-39
-0.4002946751 -0.1534712772 0.768475265 4.229839033e-39
-0.4051317701 -0.1555798422 0.781975265 3.583411643e-39
-0.4012746551 -0.1551112872 0.77897531 3.032394463e-39
-0.4005603401 -0.1555798422 0.781975265 3.308256881e-39
-0.3982746551 -0.1555798422 0.781975265 3.677402337e-39
-0.3959889251 -0.1555798422 0.781975265 3.953994831e-39
-0.3937032251 -0.1555798422 0.781975265 4.228077601e-39
-0.3914174951 -0.1555798422 0.781975265 4.593277e-39
-0.3891317651 -0.1555798422 0.781975265 5.058901855e-39
-0.3883775201 -0.1560484422 0.784975325 5.249020221e-39
-0.3860861201 -0.1560484422 0.784975325 5.432688411e-39
-0.3853146251 -0.1565169822 0.78797528 5.341208845e-39
-0.3845318201 -0.1569855522 0.790975325 5.340843106e-39
-0.3837375251 -0.1574541372 0.793975295 5.157165107e-39
-0.3829318301 -0.1579227222 0.79697534 5.061768912e-39
-0.3821146601 -0.1583912622 0.79997531 5.15183737e-39
-0.3812860751 -0.1588598472 0.802975265 5.333704892e-39
-0.3789603401 -0.1588598472 0.802975265 5.240423255e-39
-0.3766346351 -0.1588598472 0.802975265 5.240416249e-39
-0.3779947001 -0.1600312722 0.810475355 5.058533313e-39
-0.3785918051 -0.1609684122 0.816475265 4.967055148e-39
-0.3791660651 -0.1619055522 0.82247528 5.059608109e-39
-0.3782604101 -0.1623741372 0.82547534 5.244355299e-39
-0.3802460951 -0.1637798472 0.83447531 5.704610378e-39
-0.3778603601 -0.1637798472 0.83447531 6.164508126e-39
-0.3754746701 -0.1637798472 0.83447531 6.257424024e-39
-0.3745232051 -0.1642484172 0.837475265 6.344619821e-39
-0.3721317851 -0.1642484172 0.837475265 8.655957941e-39
-0.4743432701 -0.1546827072 0.790975325 1.188029666e-38
-0.4703089151 -0.1542198372 0.78797528 1.224619671e-38
-0.4662860801 -0.1537569972 0.784975325 1.233766787e-38
-0.4639946801 -0.1537569972 0.784975325 1.252132345e-38
-0.4617032201 -0.1537569972 0.784975325 1.178626533e-38
-0.4577032001 -0.1532941422 0.781975265 1.105120441e-38
-0.4554175001 -0.1532941422 0.781975265 1.050017462e-38
-0.4514346551 -0.1528312722 0.77897531 9.949144828e-39
-0.4491546401 -0.1528312722 0.77897531 8.935710364e-39
-0.4468746251 -0.1528312722 0.77897531 8.014131015e-39
-0.4462746101 -0.1532941422 0.781975265 6.905652082e-39
-0.4414775351 -0.1525998522 0.777475325 5.887196765e-39
-0.4375317701 -0.1521369972 0.77447528 6.53218362e-39
-0.4302718001 -0.1507484322 0.765475295 7.177194297e-39
-0.4238746901 -0.1495912722 0.75797531 7.1793565e-39
-0.4216346351 -0.1495912722 0.75797531 7.273342989e-39
-0.4177489601 -0.1491284322 0.75497534 7.458448911e-39
-0.4155146801 -0.1491284322 0.75497534 7.735735049e-39
-0.4132804001 -0.1491284322 0.75497534 7.916880901e-39
-0.4110461201 -0.1491284322 0.75497534 8.189887473e-39
-0.4104346751 -0.1495912722 0.75797531 7.822556699e-39
-0.4081946651 -0.1495912722 0.75797531 7.455218918e-39
-0.4059546701 -0.1495912722 0.75797531 6.900622821e-39
-0.4037146601 -0.1495912722 0.75797531 6.437866424e-39
-0.4014746651 -0.1495912722 0.75797531 5.789645373e-39
-0.4008289151 -0.1500541272 0.760975265 5.053864187e-39
-0.4009660751 -0.1507484322 0.765475295 4.505342719e-39
-0.4018775351 -0.1516741422 0.77147531 3.953969608e-39
-0.4035546701 -0.1528312722 0.77897531 3.033460851e-39
-0.4012746551 -0.1528312722 0.77897531 2.206219717e-39
-0.4005603401 -0.1532941422 0.781975265 2.941616947e-39
-0.3982746551 -0.1532941422 0.781975265 3.67738412e-39
-0.3959889251 -0.1532941422 0.781975265 3.860703386e-39
-0.3937032251 -0.1532941422 0.781975265 4.135869359e-39
-0.3914174951 -0.1532941422 0.781975265 4.411036733e-39
-0.3906689351 -0.1537569972 0.784975325 4.686176082e-39
-0.3883775201 -0.1537569972 0.784975325 4.969926409e-39
-0.3876117551 -0.1542198372 0.78797528 5.246866426e-39
-0.3853146251 -0.1542198372 0.78797528 5.154313465e-39
-0.3860461001 -0.1551455772 0.793975295 4.9699166e-39
-0.3837375251 -0.1551455772 0.793975295 4.785879869e-39
-0.3829318301 -0.1556084322 0.79697534 4.601861354e-39
-0.3821146601 -0.1560712872 0.79997531 4.783392564e-39
-0.3812860751 -0.1565341272 0.802975265 5.056390728e-39
-0.3789603401 -0.1565341272 0.802975265 4.965275499e-39
-0.3766346351 -0.1565341272 0.802975265 4.963469226e-39
-0.3794689301 -0.1581541272 0.81347531 4.780145755e-39
-0.3785918051 -0.1586169972 0.816475265 4.689041737e-39
-0.3791660651 -0.1595426922 0.82247528 4.782684908e-39
-0.3782604101 -0.1600055772 0.82547534 4.875958136e-39
-0.3773432351 -0.1604684322 0.828475295 5.243663057e-39
-0.3749689451 -0.1604684322 0.828475295 5.611373584e-39
-0.3725946401 -0.1604684322 0.828475295 5.888324811e-39
-0.3745232051 -0.1618569822 0.837475265 6.072334917e-39
-0.3735603701 -0.1623198672 0.840475325 7.365547027e-39
-0.3711632351 -0.1623198672 0.840475325 8.653071267e-39
-0.4841946551 -0.1537512822 0.79997531 1.124138444e-38
-0.4801318301 -0.1532941422 0.79697534 1.16072957e-38
-0.4760803451 -0.1528369872 0.793975295 1.197320695e-38
-0.4720404101 -0.1523798472 0.790975325 1.233623714e-38
-0.4697375501 -0.1523798472 0.790975325 1.24277069e-38
-0.4657146851 -0.1519227072 0.78797528 1.261135687e-38
-0.4634175101 -0.1519227072 0.78797528 1.16011468e-38
-0.4577032001 -0.1510084122 0.781975265 1.068385682e-38
-0.4554175001 -0.1510084122 0.781975265 1.022466813e-38
-0.4531317701 -0.1510084122 0.781975265 9.85517095e-39
-0.4508460851 -0.1510084122 0.781975265 8.74202289e-39
-0.4485603551 -0.1510084122 0.781975265 7.638197669e-39
-0.4479546551 -0.1514655672 0.784975325 6.259224692e-39
-0.4439889251 -0.1510084122 0.781975265 4.878095117e-39
-0.4392003851 -0.1503227022 0.777475325 5.789265621e-39
-0.4335975101 -0.1494084222 0.77147531 6.710480633e-39
-0.4271889551 -0.1482655722 0.763975325 6.070850942e-39
-0.4216346351 -0.1473512772 0.75797531 5.51841845e-39
-0.4193946401 -0.1473512772 0.75797531 5.517356266e-39
-0.4171546751 -0.1473512772 0.75797531 5.515201069e-39
-0.4132804001 -0.1468941372 0.75497534 5.880389258e-39
-0.4126746701 -0.1473512772 0.75797531 6.24916477e-39
-0.4104346751 -0.1473512772 0.75797531 6.06728744e-39
-0.4081946651 -0.1473512772 0.75797531 5.975454747e-39
-0.4059546701 -0.1473512772 0.75797531 5.883982187e-39
-0.4037146601 -0.1473512772 0.75797531 5.883264722e-39
-0.4014746651 -0.1473512772 0.75797531 5.056386524e-39
-0.4024232651 -0.1482655722 0.763975325 4.319177415e-39
-0.4025546051 -0.1489512672 0.768475265 3.955050009e-39
-0.4050432551 -0.1503227022 0.777475325 3.678100183e-39
-0.4035546701 -0.1505512872 0.77897531 2.483514262e-39
-0.4012746551 -0.1505512872 0.77897531 1.381128174e-39
-0.4005603401 -0.1510084122 0.781975265 2.483151326e-39
-0.3982746551 -0.1510084122 0.781975265 3.677021183e-39
-0.3959889251 -0.1510084122 0.781975265 3.861057915e-39
-0.3937032251 -0.1510084122 0.781975265 4.135862353e-39
-0.3914174951 -0.1510084122 0.781975265 4.229505524e-39
-0.3906689351 -0.1514655672 0.784975325 4.411018516e-39
-0.3883775201 -0.1514655672 0.784975325 4.783018417e-39
-0.3876117551 -0.1519227072 0.78797528 5.15179393e-39
-0.3868346801 -0.1523798472 0.790975325 4.877722371e-39
-0.3860461001 -0.1528369872 0.793975295 4.692612245e-39
-0.3852460901 -0.1532941422 0.79697534 4.415666623e-39
-0.3844346801 -0.1537512822 0.79997531 4.139808409e-39
-0.3821146601 -0.1537512822 0.79997531 4.414964573e-39
-0.3812860751 -0.1542084222 0.802975265 4.781591895e-39
-0.3789603401 -0.1542084222 0.802975265 4.781954832e-39
-0.3788546501 -0.1548941322 0.807475295 4.781227558e-39
-0.3794689301 -0.1558084122 0.81347531 4.596829291e-39
-0.3785918051 -0.1562655672 0.816475265 4.413532446e-39
-0.3777032201 -0.1567227072 0.819475325 4.506100821e-39
-0.3768032051 -0.1571798622 0.82247528 4.599729979e-39
-0.3758917901 -0.1576370022 0.82547534 4.876314066e-39
-0.3749689451 -0.1580941422 0.828475295 5.15218209e-39
-0.3754746701 -0.1590084072 0.83447531 5.520961807e-39
-0.3745232051 -0.1594655472 0.837475265 5.889370179e-39
-0.3735603701 -0.1599227172 0.840475325 6.075542489e-39
-0.3711632351 -0.1599227172 0.840475325 6.352858054e-39
-0.3687660551 -0.1599227172 0.840475325 6.906040241e-39
-0.3663689651 -0.1599227172 0.840475325 7.462798542e-39
-0.4865146751 -0.1514312772 0.79997531 1.105842811e-38
-0.4824461201 -0.1509798522 0.79697534 1.14246981e-38
-0.4783889351 -0.1505284272 0.793975295 1.169733753e-38
-0.4760803451 -0.1505284272 0.793975295 1.224799458e-38
-0.4737717701 -0.1505284272 0.793975295 1.279397689e-38
-0.4697375501 -0.1500769872 0.790975325 1.270321059e-38
-0.4674346901 -0.1500769872 0.790975325 1.270426156e-38
-0.4634175101 -0.1496255622 0.78797528 1.18780756e-38
-0.4594118501 -0.1491741222 0.784975325 1.114410349e-38
-0.4571203901 -0.1491741222 0.784975325 1.086679914e-38
-0.4548289451 -0.1491741222 0.784975325 1.058807527e-38
-0.4525375301 -0.1491741222 0.784975325 9.940217155e-39
-0.4519318001 -0.1496255622 0.78797528 9.289461155e-39
-0.4496346701 -0.1496255622 0.78797528 8.094508093e-39
-0.4456632101 -0.1491741222 0.784975325 6.899923573e-39
-0.4417032401 -0.1487226972 0.781975265 6.896690778e-39
-0.4460689301 -0.1505284272 0.793975295 6.893791491e-39
-0.4437603551 -0.1505284272 0.793975295 6.161947954e-39
-0.4216346351 -0.1451112822 0.75797531 5.518052711e-39
-0.4193946401 -0.1451112822 0.75797531 5.149665358e-39
-0.4155146801 -0.1446598422 0.75497534 4.779820654e-39
-0.4132804001 -0.1446598422 0.75497534 5.331919637e-39
-0.4110461201 -0.1446598422 0.75497534 5.976190428e-39
-0.4104346751 -0.1451112822 0.75797531 5.517000336e-39
-0.4081946651 -0.1451112822 0.75797531 5.05818439e-39
-0.4075660901 -0.1455627072 0.760975265 5.148587759e-39
-0.4053203201 -0.1455627072 0.760975265 5.237903721e-39
-0.4046746751 -0.1460141472 0.763975325 4.044033863e-39
-0.4064089451 -0.1471427172 0.77147531 2.850164005e-39
-0.4073203601 -0.1480455672 0.777475325 3.22001011e-39
-0.4050432551 -0.1480455672 0.777475325 3.677738648e-39
-0.4035546701 -0.1482712872 0.77897531 3.126354327e-39
-0.4028460701 -0.1487226972 0.781975265 2.667176846e-39
-0.4005603401 -0.1487226972 0.781975265 3.309666587e-39
-0.3982746551 -0.1487226972 0.781975265 3.952523468e-39
-0.3959889251 -0.1487226972 0.781975265 3.952531876e-39
-0.3937032251 -0.1487226972 0.781975265 3.952541685e-39
-0.3914174951 -0.1487226972 0.781975265 4.044029659e-39
-0.3906689351 -0.1491741222 0.784975325 4.135860951e-39
-0.3883775201 -0.1491741222 0.784975325 4.412439433e-39
-0.3876117551 -0.1496255622 0.78797528 4.780856214e-39
-0.3853146251 -0.1496255622 0.78797528 4.781573678e-39
-0.3860461001 -0.1505284272 0.793975295 4.782289742e-39
-0.3852460901 -0.1509798522 0.79697534 4.505707056e-39
-0.3844346801 -0.1514312772 0.79997531 4.321322803e-39
-0.3821146601 -0.1514312772 0.79997531 4.413521235e-39
-0.3812860751 -0.1518827022 0.802975265 4.597553763e-39
-0.3789603401 -0.1518827022 0.802975265 4.506081203e-39
-0.3788546501 -0.1525598322 0.807475295 4.507867858e-39
-0.3779947001 -0.1530112872 0.810475355 4.323472395e-39
-0.3785918051 -0.1539141222 0.816475265 4.139458084e-39
-0.3777032201 -0.1543655622 0.819475325 4.231669129e-39
-0.3768032051 -0.1548169872 0.82247528 4.323861956e-39
-0.3758917901 -0.1552684272 0.82547534 4.508607744e-39
-0.3749689451 -0.1557198522 0.828475295 4.69335073e-39
-0.3754746701 -0.1566227022 0.83447531 5.06212344e-39
-0.3745232051 -0.1570741422 0.837475265 5.430898953e-39
-0.3735603701 -0.1575255822 0.840475325 5.707121505e-39
-0.3711632351 -0.1575255822 0.840475325 5.891508561e-39
-0.3687660551 -0.1575255822 0.840475325 6.257055482e-39
-0.3663689651 -0.1575255822 0.840475325 6.531129844e-39
-0.3639717851 -0.1575255822 0.840475325 6.345669393e-39
-0.3615746501 -0.1575255822 0.840475325 6.252494256e-39
-0.4865146751 -0.1491112722 0.79997531 1.133428772e-38
-0.4824461201 -0.1486655772 0.79697534 1.160799775e-38
-0.4801318301 -0.1486655772 0.79697534 1.188136725e-38
-0.4778175251 -0.1486655772 0.79697534 1.252279481e-38
-0.4737717701 -0.1482198372 0.793975295 1.325997589e-38
-0.4714632401 -0.1482198372 0.793975295 1.298732525e-38
-0.4674346901 -0.1477741422 0.790975325 1.280005152e-38
-0.4651318451 -0.1477741422 0.790975325 1.224579454e-38
-0.4594118501 -0.1468827072 0.784975325 1.169406129e-38
-0.4571203901 -0.1468827072 0.784975325 1.150895257e-38
-0.4548289451 -0.1468827072 0.784975325 1.141567233e-38
-0.4542289301 -0.1473284172 0.78797528 1.1230558e-38
-0.4536175601 -0.1477741422 0.790975325 1.104291713e-38
-0.4513147151 -0.1477741422 0.790975325 9.920779744e-39
-0.4490118551 -0.1477741422 0.790975325 8.916687738e-39
-0.4517146301 -0.1491112722 0.79997531 8.004431227e-39
-0.4493946551 -0.1491112722 0.79997531 7.174681769e-39
-0.4470746801 -0.1491112722 0.79997531 6.344933711e-39
-0.4447546601 -0.1491112722 0.79997531 5.517349259e-39
-0.4424346701 -0.1491112722 0.79997531 4.781957634e-39
-0.4384746701 -0.1486655772 0.79697534 4.049431665e-39
-0.4361604101 -0.1486655772 0.79697534 4.878110531e-39
-0.4305889751 -0.1477741422 0.790975325 5.704261455e-39
-0.4209832151 -0.1457684322 0.777475325 4.877733582e-39
-0.4138546151 -0.1444312722 0.768475265 4.139099352e-39
-0.4148174951 -0.1453227072 0.77447528 4.413168108e-39
-0.4141518101 -0.1457684322 0.777475325 4.689027724e-39
-0.4118747051 -0.1457684322 0.777475325 3.036340519e-39
-0.4095975101 -0.1457684322 0.777475325 1.474781154e-39
-0.4081146551 -0.1459912872 0.77897531 2.576809911e-39
-0.4058346401 -0.1459912872 0.77897531 3.678464521e-39
-0.4035546701 -0.1459912872 0.77897531 3.862124303e-39
-0.4028460701 -0.1464369972 0.781975265 4.044719098e-39
-0.4005603401 -0.1464369972 0.781975265 4.135478397e-39
-0.3982746551 -0.1464369972 0.781975265 4.319510924e-39
-0.3959889251 -0.1464369972 0.781975265 4.041853442e-39
-0.3937032251 -0.1464369972 0.781975265 3.766355362e-39
-0.3914174951 -0.1464369972 0.781975265 3.858197864e-39
-0.3906689351 -0.1468827072 0.784975325 3.951115163e-39
-0.3883775201 -0.1468827072 0.784975325 4.135867958e-39
-0.3860861201 -0.1468827072 0.784975325 4.410295446e-39
-0.3868346801 -0.1477741422 0.790975325 4.592887439e-39
-0.3875603951 -0.1486655772 0.79697534 4.873406372e-39
-0.3867546551 -0.1491112722 0.79997531 4.686495578e-39
-0.3844346801 -0.1491112722 0.79997531 4.504978381e-39
-0.3821146601 -0.1491112722 0.79997531 4.504262318e-39
-0.3797946401 -0.1491112722 0.79997531 4.50426512e-39
-0.3789603401 -0.1495569972 0.802975265 4.320598332e-39
-0.3773747051 -0.1497798522 0.80447534 4.23091523e-39
-0.3779947001 -0.1506712872 0.810475355 4.049396632e-39
-0.3785918051 -0.1515627072 0.816475265 3.865386526e-39
-0.3777032201 -0.1520084322 0.819475325 3.957243041e-39
-0.3768032051 -0.1524541422 0.82247528 4.140904224e-39
-0.3758917901 -0.1528998522 0.82547534 4.233090045e-39
-0.3749689451 -0.1533455622 0.828475295 4.325638802e-39
-0.3754746701 -0.1542369972 0.83447531 4.69548771e-39
-0.3745232051 -0.1546827072 0.837475265 5.0628353e-39
-0.3735603701 -0.1551284172 0.840475325 5.246511897e-39
-0.3711632351 -0.1551284172 0.840475325 5.522375717e-39
-0.3687660551 -0.1551284172 0.840475325 5.614927276e-39
-0.3663689651 -0.1551284172 0.840475325 5.704261455e-39
-0.3667832351 -0.1560198522 0.846475325 4.507898687e-39
-0.3657746351 -0.1564655622 0.849475295 3.316942129e-39
-0.3633603851 -0.1564655622 0.849475295 6.258584299e-39
-0.4847603801 -0.1463512872 0.79697534 1.124280675e-38
-0.4824461201 -0.1463512872 0.79697534 1.151615104e-38
-0.4801318301 -0.1463512872 0.79697534 1.188208472e-38
-0.4778175251 -0.1463512872 0.79697534 1.243384179e-38
-0.4737717701 -0.1459112772 0.793975295 1.299093219e-38
-0.4714632401 -0.1459112772 0.793975295 1.289441356e-38
-0.4674346901 -0.1454712822 0.790975325 1.289691768e-38
-0.4651318451 -0.1454712822 0.790975325 1.279826066e-38
-0.4611203801 -0.1450312722 0.78797528 1.27953894e-38
-0.4588232351 -0.1450312722 0.78797528 1.233621192e-38
-0.4565261051 -0.1450312722 0.78797528 1.197135023e-38
-0.4559204201 -0.1454712822 0.790975325 1.178693235e-38
-0.4553032451 -0.1459112772 0.793975295 1.169470729e-38
-0.4529946251 -0.1459112772 0.793975295 1.095712404e-38
-0.4523604101 -0.1463512872 0.79697534 1.021993314e-38
-0.4517146301 -0.1467912822 0.79997531 9.387678164e-39
-0.4510575251 -0.1472312772 0.802975265 8.647641235e-39
-0.4470746801 -0.1467912822 0.79997531 7.911551763e-39
-0.4447546601 -0.1467912822 0.79997531 7.175423055e-39
-0.4424346701 -0.1467912822 0.79997531 6.532924907e-39
-0.4384746701 -0.1463512872 0.79697534 5.890437969e-39
-0.4361604101 -0.1463512872 0.79697534 6.534006709e-39
-0.4322175101 -0.1459112772 0.793975295 7.177567042e-39
-0.4299089801 -0.1459112772 0.793975295 6.442160003e-39
-0.4187061101 -0.1434912822 0.777475325 5.79176834e-39
-0.4172346551 -0.1437112722 0.77897531 5.425852877e-39
-0.4149546401 -0.1437112722 0.77897531 5.059941618e-39
-0.4126746701 -0.1437112722 0.77897531 3.866075964e-39
-0.4103946551 -0.1437112722 0.77897531 2.764421355e-39
-0.4081146551 -0.1437112722 0.77897531 3.219308059e-39
-0.4058346401 -0.1437112722 0.77897531 3.772820953e-39
-0.4051317701 -0.1441512822 0.781975265 3.861775379e-39
-0.4028460701 -0.1441512822 0.781975265 4.045087639e-39
-0.4005603401 -0.1441512822 0.781975265 4.319519332e-39
-0.3998346701 -0.1445912772 0.784975325 4.68649838e-39
-0.3959889251 -0.1441512822 0.781975265 5.695608437e-39
-0.3937032251 -0.1441512822 0.781975265 6.704726901e-39
-0.3914174951 -0.1441512822 0.781975265 6.709037295e-39
-0.3906689351 -0.1445912772 0.784975325 6.805192995e-39
-0.3883775201 -0.1445912772 0.784975325 6.620819952e-39
-0.3876117551 -0.1450312722 0.78797528 6.436425889e-39
-0.3868346801 -0.1454712822 0.790975325 6.251674496e-39
-0.3860461001 -0.1459112772 0.793975295 6.066906287e-39
-0.3852460901 -0.1463512872 0.79697534 5.791021448e-39
-0.3829318301 -0.1463512872 0.79697534 5.515154826e-39
-0.3806175401 -0.1463512872 0.79697534 5.239646936e-39
-0.3797946401 -0.1467912822 0.79997531 4.96414325e-39
-0.3789603401 -0.1472312772 0.802975265 4.688639564e-39
-0.3788546501 -0.1478912772 0.807475295 4.413140082e-39
-0.3794689301 -0.1487712822 0.81347531 4.23127116e-39
-0.3800603501 -0.1496512872 0.819475325 4.049776384e-39
-0.3791660651 -0.1500912822 0.82247528 4.141635702e-39
-0.3782604101 -0.1505312772 0.82547534 4.233454383e-39
-0.3758917901 -0.1505312772 0.82547534 3.957931079e-39
-0.3749689451 -0.1509712722 0.828475295 3.682420386e-39
-0.3754746701 -0.1518512922 0.83447531 4.049758167e-39
-0.3730889351 -0.1518512922 0.83447531 4.509306992e-39
-0.3721317851 -0.1522912572 0.837475265 4.691557068e-39
-0.3711632351 -0.1527312822 0.840475325 4.873790328e-39
-0.3701832101 -0.1531712772 0.84347528 5.059253581e-39
-0.3677803451 -0.1531712772 0.84347528 5.244733649e-39
-0.3681889451 -0.1540512822 0.849475295 4.322808179e-39
-0.3678746801 -0.1547112822 0.853975325 3.39904841e-39
-0.3654518351 -0.1547112822 0.853975325 5.885041568e-39
-0.3630289451 -0.1547112822 0.853975325 8.478742731e-39
