# .PCD v0.7 - Point Cloud Data file format
VERSION 0.7
FIELDS x y z rgb
SIZE 4 4 4 4
TYPE F F F F
COUNT 1 1 1 1
WIDTH 986
HEIGHT 1
VIEWPOINT 0 0 0 1 0 0 0
POINTS 986
DATA ascii
2.39088765 0.13406476 0.84800005 8.922053309e-39
2.39250287 0.13406476 0.84800005 9.106444569e-39
2.39411813 0.13406476 0.84800005 9.106806104e-39
2.39573336 0.13406476 0.84800005 9.107164837e-39
2.39734861 0.13406476 0.84800005 9.107883703e-39
2.39896381 0.13406476 0.84800005 9.199717797e-39
2.40057907 0.13406476 0.84800005 9.475222885e-39
2.40219429 0.13406476 0.84800005 9.841494277e-39
2.40380955 0.13406476 0.84800005 9.749665788e-39
2.40542477 0.13406476 0.84800005 9.749323871e-39
2.40704003 0.13406476 0.84800005 9.840460119e-39
2.40865526 0.13406476 0.84800005 1.002339403e-38
2.41027051 0.13406476 0.84800005 1.020955653e-38
2.41188571 0.13406476 0.84800005 1.048434415e-38
2.41447619 0.13438095 0.85000002 1.030318288e-38
2.41707432 0.13469715 0.85200006 1.011914755e-38
2.4177143 0.13438095 0.85000002 9.935113626e-39
2.42032003 0.13469715 0.85200006 9.752874761e-39
2.42194289 0.13469715 0.85200006 1.002766238e-38
2.42356572 0.13469715 0.85200006 1.030137521e-38
2.4251886 0.13469715 0.85200006 1.057652437e-38
2.42781335 0.13501334 0.85400003 1.085418185e-38
2.42843431 0.13469715 0.85200006 1.067051086e-38
2.43005717 0.13469715 0.85200006 1.057867396e-38
2.43168002 0.13469715 0.85200006 1.076162609e-38
2.43330288 0.13469715 0.85200006 1.10360844e-38
2.43594667 0.13501334 0.85400003 1.076060594e-38
2.43757334 0.13501334 0.85400003 1.048508824e-38
2.43919998 0.13501334 0.85400003 1.03939604e-38
2.44082668 0.13501334 0.85400003 1.030428571e-38
2.44245335 0.13501334 0.85400003 1.030357805e-38
2.44408002 0.13501334 0.85400003 1.039324294e-38
2.44570667 0.13501334 0.85400003 1.030174796e-38
2.44733334 0.13501334 0.85400003 1.021134459e-38
2.35957718 0.13792001 0.86200005 6.253434527e-39
2.36121908 0.13792001 0.86200005 6.069764936e-39
2.36286098 0.13792001 0.86200005 5.976130172e-39
2.36661717 0.13872001 0.86700004 6.067244e-39
2.36614478 0.13792001 0.86200005 6.160514426e-39
2.36778668 0.13792001 0.86200005 6.252351323e-39
2.36857143 0.13759999 0.86000001 6.43351259e-39
2.36934859 0.13728002 0.85800004 6.801933574e-39
2.37098286 0.13728002 0.85800004 7.168555292e-39
2.3717486 0.13696001 0.85600007 6.987752757e-39
2.37337908 0.13696001 0.85600007 6.896275994e-39
2.37413335 0.13664 0.85400003 6.992057546e-39
2.37575999 0.13664 0.85400003 7.083174176e-39
2.37738666 0.13664 0.85400003 7.266126302e-39
2.37812573 0.13632001 0.85200006 7.449441365e-39
2.37974858 0.13632001 0.85200006 7.723156994e-39
2.38047618 0.13600001 0.85000002 8.092292641e-39
2.38299429 0.13632001 0.85200006 8.095163901e-39
2.38461715 0.13632001 0.85200006 8.094447838e-39
2.38533333 0.13600001 0.85000002 8.185926003e-39
2.3869524 0.13600001 0.85000002 8.277399964e-39
2.38857141 0.13600001 0.85000002 8.461068154e-39
2.39019048 0.13600001 0.85000002 8.73693898e-39
2.39180955 0.13600001 0.85000002 8.829497546e-39
2.39342856 0.13600001 0.85000002 8.923126704e-39
2.39411813 0.13568 0.84800005 8.924204303e-39
2.39573336 0.13568 0.84800005 9.016044003e-39
2.39828572 0.13600001 0.85000002 8.924214112e-39
2.39896381 0.13568 0.84800005 8.924211309e-39
2.4015238 0.13600001 0.85000002 9.107879499e-39
2.40219429 0.13568 0.84800005 9.290118364e-39
2.40380955 0.13568 0.84800005 9.474150891e-39
2.40542477 0.13568 0.84800005 9.657118432e-39
2.40800002 0.13600001 0.85000002 9.656775114e-39
2.40961906 0.13600001 0.85000002 9.657837298e-39
2.4112381 0.13600001 0.85000002 9.842929207e-39
2.41285715 0.13600001 0.85000002 1.002587993e-38
2.41545147 0.13632001 0.85200006 9.844717264e-39
2.41707432 0.13632001 0.85200006 9.659611342e-39
2.41869715 0.13632001 0.85200006 9.384104853e-39
2.42130667 0.13664 0.85400003 9.201147122e-39
2.42293334 0.13664 0.85400003 9.661037864e-39
2.42456001 0.13664 0.85400003 1.020990265e-38
2.42618665 0.13664 0.85400003 1.039250025e-38
2.42781335 0.13664 0.85400003 1.05768845e-38
2.42944002 0.13664 0.85400003 1.0486121e-38
2.43005717 0.13632001 0.85200006 1.039392817e-38
2.43168002 0.13632001 0.85200006 1.030173674e-38
2.43330288 0.13632001 0.85200006 1.030246262e-38
2.43594667 0.13664 0.85400003 1.021171173e-38
2.43757334 0.13664 0.85400003 1.021099706e-38
2.43919998 0.13664 0.85400003 1.011880564e-38
2.44082668 0.13664 0.85400003 1.011917278e-38
2.44245335 0.13664 0.85400003 9.936226257e-39
2.44408002 0.13664 0.85400003 9.750395864e-39
2.44570667 0.13664 0.85400003 9.842941819e-39
2.44733334 0.13664 0.85400003 9.936206639e-39
2.36286098 0.13956191 0.86200005 5.792104652e-39
2.36661717 0.14037144 0.86700004 5.884290472e-39
2.36826858 0.14037144 0.86700004 6.06867893e-39
2.36778668 0.13956191 0.86200005 6.067961465e-39
2.36857143 0.13923809 0.86000001 6.158363433e-39
2.37020952 0.13923809 0.86000001 6.526425685e-39
2.37098286 0.13891429 0.85800004 6.892691472e-39
2.37261716 0.13891429 0.85800004 6.527143149e-39
2.37425146 0.13891429 0.85800004 6.253430323e-39
2.37500957 0.13859048 0.85600007 6.530013009e-39
2.37575999 0.13826667 0.85400003 6.806592892e-39
2.37738666 0.13826667 0.85400003 7.08245531e-39
2.37901336 0.13826667 0.85400003 7.358321932e-39
2.38064003 0.13826667 0.85400003 7.541635593e-39
2.38137147 0.13794287 0.85200006 7.816784751e-39
2.38389334 0.13826667 0.85400003 7.543432058e-39
2.38552001 0.13826667 0.85400003 7.269004569e-39
2.38714668 0.13826667 0.85400003 7.634555695e-39
2.38786289 0.13794287 0.85200006 8.000457144e-39
2.38948572 0.13794287 0.85200006 8.184482665e-39
2.3911086 0.13794287 0.85200006 8.367083066e-39
2.39273146 0.13794287 0.85200006 8.55470572e-39
2.39435431 0.13794287 0.85200006 8.647974744e-39
2.39504763 0.13761905 0.85000002 8.740526304e-39
2.39666668 0.13761905 0.85000002 8.832370208e-39
2.39828572 0.13761905 0.85000002 8.832738749e-39
2.39990479 0.13761905 0.85000002 8.924928774e-39
2.4015238 0.13761905 0.85000002 8.924207105e-39
2.40219429 0.13729525 0.84800005 9.014607672e-39
2.40476191 0.13761905 0.85000002 9.106443168e-39
2.40638095 0.13761905 0.85000002 9.289407906e-39
2.40800002 0.13761905 0.85000002 9.289419116e-39
2.40961906 0.13761905 0.85000002 9.384116064e-39
2.4112381 0.13761905 0.85000002 9.567421317e-39
2.41285715 0.13761905 0.85000002 9.751088106e-39
2.41545147 0.13794287 0.85200006 9.659248405e-39
2.41707432 0.13794287 0.85200006 9.659252609e-39
2.41869715 0.13794287 0.85200006 9.567063986e-39
2.42130667 0.13826667 0.85400003 9.475221483e-39
2.42293334 0.13826667 0.85400003 9.751798564e-39
2.42456001 0.13826667 0.85400003 1.002695193e-38
2.42618665 0.13826667 0.85400003 1.01173595e-38
2.42781335 0.13826667 0.85400003 1.020882785e-38
2.42944002 0.13826667 0.85400003 1.021097184e-38
2.43005717 0.13794287 0.85200006 1.011842448e-38
2.43168002 0.13794287 0.85200006 9.658893877e-39
2.43330288 0.13794287 0.85200006 9.292975612e-39
2.43594667 0.13826667 0.85400003 9.56847089e-39
2.43757334 0.13826667 0.85400003 9.844352926e-39
2.43817145 0.13794287 0.85200006 9.934770308e-39
2.44082668 0.13826667 0.85400003 1.002625268e-38
2.44245335 0.13826667 0.85400003 1.002625968e-38
2.44408002 0.13826667 0.85400003 1.011809798e-38
2.44570667 0.13826667 0.85400003 1.002662542e-38
2.44733334 0.13826667 0.85400003 9.936576582e-39
2.36746284 0.14235048 0.86900002 5.793172441e-39
2.36911809 0.14235048 0.86900002 5.976125969e-39
2.36906669 0.14169525 0.86500007 5.975767236e-39
2.37071431 0.14169525 0.86500007 5.975414109e-39
2.3710705 0.14120382 0.86200005 6.250926203e-39
2.3727124 0.14120382 0.86200005 6.617905251e-39
2.37348571 0.14087619 0.86000001 6.158366235e-39
2.3751238 0.14087619 0.86000001 5.701702684e-39
2.37588573 0.14054857 0.85800004 6.160524235e-39
2.37664002 0.14022096 0.85600007 6.62113104e-39
2.37915432 0.14054857 0.85800004 6.897350789e-39
2.37990096 0.14022096 0.85600007 7.265410239e-39
2.38064003 0.13989334 0.85400003 7.449800097e-39
2.38226667 0.13989334 0.85400003 7.633112357e-39
2.38389334 0.13989334 0.85400003 7.083894444e-39
2.38552001 0.13989334 0.85400003 6.532526938e-39
2.38714668 0.13989334 0.85400003 7.083185387e-39
2.38877332 0.13989334 0.85400003 7.724953459e-39
2.38948572 0.13956572 0.85200006 7.909336311e-39
2.3911086 0.13956572 0.85200006 8.09445064e-39
2.39365336 0.13989334 0.85400003 8.279923702e-39
2.39528 0.13989334 0.85400003 8.464668089e-39
2.39597717 0.13956572 0.85200006 8.556859515e-39
2.39760002 0.13956572 0.85200006 8.739828457e-39
2.39922288 0.13956572 0.85200006 8.830963304e-39
2.39990479 0.13923809 0.85000002 8.923502252e-39
2.4015238 0.13923809 0.85000002 8.832371609e-39
2.40314287 0.13923809 0.85000002 8.740174578e-39
2.40476191 0.13923809 0.85000002 8.832007271e-39
2.40638095 0.13923809 0.85000002 8.92313371e-39
2.40800002 0.13923809 0.85000002 9.014258748e-39
2.40961906 0.13923809 0.85000002 9.198643002e-39
2.4112381 0.13923809 0.85000002 9.383028656e-39
2.41285715 0.13923809 0.85000002 9.566696846e-39
2.41545147 0.13956572 0.85200006 9.567052776e-39
2.41707432 0.13956572 0.85200006 9.658891074e-39
2.41968 0.13989334 0.85400003 9.750727972e-39
2.42130667 0.13989334 0.85400003 9.842204736e-39
2.42293334 0.13989334 0.85400003 9.843998398e-39
2.42456001 0.13989334 0.85400003 9.842927806e-39
2.42618665 0.13989334 0.85400003 9.842214545e-39
2.42781335 0.13989334 0.85400003 9.933682901e-39
2.42944002 0.13989334 0.85400003 9.93618562e-39
2.43106669 0.13989334 0.85400003 9.934397563e-39
2.43168002 0.13956572 0.85200006 9.108243836e-39
2.43330288 0.13956572 0.85200006 8.282439033e-39
2.43492573 0.13956572 0.85200006 8.925643436e-39
2.43757334 0.13989334 0.85400003 9.567787056e-39
2.43817145 0.13956572 0.85200006 9.751113329e-39
2.44082668 0.13989334 0.85400003 1.002661561e-38
2.44245335 0.13989334 0.85400003 1.021207747e-38
2.44408002 0.13989334 0.85400003 1.04858001e-38
2.44570667 0.13989334 0.85400003 1.021066356e-38
2.44733334 0.13989334 0.85400003 9.935857716e-39
2.3721143 0.14582857 0.88000005 5.607707787e-39
2.37379047 0.14582857 0.88000005 5.608066519e-39
2.37333336 0.14500001 0.87500006 5.700979614e-39
2.37414286 0.14466858 0.87300003 5.881789155e-39
2.37580571 0.14466858 0.87300003 6.342409973e-39
2.37487429 0.14367428 0.86700004 6.803732842e-39
2.37565717 0.14334287 0.86500007 6.068683133e-39
2.3759962 0.14284572 0.86200005 5.242169273e-39
2.37676191 0.14251429 0.86000001 5.793547989e-39
2.37752002 0.14218286 0.85800004 6.437105519e-39
2.38003811 0.14251429 0.86000001 6.712605001e-39
2.37990096 0.14185144 0.85600007 7.080305718e-39
2.38153145 0.14185144 0.85600007 7.172858679e-39
2.38226667 0.14152001 0.85400003 7.265770373e-39
2.38389334 0.14152001 0.85400003 7.083175577e-39
2.38642287 0.14185144 0.85600007 6.900227655e-39
2.38805336 0.14185144 0.85600007 7.266141717e-39
2.38877332 0.14152001 0.85400003 7.541283868e-39
2.39040002 0.14152001 0.85400003 7.726744318e-39
2.39202669 0.14152001 0.85400003 7.91186145e-39
2.39365336 0.14152001 0.85400003 8.004066889e-39
2.39528 0.14152001 0.85400003 8.190243403e-39
2.39597717 0.14118859 0.85200006 8.280281033e-39
2.39760002 0.14118859 0.85200006 8.462898249e-39
2.39922288 0.14118859 0.85200006 8.5551163e-39
2.40084574 0.14118859 0.85200006 8.645135713e-39
2.4015238 0.14085715 0.85000002 8.555788923e-39
2.40314287 0.14085715 0.85000002 8.55614205e-39
2.40476191 0.14085715 0.85000002 8.648690808e-39
2.40638095 0.14085715 0.85000002 8.741247972e-39
2.40896001 0.14118859 0.85200006 8.923129507e-39
2.41058287 0.14118859 0.85200006 9.198277263e-39
2.41220576 0.14118859 0.85200006 9.474142484e-39
2.41382858 0.14118859 0.85200006 9.750006303e-39
2.41642669 0.14152001 0.85400003 9.658529539e-39
2.41805336 0.14152001 0.85400003 9.567051374e-39
2.41968 0.14152001 0.85400003 9.566692642e-39
2.42130667 0.14152001 0.85400003 9.566339515e-39
2.42293334 0.14152001 0.85400003 9.65854075e-39
2.42456001 0.14152001 0.85400003 9.750737781e-39
2.42618665 0.14152001 0.85400003 9.750383252e-39
2.42781335 0.14152001 0.85400003 9.658898081e-39
2.42944002 0.14152001 0.85400003 9.658889673e-39
2.43106669 0.14152001 0.85400003 9.750730774e-39
2.43269333 0.14152001 0.85400003 9.2915603e-39
2.43330288 0.14118859 0.85200006 8.833105889e-39
2.43594667 0.14152001 0.85400003 9.200094747e-39
2.43757334 0.14152001 0.85400003 9.658923304e-39
2.43919998 0.14152001 0.85400003 9.751127342e-39
2.44082668 0.14152001 0.85400003 9.935143054e-39
2.44245335 0.14152001 0.85400003 1.011880143e-38
2.44408002 0.14152001 0.85400003 1.030248924e-38
2.44570667 0.14152001 0.85400003 1.0118119e-38
2.44733334 0.14152001 0.85400003 9.934062653e-39
2.37546667 0.15018666 0.89600003 5.056358498e-39
2.37717333 0.15018666 0.89600003 5.607718997e-39
2.37676573 0.14934857 0.89100003 5.424396928e-39
2.37548956 0.14817525 0.88400006 5.241441999e-39
2.37546667 0.14750476 0.88000005 5.518024685e-39
2.3762857 0.14716952 0.87800002 5.790665518e-39
2.37666669 0.14666668 0.87500006 6.43423566e-39
2.37660381 0.1459962 0.87100005 7.078514859e-39
2.37652573 0.14532572 0.86700004 5.977921032e-39
2.3759962 0.14448762 0.86200005 4.875899282e-39
2.37676191 0.14415237 0.86000001 5.519110691e-39
2.3784 0.14415237 0.86000001 6.253790457e-39
2.38003811 0.14415237 0.86000001 6.621128237e-39
2.38078859 0.14381716 0.85800004 6.988470222e-39
2.38153145 0.14348191 0.85600007 6.988470222e-39
2.38226667 0.14314666 0.85400003 6.989545018e-39
2.38389334 0.14314666 0.85400003 7.17465094e-39
2.38642287 0.14348191 0.85600007 7.357966002e-39
2.38805336 0.14348191 0.85600007 7.357611474e-39
2.38968384 0.14348191 0.85600007 7.450521766e-39
2.39040002 0.14314666 0.85400003 7.544148122e-39
2.39202669 0.14314666 0.85400003 7.728186254e-39
2.39457527 0.14348191 0.85600007 7.82038889e-39
2.39620572 0.14348191 0.85600007 7.911864253e-39
2.39690667 0.14314666 0.85400003 8.095533844e-39
2.39853334 0.14314666 0.85400003 8.279217448e-39
2.39922288 0.14281143 0.85200006 8.37142569e-39
2.40084574 0.14281143 0.85200006 8.462887039e-39
2.40246859 0.14281143 0.85200006 8.37103753e-39
2.40409145 0.14281143 0.85200006 8.372109523e-39
2.4057143 0.14281143 0.85200006 8.465734477e-39
2.40733719 0.14281143 0.85200006 8.649052343e-39
2.40896001 0.14281143 0.85200006 8.924205704e-39
2.41058287 0.14281143 0.85200006 9.197199664e-39
2.41317335 0.14314666 0.85400003 9.564541649e-39
2.41480002 0.14314666 0.85400003 1.0024438e-38
2.41642669 0.14314666 0.85400003 9.749651775e-39
2.41805336 0.14314666 0.85400003 9.474145286e-39
2.41968 0.14314666 0.85400003 9.38230979e-39
2.42229334 0.14348191 0.85600007 9.290485504e-39
2.42293334 0.14314666 0.85400003 9.474169108e-39
2.42456001 0.14314666 0.85400003 9.750030125e-39
2.42618665 0.14314666 0.85400003 9.566713661e-39
2.42781335 0.14314666 0.85400003 9.474508222e-39
2.42944002 0.14314666 0.85400003 9.476292075e-39
2.43106669 0.14314666 0.85400003 9.567058381e-39
2.43269333 0.14314666 0.85400003 9.475231292e-39
2.43432 0.14314666 0.85400003 9.383395796e-39
2.43594667 0.14314666 0.85400003 9.567426922e-39
2.43757334 0.14314666 0.85400003 9.842936213e-39
2.43919998 0.14314666 0.85400003 9.843657882e-39
2.44082668 0.14314666 0.85400003 9.842929207e-39
2.44245335 0.14314666 0.85400003 1.002659039e-38
2.44408002 0.14314666 0.85400003 1.02102768e-38
2.44570667 0.14314666 0.85400003 1.011702319e-38
2.44733334 0.14314666 0.85400003 1.002516807e-38
2.37546667 0.15189333 0.89600003 4.689389259e-39
2.37717333 0.15189333 0.89600003 5.057431893e-39
2.37676573 0.15104572 0.89100003 5.058491274e-39
2.37761334 0.15070666 0.88900006 5.151400165e-39
2.37632 0.14951999 0.88200003 5.333993559e-39
2.37714288 0.14918096 0.88000005 5.608065118e-39
2.37795812 0.1488419 0.87800002 5.975408504e-39
2.37746859 0.14799428 0.87300003 6.34310782e-39
2.37739429 0.1473162 0.86900002 5.79173611e-39
2.37730479 0.14663811 0.86500007 5.332560031e-39
2.3776381 0.14612953 0.86200005 6.066529338e-39
2.3784 0.14579047 0.86000001 6.892329937e-39
2.38092193 0.14612953 0.86200005 6.709735142e-39
2.38078859 0.14545144 0.85800004 6.619334575e-39
2.38153145 0.1451124 0.85600007 6.621129639e-39
2.38316193 0.1451124 0.85600007 6.621844301e-39
2.38389334 0.14477333 0.85400003 6.714037128e-39
2.38642287 0.1451124 0.85600007 6.806232758e-39
2.38805336 0.1451124 0.85600007 6.531445136e-39
2.38968384 0.1451124 0.85600007 6.257732309e-39
2.39131433 0.1451124 0.85600007 6.809464152e-39
2.39294478 0.1451124 0.85600007 7.359046404e-39
2.39457527 0.1451124 0.85600007 7.542723001e-39
2.39620572 0.1451124 0.85600007 7.726396796e-39
2.39690667 0.14477333 0.85400003 7.818235095e-39
2.39853334 0.14477333 0.85400003 8.00190889e-39
2.40016001 0.14477333 0.85400003 8.096258315e-39
2.40178666 0.14477333 0.85400003 8.187010608e-39
2.40341336 0.14477333 0.85400003 8.187362334e-39
2.40409145 0.14443429 0.85200006 8.188434327e-39
2.4057143 0.14443429 0.85200006 8.280267021e-39
2.40733719 0.14443429 0.85200006 8.463945019e-39
2.40992001 0.14477333 0.85400003 8.738382317e-39
2.41154668 0.14477333 0.85400003 9.012811207e-39
2.41317335 0.14477333 0.85400003 9.195406002e-39
2.41480002 0.14477333 0.85400003 9.47019923e-39
2.41642669 0.14477333 0.85400003 9.289761033e-39
2.41805336 0.14477333 0.85400003 9.106808907e-39
2.41968 0.14477333 0.85400003 9.106810308e-39
2.42229334 0.1451124 0.85600007 9.19579276e-39
2.42392382 0.1451124 0.85600007 9.657498184e-39
2.42456001 0.14477333 0.85400003 1.020742235e-38
2.42618665 0.14477333 0.85400003 9.840786622e-39
2.42781335 0.14477333 0.85400003 9.382313994e-39
2.42944002 0.14477333 0.85400003 9.382660115e-39
2.43106669 0.14477333 0.85400003 9.291550491e-39
2.43269333 0.14477333 0.85400003 9.290842835e-39
2.43432 0.14477333 0.85400003 9.19828567e-39
2.43594667 0.14477333 0.85400003 9.383028656e-39
2.43757334 0.14477333 0.85400003 9.475937547e-39
2.43919998 0.14477333 0.85400003 9.567412909e-39
2.44185907 0.1451124 0.85600007 9.658881265e-39
2.44245335 0.14477333 0.85400003 9.658872857e-39
2.44512004 0.1451124 0.85600007 9.750722367e-39
2.44675052 0.1451124 0.85600007 9.658543552e-39
2.44838101 0.1451124 0.85600007 9.65709461e-39
2.37546667 0.15359999 0.89600003 4.41458342e-39
2.37717333 0.15359999 0.89600003 4.507844036e-39
2.37803432 0.15325716 0.89400005 4.784775645e-39
2.37676382 0.15205714 0.88700002 5.151041433e-39
2.37632 0.15120001 0.88200003 5.24179933e-39
2.37714288 0.15085715 0.88000005 5.424396928e-39
2.37881905 0.15085715 0.88000005 5.51838622e-39
2.37746859 0.14965715 0.87300003 5.700262149e-39
2.37826288 0.1493143 0.87100005 5.699902015e-39
2.37817717 0.14862858 0.86700004 5.791738913e-39
2.37895241 0.14828573 0.86500007 6.709377811e-39
2.38060004 0.14828573 0.86500007 7.627372639e-39
2.38092193 0.14777143 0.86200005 6.891971205e-39
2.3816762 0.14742857 0.86000001 6.250917795e-39
2.38242286 0.14708571 0.85800004 6.254147788e-39
2.38316193 0.14674287 0.85600007 6.253794661e-39
2.38479242 0.14674287 0.85600007 6.253800266e-39
2.38732573 0.14708571 0.85800004 6.254872259e-39
2.38896 0.14708571 0.85800004 5.613454512e-39
2.38968384 0.14674287 0.85600007 5.063517732e-39
2.39131433 0.14674287 0.85600007 6.074784387e-39
2.39294478 0.14674287 0.85600007 7.083908457e-39
2.39549717 0.14708571 0.85800004 7.358348557e-39
2.39620572 0.14674287 0.85600007 7.633489307e-39
2.39783621 0.14674287 0.85600007 7.633483701e-39
2.39946669 0.14674287 0.85600007 7.725320599e-39
2.40109718 0.14674287 0.85600007 7.821103553e-39
2.40272766 0.14674287 0.85600007 7.91257331e-39
2.40435812 0.14674287 0.85600007 8.004044469e-39
2.40504003 0.1464 0.85400003 8.09551843e-39
2.4066667 0.1464 0.85400003 8.187352525e-39
2.40829334 0.1464 0.85400003 8.27811883e-39
2.40992001 0.1464 0.85400003 8.552916261e-39
2.41154668 0.1464 0.85400003 8.828062616e-39
2.41317335 0.1464 0.85400003 8.919537979e-39
2.41480002 0.1464 0.85400003 9.011736411e-39
2.41642669 0.1464 0.85400003 8.922058915e-39
2.41805336 0.1464 0.85400003 8.830940883e-39
2.41968 0.1464 0.85400003 8.923136513e-39
2.42229334 0.14674287 0.85600007 9.106459983e-39
2.42392382 0.14674287 0.85600007 9.932631927e-39
2.42456001 0.1464 0.85400003 1.075770946e-38
2.42618665 0.1464 0.85400003 1.002194228e-38
2.42781335 0.1464 0.85400003 9.381233593e-39
2.42944002 0.1464 0.85400003 9.198267454e-39
2.43106669 0.1464 0.85400003 9.106088639e-39
2.43269333 0.1464 0.85400003 9.106104054e-39
2.43432 0.1464 0.85400003 9.106452977e-39
2.43594667 0.1464 0.85400003 9.1068019e-39
2.43859813 0.14674287 0.85600007 9.198994727e-39
2.43919998 0.1464 0.85400003 9.291188956e-39
2.44185907 0.14674287 0.85600007 9.474497012e-39
2.44348955 0.14674287 0.85600007 9.384809706e-39
2.44512004 0.14674287 0.85600007 9.291556096e-39
2.44675052 0.14674287 0.85600007 9.291931644e-39
2.44838101 0.14674287 0.85600007 9.381599332e-39
2.37546667 0.15530667 0.89600003 4.231254344e-39
2.37717333 0.15530667 0.89600003 4.326315629e-39
2.37887999 0.15530667 0.89600003 4.600385787e-39
2.37761334 0.15409334 0.88900006 4.875174811e-39
2.37717336 0.15322667 0.88400006 5.057771007e-39
2.37800002 0.15288 0.88200003 5.148891841e-39
2.37881905 0.15253334 0.88000005 5.240731541e-39
2.37963048 0.15218668 0.87800002 5.241087471e-39
2.37913144 0.15132 0.87300003 5.424396928e-39
2.37992194 0.15097333 0.87100005 5.516232424e-39
2.38070479 0.15062667 0.86900002 5.791381582e-39
2.38148001 0.15028 0.86700004 6.158364834e-39
2.38313144 0.15028 0.86700004 6.066529338e-39
2.38256383 0.14941333 0.86200005 5.974695243e-39
2.38420573 0.14941333 0.86200005 5.79210325e-39
2.38405713 0.14872001 0.85800004 5.701356563e-39
2.38569143 0.14872001 0.85800004 5.885040167e-39
2.38732573 0.14872001 0.85800004 6.06870135e-39
2.38896 0.14872001 0.85800004 5.793903919e-39
2.3905943 0.14872001 0.85800004 5.611307722e-39
2.3922286 0.14872001 0.85800004 6.254154794e-39
2.39386287 0.14872001 0.85800004 6.988852777e-39
2.39549717 0.14872001 0.85800004 7.080703687e-39
2.39620572 0.14837334 0.85600007 7.264717997e-39
2.39783621 0.14837334 0.85600007 7.356538079e-39
2.39946669 0.14837334 0.85600007 7.540567804e-39
2.40109718 0.14837334 0.85600007 7.540926536e-39
2.40272766 0.14837334 0.85600007 7.633473892e-39
2.40435812 0.14837334 0.85600007 7.820726603e-39
2.40504003 0.14802667 0.85400003 8.003680131e-39
2.4066667 0.14802667 0.85400003 8.09443943e-39
2.40829334 0.14802667 0.85400003 8.183053341e-39
2.40992001 0.14802667 0.85400003 8.368885135e-39
2.41154668 0.14802667 0.85400003 8.551119797e-39
2.41317335 0.14802667 0.85400003 8.552553325e-39
2.41480002 0.14802667 0.85400003 8.553274994e-39
2.41740194 0.14837334 0.85600007 8.554356796e-39
2.41903242 0.14837334 0.85600007 8.646909757e-39
2.42066291 0.14837334 0.85600007 8.738745253e-39
2.42229334 0.14837334 0.85600007 8.922780583e-39
2.42392382 0.14837334 0.85600007 9.381246204e-39
2.42456001 0.14802667 0.85400003 9.929029188e-39
2.42618665 0.14802667 0.85400003 9.562044535e-39
2.42881528 0.14837334 0.85600007 9.196483601e-39
2.43044576 0.14837334 0.85600007 9.012799997e-39
2.43207622 0.14837334 0.85600007 8.829508756e-39
2.43269333 0.14802667 0.85400003 8.738053012e-39
2.43432 0.14802667 0.85400003 8.738037598e-39
2.43594667 0.14802667 0.85400003 8.739099782e-39
2.43859813 0.14837334 0.85600007 8.83129401e-39
2.44022858 0.14837334 0.85600007 8.923129507e-39
2.44185907 0.14837334 0.85600007 9.014965003e-39
2.44348955 0.14837334 0.85600007 8.923130908e-39
2.44512004 0.14837334 0.85600007 8.831313629e-39
2.44675052 0.14837334 0.85600007 8.922808609e-39
2.44838101 0.14837334 0.85600007 8.922433061e-39
2.37546667 0.15701333 0.89600003 4.048300817e-39
2.37717333 0.15701333 0.89600003 4.231969006e-39
2.37887999 0.15701333 0.89600003 4.41599733e-39
2.37676382 0.1554362 0.88700002 4.691503818e-39
2.37717336 0.15491048 0.88400006 4.782263117e-39
2.37800002 0.15456001 0.88200003 4.965936912e-39
2.37968001 0.15456001 0.88200003 4.874462951e-39
2.38049525 0.15420954 0.88000005 4.874102817e-39
2.38130286 0.15385905 0.87800002 5.056696211e-39
2.38079429 0.15298286 0.87300003 5.332561432e-39
2.38158098 0.15263239 0.87100005 4.96557818e-39
2.38235998 0.1522819 0.86900002 4.688995494e-39
2.38401523 0.1522819 0.86900002 5.240367203e-39
2.38478288 0.15193143 0.86700004 5.791024251e-39
2.3855429 0.15158097 0.86500007 5.422967604e-39
2.3849524 0.15070477 0.86000001 5.149977847e-39
2.38659048 0.15070477 0.86000001 5.51768417e-39
2.38913143 0.15105523 0.86200005 5.976498714e-39
2.38986668 0.15070477 0.86000001 6.068330006e-39
2.39150476 0.15070477 0.86000001 6.160164101e-39
2.3922286 0.1503543 0.85800004 6.527863417e-39
2.39386287 0.1503543 0.85800004 6.896288605e-39
2.39549717 0.1503543 0.85800004 6.89737321e-39
2.39713144 0.1503543 0.85800004 6.989200299e-39
2.39783621 0.15000382 0.85600007 7.172504151e-39
2.39946669 0.15000382 0.85600007 7.356179347e-39
2.40203428 0.1503543 0.85800004 7.358335945e-39
2.40272766 0.15000382 0.85600007 7.450164435e-39
2.40435812 0.15000382 0.85600007 7.637774477e-39
2.4059886 0.15000382 0.85600007 7.911485902e-39
2.40761906 0.15000382 0.85600007 8.001527736e-39
2.40924954 0.15000382 0.85600007 8.093368838e-39
2.41088003 0.15000382 0.85600007 8.18521134e-39
2.41154668 0.14965333 0.85400003 8.368883734e-39
2.41414097 0.15000382 0.85600007 8.185572875e-39
2.41480002 0.14965333 0.85400003 8.094101717e-39
2.41740194 0.15000382 0.85600007 8.278854512e-39
2.41903242 0.15000382 0.85600007 8.4636003e-39
2.42066291 0.15000382 0.85600007 8.557228057e-39
2.42229334 0.15000382 0.85600007 8.73910819e-39
2.42392382 0.15000382 0.85600007 8.92206452e-39
2.42555431 0.15000382 0.85600007 9.195057079e-39
2.42718479 0.15000382 0.85600007 9.102501315e-39
2.42881528 0.15000382 0.85600007 9.011018946e-39
2.43044576 0.15000382 0.85600007 8.735866986e-39
2.43207622 0.15000382 0.85600007 8.553642134e-39
2.4337067 0.15000382 0.85600007 8.462894045e-39
2.43533719 0.15000382 0.85600007 8.371050142e-39
2.43696764 0.15000382 0.85600007 8.463596096e-39
2.43859813 0.15000382 0.85600007 8.555075662e-39
2.44022858 0.15000382 0.85600007 8.555078465e-39
2.44185907 0.15000382 0.85600007 8.556150458e-39
2.44348955 0.15000382 0.85600007 8.465388357e-39
2.44512004 0.15000382 0.85600007 8.46396744e-39
2.44675052 0.15000382 0.85600007 8.463622721e-39
2.44838101 0.15000382 0.85600007 8.55508407e-39
2.37803432 0.15836573 0.89400005 4.415279865e-39
2.37761334 0.15748 0.88900006 4.599668322e-39
2.37717336 0.15659429 0.88400006 4.782980582e-39
2.37800002 0.15624 0.88200003 5.058488472e-39
2.37968001 0.15624 0.88200003 5.058491274e-39
2.38049525 0.15588573 0.88000005 5.058491274e-39
2.38130286 0.15553142 0.87800002 5.058491274e-39
2.38166669 0.15500002 0.87500006 5.058489873e-39
2.38245717 0.15464571 0.87300003 5.057413676e-39
2.38324004 0.15429144 0.87100005 5.056696211e-39
2.38401523 0.15393715 0.86900002 5.515873692e-39
2.38567048 0.15393715 0.86900002 5.974695243e-39
2.38643429 0.15358287 0.86700004 6.065816077e-39
2.38719049 0.15322858 0.86500007 6.159802566e-39
2.38748953 0.15269716 0.86200005 6.068683133e-39
2.39048573 0.15322858 0.86500007 6.069402e-39
2.39077333 0.15269716 0.86200005 6.068685936e-39
2.39241526 0.15269716 0.86200005 6.160159897e-39
2.39314288 0.15234286 0.86000001 6.43494752e-39
2.39478096 0.15234286 0.86000001 6.710095276e-39
2.39641905 0.15234286 0.86000001 6.530013009e-39
2.39713144 0.15198858 0.85800004 6.254863851e-39
2.39783621 0.15163431 0.85600007 6.621129639e-39
2.39946669 0.15163431 0.85600007 7.079955394e-39
2.40109718 0.15163431 0.85600007 7.173951692e-39
2.40366858 0.15198858 0.85800004 7.359049206e-39
2.40530288 0.15198858 0.85800004 7.543429255e-39
2.4059886 0.15163431 0.85600007 7.727816311e-39
2.40761906 0.15163431 0.85600007 7.909333508e-39
2.40924954 0.15163431 0.85600007 8.094084901e-39
2.41088003 0.15163431 0.85600007 8.18556727e-39
2.41251051 0.15163431 0.85600007 8.27740697e-39
2.41414097 0.15163431 0.85600007 8.277412576e-39
2.41577145 0.15163431 0.85600007 8.278135646e-39
2.41740194 0.15163431 0.85600007 8.278141251e-39
2.41903242 0.15163431 0.85600007 8.372126339e-39
2.42066291 0.15163431 0.85600007 8.188452544e-39
2.42229334 0.15163431 0.85600007 8.096617048e-39
2.42392382 0.15163431 0.85600007 8.462884236e-39
2.42555431 0.15163431 0.85600007 8.828428355e-39
2.42718479 0.15163431 0.85600007 8.73587119e-39
2.42881528 0.15163431 0.85600007 8.735872592e-39
2.43044576 0.15163431 0.85600007 8.64439863e-39
2.43207622 0.15163431 0.85600007 8.553282e-39
2.4337067 0.15163431 0.85600007 8.462524103e-39
2.43533719 0.15163431 0.85600007 8.463241567e-39
2.43696764 0.15163431 0.85600007 8.371406071e-39
2.43859813 0.15163431 0.85600007 8.371410275e-39
2.44022858 0.15163431 0.85600007 8.279580384e-39
2.44289145 0.15198858 0.85800004 8.281365638e-39
2.44348955 0.15163431 0.85600007 8.189164403e-39
2.44616002 0.15198858 0.85800004 8.188456748e-39
2.44779429 0.15198858 0.85800004 8.186672895e-39
2.44942859 0.15198858 0.85800004 8.276702117e-39
2.37803432 0.16006857 0.89400005 4.413846337e-39
2.37761334 0.15917334 0.88900006 4.506399298e-39
2.3793067 0.15917334 0.88900006 4.782981983e-39
2.37800002 0.15792 0.88200003 5.149249172e-39
2.37968001 0.15792 0.88200003 5.240370006e-39
2.38049525 0.15756191 0.88000005 5.332921566e-39
2.38217145 0.15756191 0.88000005 5.058491274e-39
2.38166669 0.15666668 0.87500006 4.874101416e-39
2.38333336 0.15666668 0.87500006 5.149249172e-39
2.38324004 0.15595049 0.87100005 5.516232424e-39
2.38489905 0.15595049 0.87100005 5.791738913e-39
2.38655812 0.15595049 0.87100005 6.158723566e-39
2.38821715 0.15595049 0.87100005 6.709019078e-39
2.38898098 0.15559238 0.86900002 7.260030654e-39
2.38973716 0.15523429 0.86700004 6.70937641e-39
2.39138857 0.15523429 0.86700004 6.161592024e-39
2.39213336 0.1548762 0.86500007 6.161593426e-39
2.39378098 0.1548762 0.86500007 6.160157095e-39
2.39405715 0.15433906 0.86200005 6.342391756e-39
2.39569905 0.15433906 0.86200005 6.618617111e-39
2.39734098 0.15433906 0.86200005 6.070834127e-39
2.39805716 0.15398096 0.86000001 5.611655245e-39
2.39876571 0.15362285 0.85800004 6.161950757e-39
2.40040001 0.15362285 0.85800004 6.805519497e-39
2.40297142 0.15398096 0.86000001 7.081747654e-39
2.40366858 0.15362285 0.85800004 7.357249939e-39
2.40624762 0.15398096 0.86000001 7.449441365e-39
2.40693715 0.15362285 0.85800004 7.633475294e-39
2.40952381 0.15398096 0.86000001 7.817509222e-39
2.4111619 0.15398096 0.86000001 8.094090507e-39
2.41279998 0.15398096 0.86000001 8.18556727e-39
2.41347429 0.15362285 0.85800004 8.277415378e-39
2.41510859 0.15362285 0.85800004 8.369264887e-39
2.41674286 0.15362285 0.85800004 8.461094778e-39
2.41837716 0.15362285 0.85800004 8.369255078e-39
2.42001146 0.15362285 0.85800004 8.370329874e-39
2.42164573 0.15362285 0.85800004 7.912585922e-39
2.42328003 0.15362285 0.85800004 7.453055314e-39
2.4249143 0.15362285 0.85800004 7.911881069e-39
2.42555431 0.15326478 0.85600007 8.461808039e-39
2.42718479 0.15326478 0.85600007 8.4603633e-39
2.42881528 0.15326478 0.85600007 8.553273593e-39
2.43044576 0.15326478 0.85600007 8.55434979e-39
2.43207622 0.15326478 0.85600007 8.554351191e-39
2.4337067 0.15326478 0.85600007 8.554352592e-39
2.43533719 0.15326478 0.85600007 8.553995261e-39
2.43696764 0.15326478 0.85600007 8.37032567e-39
2.43962288 0.15362285 0.85800004 8.187374945e-39
2.44125715 0.15362285 0.85800004 8.096259717e-39
2.4439238 0.15398096 0.86000001 8.096614245e-39
2.44556189 0.15398096 0.86000001 8.005133277e-39
2.4472 0.15398096 0.86000001 7.912592928e-39
2.44883808 0.15398096 0.86000001 8.001928508e-39
2.4504762 0.15398096 0.86000001 8.092675195e-39
2.37761334 0.16086666 0.88900006 4.413130273e-39
2.3793067 0.16086666 0.88900006 4.780473659e-39
2.38014287 0.16050476 0.88700002 5.056340281e-39
2.38183239 0.16050476 0.88700002 5.239653942e-39
2.3822248 0.15996191 0.88400006 5.51515903e-39
2.3839086 0.15996191 0.88400006 4.965938313e-39
2.38384765 0.1592381 0.88000005 4.506400699e-39
2.38464761 0.1588762 0.87800002 4.874101416e-39
2.38412002 0.15797144 0.87300003 5.333637629e-39
2.38666669 0.15833335 0.87500006 5.608428054e-39
2.38744572 0.15797144 0.87300003 5.975409905e-39
2.38821715 0.15760952 0.87100005 6.342750488e-39
2.38987622 0.15760952 0.87100005 6.710091072e-39
2.39063618 0.15724762 0.86900002 6.436019513e-39
2.39229143 0.15724762 0.86900002 6.161947954e-39
2.39304 0.15688573 0.86700004 6.253065985e-39
2.39469144 0.15688573 0.86700004 6.439248105e-39
2.3954286 0.15652381 0.86500007 6.434943316e-39
2.39707622 0.15652381 0.86500007 6.435303449e-39
2.39734098 0.15598096 0.86200005 6.162668221e-39
2.39898288 0.15598096 0.86200005 5.980072025e-39
2.39969522 0.15561906 0.86000001 6.34741401e-39
2.40133333 0.15561906 0.86000001 6.806590089e-39
2.40297142 0.15561906 0.86000001 6.989902349e-39
2.4046095 0.15561906 0.86000001 7.080663049e-39
2.40624762 0.15561906 0.86000001 7.266487837e-39
2.4078857 0.15561906 0.86000001 7.543080332e-39
2.40952381 0.15561906 0.86000001 7.634927039e-39
2.4111619 0.15561906 0.86000001 7.726755528e-39
2.41279998 0.15561906 0.86000001 7.910419514e-39
2.4144381 0.15561906 0.86000001 8.186305755e-39
2.41607618 0.15561906 0.86000001 8.369640435e-39
2.41674286 0.15525715 0.85800004 8.646566439e-39
2.41837716 0.15525715 0.85800004 8.553639331e-39
2.42001146 0.15525715 0.85800004 8.368892142e-39
2.42164573 0.15525715 0.85800004 8.277056646e-39
2.42426667 0.15561906 0.86000001 8.185591092e-39
2.4249143 0.15525715 0.85800004 8.186321169e-39
2.42654857 0.15525715 0.85800004 8.278858716e-39
2.42818287 0.15525715 0.85800004 8.276333576e-39
2.42881528 0.15489525 0.85600007 8.273459513e-39
2.43145144 0.15525715 0.85800004 8.277042633e-39
2.43308574 0.15525715 0.85800004 8.277402766e-39
2.4337067 0.15489525 0.85600007 8.278123034e-39
2.43533719 0.15489525 0.85600007 8.277408372e-39
2.43798861 0.15525715 0.85800004 8.094098914e-39
2.43962288 0.15525715 0.85800004 7.908275528e-39
2.44228572 0.15561906 0.86000001 7.636356363e-39
2.4439238 0.15561906 0.86000001 7.268296914e-39
2.44556189 0.15561906 0.86000001 7.544520867e-39
2.4472 0.15561906 0.86000001 7.728923337e-39
2.44883808 0.15561906 0.86000001 7.725708758e-39
2.4504762 0.15561906 0.86000001 7.724977281e-39
2.38014287 0.16219428 0.88700002 5.057424886e-39
2.38355431 0.16292572 0.89100003 5.333657247e-39
2.38352188 0.16219428 0.88700002 5.700632092e-39
2.3839086 0.16164573 0.88400006 4.873746887e-39
2.3855924 0.16164573 0.88400006 4.139418848e-39
2.38552383 0.16091429 0.88000005 4.600028456e-39
2.38632002 0.16054857 0.87800002 5.150688306e-39
2.38799238 0.16054857 0.87800002 5.518037297e-39
2.38833335 0.16000001 0.87500006 5.883578613e-39
2.39000002 0.16000001 0.87500006 6.067244e-39
2.39077142 0.15963428 0.87300003 6.250914992e-39
2.39153525 0.15926857 0.87100005 6.161590623e-39
2.39319432 0.15926857 0.87100005 6.161236094e-39
2.39485335 0.15926857 0.87100005 6.436388054e-39
2.39651239 0.15926857 0.87100005 6.711531607e-39
2.39725712 0.15890287 0.86900002 6.52785641e-39
2.39799428 0.15853715 0.86700004 6.343836495e-39
2.39872384 0.15817145 0.86500007 6.346356029e-39
2.40037146 0.15817145 0.86500007 6.346706354e-39
2.40062478 0.15762287 0.86200005 6.622561766e-39
2.40226668 0.15762287 0.86200005 6.898066853e-39
2.40390861 0.15762287 0.86200005 6.898066853e-39
2.40555051 0.15762287 0.86200005 6.896631923e-39
2.40719241 0.15762287 0.86200005 7.175727137e-39
2.40883431 0.15762287 0.86200005 7.450880498e-39
2.41047621 0.15762287 0.86200005 7.450886104e-39
2.41211811 0.15762287 0.86200005 7.451599365e-39
2.41279998 0.15725714 0.86000001 7.727819114e-39
2.4144381 0.15725714 0.86000001 8.09481778e-39
2.41607618 0.15725714 0.86000001 8.461817848e-39
2.4177143 0.15725714 0.86000001 8.92134145e-39
2.41837716 0.15689144 0.85800004 8.647617413e-39
2.42001146 0.15689144 0.85800004 8.461077963e-39
2.42164573 0.15689144 0.85800004 8.643316828e-39
2.42426667 0.15725714 0.86000001 8.918830323e-39
2.42590478 0.15725714 0.86000001 8.459659849e-39
2.42654857 0.15689144 0.85800004 8.092306654e-39
2.42818287 0.15689144 0.85800004 8.000461348e-39
2.42981714 0.15689144 0.85800004 8.000099813e-39
2.43245715 0.15725714 0.86000001 7.999738278e-39
2.43308574 0.15689144 0.85800004 8.093368838e-39
2.43472001 0.15689144 0.85800004 8.095163901e-39
2.43635431 0.15689144 0.85800004 8.093011507e-39
2.43798861 0.15689144 0.85800004 7.910059381e-39
2.4406476 0.15725714 0.86000001 7.727110057e-39
2.44228572 0.15725714 0.86000001 7.084981851e-39
2.4439238 0.15725714 0.86000001 6.533611543e-39
2.44556189 0.15725714 0.86000001 7.08462452e-39
2.4472 0.15725714 0.86000001 7.634212377e-39
2.44883808 0.15725714 0.86000001 7.449473595e-39
2.4504762 0.15725714 0.86000001 7.357626888e-39
2.38355431 0.16462286 0.89100003 5.425509559e-39
2.38438669 0.16425335 0.88900006 6.067266421e-39
2.38521144 0.16388381 0.88700002 5.240732942e-39
2.3855924 0.16332954 0.88400006 4.507478297e-39
2.3872762 0.16332954 0.88400006 4.78262185e-39
2.38808 0.16295999 0.88200003 5.056345886e-39
2.38887623 0.16259049 0.88000005 5.332941184e-39
2.38966477 0.16222095 0.87800002 5.60807773e-39
2.39133716 0.16222095 0.87800002 5.791738913e-39
2.39077142 0.16129714 0.87300003 5.975768637e-39
2.39243427 0.16129714 0.87300003 5.975411306e-39
2.39409715 0.16129714 0.87300003 5.975419714e-39
2.39576 0.16129714 0.87300003 6.525723634e-39
2.39742285 0.16129714 0.87300003 7.076369471e-39
2.39817145 0.16092762 0.87100005 6.618618512e-39
2.39983049 0.16092762 0.87100005 6.25236954e-39
2.40056762 0.16055809 0.86900002 6.344221852e-39
2.40129718 0.16018859 0.86700004 6.527874627e-39
2.40201905 0.15981905 0.86500007 6.620410773e-39
2.40226668 0.15926477 0.86200005 6.805156561e-39
2.40390861 0.15926477 0.86200005 6.897708121e-39
2.40555051 0.15926477 0.86200005 6.988108687e-39
2.40719241 0.15926477 0.86200005 7.356885601e-39
2.40883431 0.15926477 0.86200005 7.817498012e-39
2.41047621 0.15926477 0.86200005 7.541634192e-39
2.41211811 0.15926477 0.86200005 7.357603066e-39
2.41376004 0.15926477 0.86200005 7.541274058e-39
2.41540194 0.15926477 0.86200005 7.72495486e-39
2.41704383 0.15926477 0.86200005 8.001547355e-39
2.41868573 0.15926477 0.86200005 8.278121633e-39
2.41935238 0.15889524 0.86000001 8.277755894e-39
2.42099047 0.15889524 0.86000001 8.277758696e-39
2.42262858 0.15889524 0.86000001 8.368880931e-39
2.42525336 0.15926477 0.86200005 8.460000364e-39
2.42590478 0.15889524 0.86000001 8.184137946e-39
2.42754287 0.15889524 0.86000001 8.002253609e-39
2.42918095 0.15889524 0.86000001 7.910053775e-39
2.42981714 0.15852572 0.85800004 7.818216878e-39
2.43245715 0.15889524 0.86000001 7.817856744e-39
2.43409526 0.15889524 0.86000001 7.90969224e-39
2.43573335 0.15889524 0.86000001 7.909334909e-39
2.43737143 0.15889524 0.86000001 7.908974775e-39
2.43900955 0.15889524 0.86000001 7.726021248e-39
2.4406476 0.15889524 0.86000001 7.543433459e-39
2.44331428 0.15926477 0.86200005 7.082828055e-39
2.44495621 0.15926477 0.86200005 6.714411275e-39
2.44659814 0.15926477 0.86200005 7.264708188e-39
2.44824004 0.15926477 0.86200005 7.815366637e-39
2.44883808 0.15889524 0.86000001 7.446952659e-39
2.4504762 0.15889524 0.86000001 7.170720298e-39
2.38438669 0.16594668 0.88900006 6.435318864e-39
2.38608003 0.16594668 0.88900006 5.608073526e-39
2.38690096 0.16557334 0.88700002 4.873385352e-39
2.3872762 0.16501334 0.88400006 4.873739881e-39
2.38896 0.16501334 0.88400006 4.965939715e-39
2.38976002 0.16464001 0.88200003 5.149976446e-39
2.3905524 0.16426668 0.88000005 5.425118597e-39
2.3922286 0.16426668 0.88000005 5.608425252e-39
2.39300951 0.16389333 0.87800002 5.792097645e-39
2.39333335 0.16333334 0.87500006 5.79245918e-39
2.39500001 0.16333334 0.87500006 5.883222683e-39
2.39576 0.16295999 0.87300003 6.617194793e-39
2.39742285 0.16295999 0.87300003 7.443708653e-39
2.39908573 0.16295999 0.87300003 6.801213307e-39
2.39983049 0.16258667 0.87100005 6.251643667e-39
2.40148956 0.16258667 0.87100005 6.437832793e-39
2.40222287 0.16221334 0.86900002 6.711178479e-39
2.40387812 0.16221334 0.86900002 6.711530205e-39
2.4036667 0.16146667 0.86500007 6.804440497e-39
2.40531433 0.16146667 0.86500007 6.989545018e-39
2.40696192 0.16146667 0.86500007 7.171063616e-39
2.40860957 0.16146667 0.86500007 7.629882364e-39
2.41025716 0.16146667 0.86500007 8.181971538e-39
2.41190478 0.16146667 0.86500007 7.723870255e-39
2.41211811 0.16090667 0.86200005 7.265052908e-39
2.41376004 0.16090667 0.86200005 7.359759664e-39
2.41540194 0.16090667 0.86200005 7.448380582e-39
2.41704383 0.16090667 0.86200005 7.53987276e-39
2.41868573 0.16090667 0.86200005 7.72461014e-39
2.42032763 0.16090667 0.86200005 7.909347521e-39
2.42196953 0.16090667 0.86200005 8.093377246e-39
2.42361143 0.16090667 0.86200005 8.094812175e-39
2.42525336 0.16090667 0.86200005 8.093018513e-39
2.42689526 0.16090667 0.86200005 8.000822883e-39
2.42853716 0.16090667 0.86200005 7.909341916e-39
2.42918095 0.16053332 0.86000001 7.726024051e-39
2.43081906 0.16053332 0.86000001 7.634547287e-39
2.43346286 0.16090667 0.86200005 7.634545886e-39
2.43510476 0.16090667 0.86200005 7.726025452e-39
2.43674669 0.16090667 0.86200005 7.724952057e-39
2.43737143 0.16053332 0.86000001 7.724591924e-39
2.43900955 0.16053332 0.86000001 7.540562199e-39
2.44167238 0.16090667 0.86200005 7.35689541e-39
2.44485718 0.16146667 0.86500007 7.173587354e-39
2.4465048 0.16146667 0.86500007 6.988842967e-39
2.44659814 0.16090667 0.86200005 7.44658692e-39
2.44824004 0.16090667 0.86200005 7.997601298e-39
2.44988194 0.16090667 0.86200005 7.538423817e-39
2.45152384 0.16090667 0.86200005 7.080315527e-39
2.38438669 0.16764002 0.88900006 5.609868589e-39
2.38608003 0.16764002 0.88900006 5.241088872e-39
2.38690096 0.16726287 0.88700002 4.873025219e-39
2.38859048 0.16726287 0.88700002 4.781904385e-39
2.39028001 0.16726287 0.88700002 4.598593526e-39
2.39064384 0.16669716 0.88400006 4.874101416e-39
2.39144 0.16632 0.88200003 5.149965236e-39
2.3922286 0.16594286 0.88000005 5.333276094e-39
2.39300951 0.16556571 0.87800002 5.51695129e-39
2.3946819 0.16556571 0.87800002 5.700985219e-39
2.39635429 0.16556571 0.87800002 5.882862549e-39
2.39666671 0.16500001 0.87500006 6.250564668e-39
2.39833337 0.16500001 0.87500006 6.618621314e-39
2.39908573 0.16462286 0.87300003 6.343113425e-39
2.39983049 0.16424572 0.87100005 6.067605535e-39
2.40148956 0.16424572 0.87100005 6.527140347e-39
2.40222287 0.16386856 0.86900002 7.078513457e-39
2.40387812 0.16386856 0.86900002 6.985244433e-39
2.40460002 0.16349144 0.86700004 6.800495842e-39
2.40625146 0.16349144 0.86700004 6.893764867e-39
2.40696192 0.16311431 0.86500007 7.078870789e-39
2.40860957 0.16311431 0.86500007 7.354377277e-39
2.41025716 0.16311431 0.86500007 7.630242498e-39
2.41190478 0.16311431 0.86500007 7.356888404e-39
2.4135524 0.16311431 0.86500007 6.989190489e-39
2.41520002 0.16311431 0.86500007 7.080671457e-39
2.41684765 0.16311431 0.86500007 7.172166438e-39
2.41849527 0.16311431 0.86500007 7.264380285e-39
2.42014289 0.16311431 0.86500007 7.449116264e-39
2.42032763 0.16254859 0.86200005 7.632776046e-39
2.42196953 0.16254859 0.86200005 7.816801566e-39
2.42361143 0.16254859 0.86200005 7.817516229e-39
2.42673337 0.16311431 0.86500007 7.910064986e-39
2.42689526 0.16254859 0.86200005 7.817509222e-39
2.42853716 0.16254859 0.86200005 7.817146286e-39
2.43017906 0.16254859 0.86200005 7.634189956e-39
2.43182096 0.16254859 0.86200005 7.543071924e-39
2.43346286 0.16254859 0.86200005 7.450877696e-39
2.43661907 0.16311431 0.86500007 7.359046404e-39
2.43674669 0.16254859 0.86200005 7.265062717e-39
2.43838859 0.16254859 0.86200005 7.169998629e-39
2.44003049 0.16254859 0.86200005 6.988838764e-39
2.44320953 0.16311431 0.86500007 6.80481044e-39
2.44485718 0.16311431 0.86500007 6.712617613e-39
2.4465048 0.16311431 0.86500007 6.620426187e-39
2.44659814 0.16254859 0.86200005 6.987053509e-39
2.44824004 0.16254859 0.86200005 7.354033959e-39
2.44988194 0.16254859 0.86200005 6.620782117e-39
2.45152384 0.16254859 0.86200005 5.796049307e-39
2.38608003 0.16933335 0.88900006 4.874462951e-39
2.38777333 0.16933335 0.88900006 4.965936912e-39
2.38859048 0.16895239 0.88700002 4.598233393e-39
2.39028001 0.16895239 0.88700002 4.322368172e-39
2.39196953 0.16895239 0.88700002 4.597876061e-39
2.39232764 0.16838096 0.88400006 4.874457346e-39
2.39311999 0.16800001 0.88200003 5.056693408e-39
2.39390481 0.16761906 0.88000005 5.24145321e-39
2.3946819 0.1672381 0.87800002 5.517691176e-39
2.39635429 0.1672381 0.87800002 5.883945753e-39
2.39802667 0.1672381 0.87800002 5.884652007e-39
2.39969906 0.1672381 0.87800002 5.884293275e-39
2.40000004 0.16666669 0.87500006 5.883935944e-39
2.40074858 0.16628572 0.87300003 5.883218479e-39
2.40241143 0.16628572 0.87300003 6.709021881e-39
2.40314859 0.16590478 0.87100005 7.534823882e-39
2.40480766 0.16590478 0.87100005 7.166765833e-39
2.40553331 0.16552381 0.86900002 6.891974007e-39
2.40718856 0.16552381 0.86900002 6.894123599e-39
2.4079029 0.16514286 0.86700004 6.987394025e-39
2.4095543 0.16514286 0.86700004 7.082097979e-39
2.41120574 0.16514286 0.86700004 7.173934876e-39
2.41190478 0.16476192 0.86500007 6.990263884e-39
2.4135524 0.16476192 0.86500007 6.806235561e-39
2.41520002 0.16476192 0.86500007 6.897712324e-39
2.41684765 0.16476192 0.86500007 6.989203101e-39
2.41849527 0.16476192 0.86500007 7.08105261e-39
2.42014289 0.16476192 0.86500007 7.173598565e-39
2.42179051 0.16476192 0.86500007 7.357621283e-39
2.42343813 0.16476192 0.86500007 7.540932142e-39
2.42508572 0.16476192 0.86500007 7.633843835e-39
2.42673337 0.16476192 0.86500007 7.81751763e-39
2.428381 0.16476192 0.86500007 7.726043669e-39
2.43002859 0.16476192 0.86500007 7.726039465e-39
2.43167624 0.16476192 0.86500007 7.634557096e-39
2.43332386 0.16476192 0.86500007 7.542720198e-39
2.43497145 0.16476192 0.86500007 7.26721371e-39
2.43762857 0.16514286 0.86700004 6.990270891e-39
2.43826669 0.16476192 0.86500007 6.8055223e-39
2.43991432 0.16476192 0.86500007 6.712972141e-39
2.44156194 0.16476192 0.86500007 6.528946621e-39
2.44423428 0.16514286 0.86700004 6.345272826e-39
2.44588572 0.16514286 0.86700004 6.345271424e-39
2.44753715 0.16514286 0.86700004 6.343836495e-39
2.44815239 0.16476192 0.86500007 6.526072557e-39
2.44980004 0.16476192 0.86500007 6.800858778e-39
2.45144767 0.16476192 0.86500007 5.698113958e-39
2.45309526 0.16476192 0.86500007 4.593932808e-39
2.38608003 0.17102668 0.88900006 5.243238464e-39
2.38777333 0.17102668 0.88900006 5.609860181e-39
2.3894667 0.17102668 0.88900006 4.873022416e-39
2.39116001 0.17102668 0.88900006 4.229456478e-39
2.39196953 0.17064191 0.88700002 4.139057313e-39
2.39232764 0.17006476 0.88400006 4.139773377e-39
2.39311999 0.16968 0.88200003 4.506397896e-39
2.39390481 0.16929525 0.88000005 4.874121034e-39
2.39558098 0.16929525 0.88000005 5.148932479e-39
2.39725715 0.16929525 0.88000005 5.424057814e-39
2.39802667 0.16891047 0.87800002 5.239646936e-39
2.39969906 0.16891047 0.87800002 5.147096778e-39
2.40137142 0.16891047 0.87800002 5.422606069e-39
2.4016667 0.16833335 0.87500006 5.789950856e-39
2.40241143 0.16794857 0.87300003 5.973624651e-39
2.40407428 0.16794857 0.87300003 6.249489872e-39
2.40480766 0.16756383 0.87100005 6.340968037e-39
2.40646669 0.16756383 0.87100005 6.524634825e-39
2.40718856 0.16717905 0.86900002 6.618618512e-39
2.40884382 0.16717905 0.86900002 6.620769505e-39
2.4095543 0.16679429 0.86700004 6.621126836e-39
2.41215432 0.16717905 0.86900002 6.62148697e-39
2.41285717 0.16679429 0.86700004 6.529294143e-39
2.4135524 0.16640954 0.86500007 6.345261615e-39
2.41520002 0.16640954 0.86500007 6.43853064e-39
2.41684765 0.16640954 0.86500007 6.532168206e-39
2.41849527 0.16640954 0.86500007 6.530384353e-39
2.42014289 0.16640954 0.86500007 6.622934511e-39
2.42179051 0.16640954 0.86500007 6.898079465e-39
2.42343813 0.16640954 0.86500007 7.081751858e-39
2.42508572 0.16640954 0.86500007 7.265065519e-39
2.42673337 0.16640954 0.86500007 7.540581817e-39
2.428381 0.16640954 0.86500007 7.723545154e-39
2.43102288 0.16679429 0.86700004 7.906850407e-39
2.43167624 0.16640954 0.86500007 7.632055778e-39
2.43432572 0.16679429 0.86700004 7.44945818e-39
2.43597716 0.16679429 0.86700004 7.264350857e-39
2.43762857 0.16679429 0.86700004 7.079596661e-39
2.43928 0.16679429 0.86700004 6.346342016e-39
2.44093144 0.16679429 0.86700004 5.613457314e-39
2.44258288 0.16679429 0.86700004 4.877704154e-39
2.44525903 0.16717905 0.86900002 4.141938383e-39
2.44691429 0.16717905 0.86900002 4.505688839e-39
2.44856954 0.16717905 0.86900002 4.869439296e-39
