# .PCD v0.7 - Point Cloud Data file format
VERSION 0.7
FIELDS x y z rgb
SIZE 4 4 4 4
TYPE F F F F
COUNT 1 1 1 1
WIDTH 967
HEIGHT 1
VIEWPOINT 0 0 0 1 0 0 0
POINTS 967
DATA ascii
0.18336381 2.08518476 0.75800002 1.306364697e-38
0.18529525 2.08540953 0.76000005 1.278850062e-38
0.18674287 2.08540953 0.76000005 1.251335847e-38
0.18819048 2.08540953 0.76000005 1.297792254e-38
0.18963811 2.08540953 0.76000005 1.352893972e-38
0.19108573 2.08540953 0.76000005 1.371297505e-38
0.19278668 2.085521907 0.76100004 1.398883747e-38
0.1942362 2.085521907 0.76100004 1.408067156e-38
0.19542858 2.08540953 0.76000005 1.417250846e-38
0.19713524 2.085521907 0.76100004 1.426434676e-38
0.19858477 2.085521907 0.76100004 1.435618366e-38
0.20003429 2.085521907 0.76100004 1.435618646e-38
0.20148382 2.085521907 0.76100004 1.444155917e-38
0.20346667 2.085746668 0.76300001 1.444801075e-38
0.20491999 2.085746668 0.76300001 1.454378109e-38
0.20637333 2.085746668 0.76300001 1.435938142e-38
0.20837143 2.08597143 0.76500005 1.426683126e-38
0.20982857 2.08597143 0.76500005 1.426683406e-38
0.21128573 2.08597143 0.76500005 1.43590311e-38
0.21274288 2.08597143 0.76500005 1.454198883e-38
0.21420002 2.08597143 0.76500005 1.481677785e-38
0.21565716 2.08597143 0.76500005 1.463167193e-38
0.2171143 2.08597143 0.76500005 1.453878546e-38
0.21857144 2.08597143 0.76500005 1.463100491e-38
0.22002858 2.08597143 0.76500005 1.472317111e-38
0.22206476 2.086196192 0.76700002 1.481318492e-38
0.22381714 2.086308569 0.76800001 1.490322115e-38
0.22528 2.086308569 0.76800001 1.462842652e-38
0.22674286 2.086308569 0.76800001 1.43536403e-38
0.22820571 2.086308569 0.76800001 1.444548e-38
0.22966857 2.086308569 0.76800001 1.444584854e-38
0.23113143 2.086308569 0.76800001 1.453805258e-38
0.23259428 2.086308569 0.76800001 1.453841271e-38
0.23405714 2.086308569 0.76800001 1.463060974e-38
0.23552001 2.086308569 0.76800001 1.472389278e-38
0.23698285 2.086308569 0.76800001 1.463242863e-38
0.23844571 2.086308569 0.76800001 1.463312788e-38
0.23990858 2.086308569 0.76800001 1.481606459e-38
0.24137142 2.086308569 0.76800001 1.499903213e-38
0.24283428 2.086308569 0.76800001 1.472497599e-38
0.24429713 2.086308569 0.76800001 1.454165111e-38
0.24576001 2.086308569 0.76800001 1.444800934e-38
0.24722287 2.086308569 0.76800001 1.426506282e-38
0.2486857 2.086308569 0.76800001 1.426507123e-38
0.25014856 2.086308569 0.76800001 1.435474312e-38
0.25161144 2.086308569 0.76800001 1.426469008e-38
0.25307429 2.086308569 0.76800001 1.426472091e-38
0.25453714 2.086308569 0.76800001 1.4264393e-38
0.25666666 2.086533338 0.77000004 1.426221538e-38
0.25813335 2.086533338 0.77000004 1.426219016e-38
0.25960001 2.086533338 0.77000004 1.416965822e-38
0.26106668 2.086533338 0.77000004 1.453881489e-38
0.26253334 2.086533338 0.77000004 1.499904334e-38
0.264 2.086533338 0.77000004 1.47231543e-38
0.26546669 2.086533338 0.77000004 1.444729188e-38
0.26693335 2.086533338 0.77000004 1.463168454e-38
0.26840001 2.086533338 0.77000004 1.490755256e-38
0.26986668 2.086533338 0.77000004 1.444801915e-38
0.27062857 2.086308569 0.76800001 1.398957175e-38
0.27209145 2.086308569 0.76800001 1.435692634e-38
0.27355427 2.086308569 0.76800001 1.472425432e-38
0.27501714 2.086308569 0.76800001 1.463168874e-38
0.27612001 2.086196192 0.76700002 1.463133982e-38
0.27794284 2.086308569 0.76800001 1.481466329e-38
0.27940571 2.086308569 0.76800001 1.499795874e-38
0.28086856 2.086308569 0.76800001 1.490646656e-38
0.28233144 2.086308569 0.76800001 1.481498559e-38
0.28379428 2.086308569 0.76800001 1.490681828e-38
0.28525713 2.086308569 0.76800001 1.508977041e-38
0.28746668 2.086533338 0.77000004 1.518160591e-38
0.28893334 2.086533338 0.77000004 1.527380434e-38
0.2904 2.086533338 0.77000004 1.508978022e-38
0.29186669 2.086533338 0.77000004 1.499794332e-38
0.29333335 2.086533338 0.77000004 1.508977742e-38
0.29480001 2.086533338 0.77000004 1.518197725e-38
0.29626667 2.086533338 0.77000004 1.499938806e-38
0.29773337 2.086533338 0.77000004 1.472458642e-38
0.2992 2.086533338 0.77000004 1.463345578e-38
0.30066669 2.086533338 0.77000004 1.44508778e-38
0.30291808 2.086758092 0.77200001 1.454021899e-38
0.30438858 2.086758092 0.77200001 1.472029565e-38
0.30625525 2.086870477 0.77300006 1.49046785e-38
0.3085238 2.087095238 0.77500004 1.518091366e-38
0.31 2.087095238 0.77500004 1.490613725e-38
0.31228 2.08732 0.77700001 1.453913018e-38
0.31375998 2.08732 0.77700001 1.435507663e-38
0.31524 2.08732 0.77700001 1.408028761e-38
0.31672001 2.08732 0.77700001 1.389661802e-38
0.31901908 2.087544769 0.77900004 1.362145064e-38
0.32050288 2.087544769 0.77900004 1.426176977e-38
0.32198671 2.087544769 0.77900004 1.481174579e-38
0.32347047 2.087544769 0.77900004 1.444336824e-38
0.32537144 2.087657146 0.78000003 1.398381662e-38
0.32685715 2.087657146 0.78000003 1.380013161e-38
0.3291848 2.087881915 0.78200006 1.361645782e-38
0.33067432 2.087881915 0.78200006 1.352390345e-38
0.33216384 2.087881915 0.78200006 1.343098756e-38
0.33450669 2.088106669 0.78400004 1.342990715e-38
0.33600003 2.088106669 0.78400004 1.34291995e-38
0.33835429 2.088331431 0.78600001 1.351961128e-38
0.33985141 2.088331431 0.78600001 1.370183052e-38
0.34134859 2.088331431 0.78600001 1.333518919e-38
0.34284571 2.088331431 0.78600001 1.28770851e-38
0.34521905 2.0885562 0.78800005 1.269341131e-38
0.34716001 2.088668577 0.78900003 1.250973751e-38
0.34954667 2.088893332 0.79100001 1.223566455e-38
0.35105336 2.088893332 0.79100001 1.205198936e-38
0.35256001 2.088893332 0.79100001 1.195943359e-38
0.35406664 2.088893332 0.79100001 1.186688764e-38
0.3564724 2.089118101 0.79300004 1.168178872e-38
0.35798287 2.089118101 0.79300004 1.158922875e-38
0.36040002 2.089342862 0.79500002 1.12211623e-38
0.3628248 2.089567624 0.79700005 1.094529848e-38
0.36434287 2.089567624 0.79700005 1.057544817e-38
0.36632001 2.089680001 0.79800004 1.02988809e-38
0.36784002 2.089680001 0.79800004 1.002374856e-38
0.37028572 2.089904763 0.80000001 9.840781016e-39
0.37273908 2.090129524 0.80200005 9.473066286e-39
0.3752 2.090354286 0.80400002 9.197582219e-39
0.37766859 2.090579055 0.80600005 9.014652513e-39
0.38014477 2.090803809 0.80800003 8.922437265e-39
0.3816838 2.090803809 0.80800003 8.463957631e-39
0.38606858 2.091478094 0.81400001 8.005499016e-39
0.38761905 2.091478094 0.81400001 7.542018148e-39
0.39156002 2.092040002 0.81900007 7.170717495e-39
0.39408001 2.092264764 0.82100004 7.354018545e-39
0.39660764 2.092489518 0.82300001 7.53769234e-39
0.39817524 2.092489518 0.82300001 8.268791787e-39
0.40071431 2.092714287 0.82500005 9.000242961e-39
0.40521145 2.09338858 0.83100003 9.556273988e-39
0.40679428 2.09338858 0.83100003 1.020419096e-38
0.40837717 2.09338858 0.83100003 1.095076074e-38
0.40798667 2.092939049 0.82700002 1.17891492e-38
0.4095619 2.092939049 0.82700002 1.253534484e-38
0.41213146 2.093163818 0.82900006 1.31900497e-38
0.4137105 2.093163818 0.82900006 1.429783359e-38
0.13531429 2.084571429 0.74000001 1.158170799e-38
0.1367238 2.084571429 0.74000001 1.122334692e-38
0.13813335 2.084571429 0.74000001 1.279066142e-38
0.13954286 2.084571429 0.74000001 1.444119063e-38
0.14095238 2.084571429 0.74000001 1.425859863e-38
0.14236189 2.084571429 0.74000001 1.407528357e-38
0.14377144 2.084571429 0.74000001 1.389950329e-38
0.14557333 2.084800005 0.74200004 1.371331276e-38
0.14698668 2.084800005 0.74200004 1.361895913e-38
0.1486 2.084914289 0.74300003 1.352461111e-38
0.15001525 2.084914289 0.74300003 1.324695223e-38
0.15183809 2.085142866 0.74500006 1.306327563e-38
0.15366857 2.085371435 0.74700004 1.287959903e-38
0.15509143 2.085371435 0.74700004 1.278668874e-38
0.1565143 2.085371435 0.74700004 1.269449731e-38
0.15814857 2.085485712 0.74800003 1.260302615e-38
0.15957333 2.085485712 0.74800003 1.251191373e-38
0.16099809 2.085485712 0.74800003 1.251299413e-38
0.16285716 2.085714296 0.75000006 1.297612187e-38
0.16428573 2.085714296 0.75000006 1.352857398e-38
0.16615619 2.085942864 0.75200003 1.3805521e-38
0.16758858 2.085942864 0.75200003 1.417214973e-38
0.16902097 2.085942864 0.75200003 1.408031984e-38
0.17068 2.086057141 0.75300002 1.398954933e-38
0.17211428 2.086057141 0.75300002 1.371439036e-38
0.17354856 2.086057141 0.75300002 1.352856277e-38
0.17544763 2.086285718 0.75500005 1.343636574e-38
0.17688572 2.086285718 0.75500005 1.3436e-38
0.17832382 2.086285718 0.75500005 1.33441589e-38
0.17976192 2.086285718 0.75500005 1.324981087e-38
0.18120001 2.086285718 0.75500005 1.297358552e-38
0.18288001 2.086400002 0.75600004 1.278883693e-38
0.18480763 2.086628571 0.75800002 1.214562832e-38
0.18674287 2.086857148 0.76000005 1.150422599e-38
0.18819048 2.086857148 0.76000005 1.224107496e-38
0.18963811 2.086857148 0.76000005 1.30683161e-38
0.19108573 2.086857148 0.76000005 1.334490299e-38
0.19253334 2.086857148 0.76000005 1.371224217e-38
0.1942362 2.086971432 0.76100004 1.389591036e-38
0.19542858 2.086857148 0.76000005 1.407921842e-38
0.19713524 2.086971432 0.76100004 1.407921421e-38
0.19858477 2.086971432 0.76100004 1.417069098e-38
0.20003429 2.086971432 0.76100004 1.407885548e-38
0.20148382 2.086971432 0.76100004 1.407849675e-38
0.20346667 2.087199993 0.76300001 1.416997491e-38
0.20491999 2.087199993 0.76300001 1.43547193e-38
0.20637333 2.087199993 0.76300001 1.417248043e-38
0.20782667 2.087199993 0.76300001 1.398665845e-38
0.20928 2.087199993 0.76300001 1.398486619e-38
0.21073334 2.087199993 0.76300001 1.407598702e-38
0.21218666 2.087199993 0.76300001 1.416710786e-38
0.21364 2.087199993 0.76300001 1.425966502e-38
0.21565716 2.08742857 0.76500005 1.426074542e-38
0.2171143 2.08742857 0.76500005 1.426183423e-38
0.21857144 2.08742857 0.76500005 1.426328317e-38
0.22002858 2.08742857 0.76500005 1.435294666e-38
0.22206476 2.087657146 0.76700002 1.435041731e-38
0.22381714 2.087771431 0.76800001 1.435112357e-38
0.22528 2.087771431 0.76800001 1.425999573e-38
0.22674286 2.087771431 0.76800001 1.416781551e-38
0.22820571 2.087771431 0.76800001 1.416747079e-38
0.22966857 2.087771431 0.76800001 1.426075383e-38
0.23113143 2.087771431 0.76800001 1.42625601e-38
0.23259428 2.087771431 0.76800001 1.435437738e-38
0.23405714 2.087771431 0.76800001 1.426360127e-38
0.23552001 2.087771431 0.76800001 1.426361808e-38
0.23698285 2.087771431 0.76800001 1.435762279e-38
0.23844571 2.087771431 0.76800001 1.454091964e-38
0.23990858 2.087771431 0.76800001 1.481641211e-38
0.24137142 2.087771431 0.76800001 1.518412404e-38
0.24283428 2.087771431 0.76800001 1.481751073e-38
0.24429713 2.087771431 0.76800001 1.45405553e-38
0.24576001 2.087771431 0.76800001 1.444798692e-38
0.24722287 2.087771431 0.76800001 1.444835827e-38
0.2486857 2.087771431 0.76800001 1.444944708e-38
0.25014856 2.087771431 0.76800001 1.454054969e-38
0.25161144 2.087771431 0.76800001 1.435650315e-38
0.25307429 2.087771431 0.76800001 1.426469428e-38
0.25453714 2.087771431 0.76800001 1.417324554e-38
0.25599998 2.087771431 0.76800001 1.41717952e-38
0.25746286 2.087771431 0.76800001 1.417034486e-38
0.25892571 2.087771431 0.76800001 1.417035747e-38
0.26038855 2.087771431 0.76800001 1.462990629e-38
0.26185143 2.087771431 0.76800001 1.518089825e-38
0.26331431 2.087771431 0.76800001 1.481389398e-38
0.26546669 2.088 0.77000004 1.45383973e-38
0.26624 2.087771431 0.76800001 1.490718542e-38
0.26770288 2.087771431 0.76800001 1.527453161e-38
0.26916569 2.087771431 0.76800001 1.444765902e-38
0.27062857 2.087771431 0.76800001 1.362258009e-38
0.27209145 2.087771431 0.76800001 1.398992628e-38
0.27355427 2.087771431 0.76800001 1.435689972e-38
0.27501714 2.087771431 0.76800001 1.444872541e-38
0.27648002 2.087771431 0.76800001 1.45394791e-38
0.27794284 2.087771431 0.76800001 1.472601575e-38
0.27940571 2.087771431 0.76800001 1.500080477e-38
0.28086856 2.087771431 0.76800001 1.435759897e-38
0.28233144 2.087771431 0.76800001 1.380515246e-38
0.28379428 2.087771431 0.76800001 1.44487212e-38
0.28525713 2.087771431 0.76800001 1.509156547e-38
0.28746668 2.088 0.77000004 1.527523086e-38
0.28818285 2.087771431 0.76800001 1.555074716e-38
0.2904 2.088 0.77000004 1.527560921e-38
0.29186669 2.088 0.77000004 1.499973558e-38
0.29333335 2.088 0.77000004 1.518339957e-38
0.29480001 2.088 0.77000004 1.545890045e-38
0.29626667 2.088 0.77000004 1.509155286e-38
0.29773337 2.088 0.77000004 1.472385495e-38
0.2992 2.088 0.77000004 1.445122112e-38
0.30066669 2.088 0.77000004 1.426612781e-38
0.30291808 2.088228568 0.77200001 1.444873522e-38
0.30438858 2.088228568 0.77200001 1.472136764e-38
0.30625525 2.088342868 0.77300006 1.508870542e-38
0.30772763 2.088342868 0.77300006 1.545676767e-38
0.31 2.088571437 0.77500004 1.499795173e-38
0.3114762 2.088571437 0.77500004 1.453839309e-38
0.31375998 2.088799998 0.77700001 1.426250545e-38
0.31524 2.088799998 0.77700001 1.407991907e-38
0.31672001 2.088799998 0.77700001 1.398916817e-38
0.31820002 2.088799998 0.77700001 1.39884423e-38
0.31968001 2.088799998 0.77700001 1.407991066e-38
0.32198671 2.089028575 0.77900004 1.416962038e-38
0.32347047 2.089028575 0.77900004 1.407673532e-38
0.3249543 2.089028575 0.77900004 1.398344948e-38
0.32685715 2.089142859 0.78000003 1.370828631e-38
0.32834285 2.089142859 0.78000003 1.352389224e-38
0.32982856 2.089142859 0.78000003 1.343169241e-38
0.33216384 2.089371435 0.78200006 1.343133368e-38
0.33365336 2.089371435 0.78200006 1.333698845e-38
0.33600003 2.089600004 0.78400004 1.324515716e-38
0.33749333 2.089600004 0.78400004 1.324516277e-38
0.33985141 2.089828573 0.78600001 1.324299916e-38
0.34134859 2.089828573 0.78600001 1.296748146e-38
0.34284571 2.089828573 0.78600001 1.26923295e-38
0.34434286 2.089828573 0.78600001 1.241717895e-38
0.34672004 2.09005715 0.78800005 1.223422542e-38
0.34822097 2.09005715 0.78800005 1.205163062e-38
0.35105336 2.090399995 0.79100001 1.195872033e-38
0.35256001 2.090399995 0.79100001 1.177433328e-38
0.35406664 2.090399995 0.79100001 1.168179573e-38
0.3564724 2.090628572 0.79300004 1.158925818e-38
0.35888574 2.090857141 0.79500002 1.149704854e-38
0.36130667 2.091085717 0.79700005 1.094386915e-38
0.36328003 2.091200002 0.79800004 1.04861266e-38
0.36480001 2.091200002 0.79800004 1.011663363e-38
0.3672381 2.09142857 0.80000001 9.748219648e-39
0.36876193 2.09142857 0.80000001 9.473076095e-39
0.37121147 2.091657147 0.80200005 9.289040765e-39
0.37552762 2.092342861 0.80800003 9.105365569e-39
0.37613335 2.092114292 0.80600005 8.922419048e-39
0.37860572 2.092342861 0.80800003 8.92314352e-39
0.38202667 2.092799999 0.81200004 8.921698781e-39
0.38451812 2.093028568 0.81400001 8.185570073e-39
0.38844001 2.093600005 0.81900007 7.446222582e-39
0.39095241 2.093828574 0.82100004 6.890904816e-39
0.39251623 2.093828574 0.82100004 6.338479331e-39
0.39503998 2.094057143 0.82300001 6.428900917e-39
0.39660764 2.094057143 0.82300001 6.621191296e-39
0.39817524 2.094057143 0.82300001 8.650190197e-39
0.40071431 2.094285719 0.82500005 1.067847303e-38
0.4061867 2.095200002 0.83300006 1.197243204e-38
0.40777335 2.095200002 0.83300006 1.336004962e-38
0.40837717 2.094971426 0.83100003 1.50231737e-38
0.13531429 2.085980952 0.74000001 1.14877299e-38
0.1367238 2.085980952 0.74000001 1.11300779e-38
0.13794668 2.085864767 0.73900002 1.241793144e-38
0.13935429 2.085864767 0.73900002 1.379797501e-38
0.14076191 2.085864767 0.73900002 1.361322782e-38
0.14236189 2.085980952 0.74000001 1.342884077e-38
0.14377144 2.085980952 0.74000001 1.33405954e-38
0.14557333 2.086213335 0.74200004 1.325234022e-38
0.14698668 2.086213335 0.74200004 1.324838856e-38
0.1486 2.086329527 0.74300003 1.315332167e-38
0.15041906 2.086561911 0.74500006 1.29710842e-38
0.15183809 2.086561911 0.74500006 1.279170539e-38
0.15366857 2.086794287 0.74700004 1.260371699e-38
0.15509143 2.086794287 0.74700004 1.251116684e-38
0.15672383 2.086910479 0.74800003 1.241897681e-38
0.15814857 2.086910479 0.74800003 1.241934675e-38
0.15957333 2.086910479 0.74800003 1.24197167e-38
0.16099809 2.086910479 0.74800003 1.242043696e-38
0.16242287 2.086910479 0.74800003 1.278921668e-38
0.16428573 2.087142862 0.75000006 1.315835233e-38
0.16615619 2.087375239 0.75200003 1.334417712e-38
0.16758858 2.087375239 0.75200003 1.362040667e-38
0.16902097 2.087375239 0.75200003 1.362148848e-38
0.17045334 2.087375239 0.75200003 1.362290799e-38
0.17211428 2.08749143 0.75300002 1.334559383e-38
0.17354856 2.08749143 0.75300002 1.306865802e-38
0.17544763 2.087723814 0.75500005 1.306866362e-38
0.17688572 2.087723814 0.75500005 1.306865241e-38
0.17832382 2.087723814 0.75500005 1.297573091e-38
0.17976192 2.087723814 0.75500005 1.288317234e-38
0.18144001 2.087839998 0.75600004 1.269841955e-38
0.18288001 2.087839998 0.75600004 1.260586238e-38
0.18480763 2.088072382 0.75800002 1.223887493e-38
0.18625143 2.088072382 0.75800002 1.196482158e-38
0.18769524 2.088072382 0.75800002 1.242365995e-38
0.18963811 2.088304773 0.76000005 1.279100474e-38
0.19108573 2.088304773 0.76000005 1.306794896e-38
0.19253334 2.088304773 0.76000005 1.343421194e-38
0.19398096 2.088304773 0.76000005 1.343385041e-38
0.19542858 2.088304773 0.76000005 1.343348047e-38
0.19713524 2.088420957 0.76100004 1.352673968e-38
0.19858477 2.088420957 0.76100004 1.352853194e-38
0.20003429 2.088420957 0.76100004 1.352673688e-38
0.20148382 2.088420957 0.76100004 1.352530755e-38
0.20346667 2.088653333 0.76300001 1.334271977e-38
0.20491999 2.088653333 0.76300001 1.325160734e-38
0.20637333 2.088653333 0.76300001 1.325125561e-38
0.20782667 2.088653333 0.76300001 1.325125561e-38
0.20928 2.088653333 0.76300001 1.343349168e-38
0.21073334 2.088653333 0.76300001 1.370684717e-38
0.21218666 2.088653333 0.76300001 1.37990442e-38
0.21364 2.088653333 0.76300001 1.389124544e-38
0.21509334 2.088653333 0.76300001 1.398452427e-38
0.2171143 2.088885717 0.76500005 1.416891413e-38
0.21800001 2.088653333 0.76300001 1.416819807e-38
0.21945333 2.088653333 0.76300001 1.425930629e-38
0.22206476 2.089118101 0.76700002 1.425857901e-38
0.22352572 2.089118101 0.76700002 1.425605247e-38
0.22498667 2.089118101 0.76700002 1.407559606e-38
0.22644763 2.089118101 0.76700002 1.389051396e-38
0.22820571 2.089234285 0.76800001 1.398416834e-38
0.22966857 2.089234285 0.76800001 1.407565912e-38
0.23113143 2.089234285 0.76800001 1.407710946e-38
0.23259428 2.089234285 0.76800001 1.417034205e-38
0.23405714 2.089234285 0.76800001 1.389515786e-38
0.23552001 2.089234285 0.76800001 1.371186662e-38
0.23698285 2.089234285 0.76800001 1.407922963e-38
0.23844571 2.089234285 0.76800001 1.435508364e-38
0.23990858 2.089234285 0.76800001 1.453838469e-38
0.24137142 2.089234285 0.76800001 1.472206269e-38
0.24283428 2.089234285 0.76800001 1.463095306e-38
0.24429713 2.089234285 0.76800001 1.444798272e-38
0.24576001 2.089234285 0.76800001 1.44479659e-38
0.24722287 2.089234285 0.76800001 1.435542976e-38
0.2486857 2.089234285 0.76800001 1.435652417e-38
0.25014856 2.089234285 0.76800001 1.435650315e-38
0.25161144 2.089234285 0.76800001 1.417316987e-38
0.25307429 2.089234285 0.76800001 1.408207426e-38
0.25453714 2.089234285 0.76800001 1.398918639e-38
0.25599998 2.089234285 0.76800001 1.390057388e-38
0.25746286 2.089234285 0.76800001 1.389626489e-38
0.25892571 2.089234285 0.76800001 1.389626769e-38
0.26038855 2.089234285 0.76800001 1.398667246e-38
0.26185143 2.089234285 0.76800001 1.417068537e-38
0.26331431 2.089234285 0.76800001 1.426250405e-38
0.26477712 2.089234285 0.76800001 1.435435636e-38
0.26624 2.089234285 0.76800001 1.46313146e-38
0.26770288 2.089234285 0.76800001 1.499902232e-38
0.26916569 2.089234285 0.76800001 1.454057071e-38
0.27062857 2.089234285 0.76800001 1.408210789e-38
0.27209145 2.089234285 0.76800001 1.426577608e-38
0.27355427 2.089234285 0.76800001 1.44497988e-38
0.27501714 2.089234285 0.76800001 1.453983503e-38
0.27648002 2.089234285 0.76800001 1.4723485e-38
0.27794284 2.089234285 0.76800001 1.490892864e-38
0.27940571 2.089234285 0.76800001 1.51862456e-38
0.28050286 2.089118101 0.76700002 1.472385775e-38
0.28196383 2.089118101 0.76700002 1.426325375e-38
0.28379428 2.089234285 0.76800001 1.453948611e-38
0.2848857 2.089118101 0.76700002 1.49114818e-38
0.28634667 2.089118101 0.76700002 1.50000803e-38
0.28818285 2.089234285 0.76800001 1.518340657e-38
0.2904 2.089466669 0.77000004 1.4999751e-38
0.29186669 2.089466669 0.77000004 1.481678205e-38
0.29333335 2.089466669 0.77000004 1.50000803e-38
0.29480001 2.089466669 0.77000004 1.509154025e-38
0.29626667 2.089466669 0.77000004 1.490749371e-38
0.29773337 2.089466669 0.77000004 1.47234822e-38
0.2992 2.089466669 0.77000004 1.472385915e-38
0.30066669 2.089466669 0.77000004 1.472422629e-38
0.30213335 2.089466669 0.77000004 1.472351723e-38
0.30438858 2.089699045 0.77200001 1.472279697e-38
0.30585906 2.089699045 0.77200001 1.490646656e-38
0.30772763 2.089815244 0.77300006 1.499829645e-38
0.30920002 2.089815244 0.77300006 1.472242562e-38
0.3114762 2.09004762 0.77500004 1.444618065e-38
0.31295237 2.09004762 0.77500004 1.426177117e-38
0.31524 2.090279996 0.77700001 1.416959236e-38
0.31672001 2.090279996 0.77700001 1.398629551e-38
0.31820002 2.090279996 0.77700001 1.380298606e-38
0.32050288 2.09051238 0.77900004 1.389482435e-38
0.32198671 2.09051238 0.77900004 1.398667246e-38
0.32347047 2.09051238 0.77900004 1.380086309e-38
0.3249543 2.09051238 0.77900004 1.370757585e-38
0.32685715 2.090628572 0.78000003 1.352353071e-38
0.32834285 2.090628572 0.78000003 1.333984991e-38
0.33067432 2.090860955 0.78200006 1.3248006e-38
0.33216384 2.090860955 0.78200006 1.315653344e-38
0.33450669 2.091093332 0.78400004 1.306290989e-38
0.33600003 2.091093332 0.78400004 1.306326862e-38
0.33835429 2.091325715 0.78600001 1.297035693e-38
0.33985141 2.091325715 0.78600001 1.29678402e-38
0.34134859 2.091325715 0.78600001 1.26923281e-38
0.34284571 2.091325715 0.78600001 1.250865151e-38
0.34521905 2.091558106 0.78800005 1.223349955e-38
0.34672004 2.091558106 0.78800005 1.195871332e-38
0.34866285 2.091674291 0.78900003 1.186580443e-38
0.35105336 2.091906667 0.79100001 1.177325708e-38
0.35256001 2.091906667 0.79100001 1.158923436e-38
0.35406664 2.091906667 0.79100001 1.140522846e-38
0.3564724 2.09213905 0.79300004 1.131341678e-38
0.3597886 2.092603818 0.79700005 1.122155746e-38
0.36176002 2.092720002 0.79800004 1.076199883e-38
0.36328003 2.092720002 0.79800004 1.030246122e-38
0.36571428 2.092952378 0.80000001 9.841490073e-39
0.36815622 2.093184769 0.80200005 9.379794459e-39
0.36968383 2.093184769 0.80200005 9.196117862e-39
0.37306288 2.093649529 0.80600005 9.012808404e-39
0.37552762 2.093881905 0.80800003 8.36924667e-39
0.37706667 2.093881905 0.80800003 7.726029656e-39
0.37860572 2.093881905 0.80800003 7.908616043e-39
0.38296762 2.094579048 0.81400001 8.091210838e-39
0.38499048 2.094695248 0.81500006 8.554335777e-39
0.38938859 2.095392384 0.82100004 9.097096507e-39
0.39095241 2.095392384 0.82100004 9.471254407e-39
0.39347237 2.09562476 0.82300001 9.845466958e-39
0.39503998 2.09562476 0.82300001 1.068639177e-38
0.39757144 2.095857151 0.82500005 1.161911144e-38
0.39914289 2.095857151 0.82500005 1.300168155e-38
0.40071431 2.095857151 0.82500005 1.438461881e-38
0.40228572 2.095857151 0.82500005 1.485027869e-38
0.40777335 2.09678667 0.83300006 1.531594699e-38
0.13531429 2.087390475 0.74000001 1.139408393e-38
0.1367238 2.087390475 0.74000001 1.103786405e-38
0.13794668 2.087272383 0.73900002 1.214276267e-38
0.13935429 2.087272383 0.73900002 1.324515156e-38
0.14076191 2.087272383 0.73900002 1.30618449e-38
0.14236189 2.087390475 0.74000001 1.287709911e-38
0.14377144 2.087390475 0.74000001 1.288032911e-38
0.14557333 2.087626666 0.74200004 1.287852984e-38
0.14698668 2.087626666 0.74200004 1.287709071e-38
0.1486 2.087744765 0.74300003 1.287780537e-38
0.15001525 2.087744765 0.74300003 1.26955679e-38
0.15183809 2.087980956 0.74500006 1.25118885e-38
0.15366857 2.088217147 0.74700004 1.24200446e-38
0.15529905 2.088335246 0.74800003 1.232749584e-38
0.15672383 2.088335246 0.74800003 1.223530582e-38
0.15814857 2.088335246 0.74800003 1.223531142e-38
0.15957333 2.088335246 0.74800003 1.223567576e-38
0.16099809 2.088335246 0.74800003 1.232787139e-38
0.16285716 2.088571437 0.75000006 1.251190392e-38
0.16428573 2.088571437 0.75000006 1.278920687e-38
0.16615619 2.08880762 0.75200003 1.288427376e-38
0.16758858 2.08880762 0.75200003 1.306650983e-38
0.16924572 2.088925712 0.75300002 1.315691039e-38
0.17068 2.088925712 0.75300002 1.324945635e-38
0.17211428 2.088925712 0.75300002 1.288282482e-38
0.17400953 2.08916191 0.75500005 1.260875606e-38
0.17544763 2.08916191 0.75500005 1.270202929e-38
0.17688572 2.08916191 0.75500005 1.279242285e-38
0.17832382 2.08916191 0.75500005 1.260730992e-38
0.18000001 2.089280002 0.75600004 1.251547443e-38
0.18144001 2.089280002 0.75600004 1.242364033e-38
0.18288001 2.089280002 0.75600004 1.242327459e-38
0.18480763 2.089516193 0.75800002 1.242291026e-38
0.18625143 2.089516193 0.75800002 1.251405071e-38
0.18769524 2.089516193 0.75800002 1.25137158e-38
0.18963811 2.089752384 0.76000005 1.260627717e-38
0.19108573 2.089752384 0.76000005 1.288609825e-38
0.19253334 2.089752384 0.76000005 1.315549368e-38
0.19398096 2.089752384 0.76000005 1.297145134e-38
0.19568573 2.089870483 0.76100004 1.287960043e-38
0.19713524 2.089870483 0.76100004 1.287994235e-38
0.19858477 2.089870483 0.76100004 1.297321277e-38
0.20003429 2.089870483 0.76100004 1.297500504e-38
0.20148382 2.089870483 0.76100004 1.297464911e-38
0.20293334 2.089870483 0.76100004 1.260730992e-38
0.20438287 2.089870483 0.76100004 1.224069241e-38
0.20637333 2.090106666 0.76300001 1.242544661e-38
0.20782667 2.090106666 0.76300001 1.26080414e-38
0.20928 2.090106666 0.76300001 1.297430859e-38
0.21073334 2.090106666 0.76300001 1.333985831e-38
0.21218666 2.090106666 0.76300001 1.343097915e-38
0.21364 2.090106666 0.76300001 1.361573475e-38
0.21509334 2.090106666 0.76300001 1.380049174e-38
0.21654667 2.090106666 0.76300001 1.407600104e-38
0.21800001 2.090106666 0.76300001 1.407636257e-38
0.21945333 2.090106666 0.76300001 1.41674764e-38
0.22148572 2.090342864 0.76500005 1.416675613e-38
0.22352572 2.090579048 0.76700002 1.425857761e-38
0.22440001 2.090342864 0.76500005 1.398305851e-38
0.22644763 2.090579048 0.76700002 1.370828631e-38
0.22790857 2.090579048 0.76700002 1.380085608e-38
0.22936954 2.090579048 0.76700002 1.398417395e-38
0.23113143 2.090697147 0.76800001 1.398417955e-38
0.23259428 2.090697147 0.76800001 1.3985955e-38
0.23405714 2.090697147 0.76800001 1.361895493e-38
0.23552001 2.090697147 0.76800001 1.325126963e-38
0.23698285 2.090697147 0.76800001 1.371010519e-38
0.23844571 2.090697147 0.76800001 1.426218175e-38
0.23990858 2.090697147 0.76800001 1.426216914e-38
0.24137142 2.090697147 0.76800001 1.43547249e-38
0.24283428 2.090697147 0.76800001 1.435544377e-38
0.24429713 2.090697147 0.76800001 1.44476394e-38
0.24576001 2.090697147 0.76800001 1.435616264e-38
0.24722287 2.090697147 0.76800001 1.435616544e-38
0.2486857 2.090697147 0.76800001 1.426469288e-38
0.25014856 2.090697147 0.76800001 1.426539493e-38
0.25128379 2.090579048 0.76700002 1.408242599e-38
0.25274476 2.090579048 0.76700002 1.389769141e-38
0.25453714 2.090697147 0.76800001 1.380515246e-38
0.25599998 2.090697147 0.76800001 1.371367009e-38
0.25746286 2.090697147 0.76800001 1.362254786e-38
0.25892571 2.090697147 0.76800001 1.36196808e-38
0.26004952 2.090579048 0.76700002 1.343529655e-38
0.26151046 2.090579048 0.76700002 1.325198008e-38
0.26297143 2.090579048 0.76700002 1.371186943e-38
0.26477712 2.090697147 0.76800001 1.417141265e-38
0.26624 2.090697147 0.76800001 1.444728627e-38
0.26770288 2.090697147 0.76800001 1.472387877e-38
0.26916569 2.090697147 0.76800001 1.463313068e-38
0.27062857 2.090697147 0.76800001 1.454164411e-38
0.27209145 2.090697147 0.76800001 1.454199303e-38
0.27355427 2.090697147 0.76800001 1.463238659e-38
0.27501714 2.090697147 0.76800001 1.472313888e-38
0.27648002 2.090697147 0.76800001 1.490679866e-38
0.27794284 2.090697147 0.76800001 1.508866478e-38
0.27940571 2.090697147 0.76800001 1.536490135e-38
0.28086856 2.090697147 0.76800001 1.499829084e-38
0.28233144 2.090697147 0.76800001 1.472244104e-38
0.28379428 2.090697147 0.76800001 1.472245645e-38
0.2848857 2.090579048 0.76700002 1.472351723e-38
0.28672001 2.090697147 0.76800001 1.481677365e-38
0.28893334 2.090933338 0.77000004 1.490825742e-38
0.2904 2.090933338 0.77000004 1.481607019e-38
0.29186669 2.090933338 0.77000004 1.472350462e-38
0.29333335 2.090933338 0.77000004 1.472313468e-38
0.29480001 2.090933338 0.77000004 1.481496317e-38
0.29626667 2.090933338 0.77000004 1.481495756e-38
0.29773337 2.090933338 0.77000004 1.481460724e-38
0.2992 2.090933338 0.77000004 1.499828664e-38
0.30066669 2.090933338 0.77000004 1.518196884e-38
0.30213335 2.090933338 0.77000004 1.499830906e-38
0.30438858 2.091169529 0.77200001 1.481463947e-38
0.30625525 2.09128762 0.77300006 1.472316411e-38
0.30772763 2.09128762 0.77300006 1.463095727e-38
0.31 2.091523811 0.77500004 1.444727366e-38
0.3114762 2.091523811 0.77500004 1.435363189e-38
0.31375998 2.091760002 0.77700001 1.426142365e-38
0.31524 2.091760002 0.77700001 1.426143486e-38
0.31672001 2.091760002 0.77700001 1.389518028e-38
0.31901908 2.0919962 0.77900004 1.36196738e-38
0.32050288 2.0919962 0.77900004 1.371151069e-38
0.32198671 2.0919962 0.77900004 1.3802277e-38
0.32347047 2.0919962 0.77900004 1.361717808e-38
0.32537144 2.092114285 0.78000003 1.352317758e-38
0.32685715 2.092114285 0.78000003 1.333913524e-38
0.32834285 2.092114285 0.78000003 1.315545584e-38
0.33067432 2.092350483 0.78200006 1.297213518e-38
0.33216384 2.092350483 0.78200006 1.287958782e-38
0.33450669 2.092586666 0.78400004 1.287923469e-38
0.33600003 2.092586666 0.78400004 1.287923469e-38
0.33835429 2.092822857 0.78600001 1.278775653e-38
0.33985141 2.092822857 0.78600001 1.269197217e-38
0.34134859 2.092822857 0.78600001 1.251045077e-38
0.34284571 2.092822857 0.78600001 1.232426445e-38
0.34521905 2.093059056 0.78800005 1.204982995e-38
0.34716001 2.093177147 0.78900003 1.17736088e-38
0.34866285 2.093177147 0.78900003 1.168106005e-38
0.35105336 2.093413331 0.79100001 1.158851409e-38
0.35256001 2.093413331 0.79100001 1.140413264e-38
0.35496193 2.093649529 0.79300004 1.122047566e-38
0.3564724 2.093649529 0.79300004 1.112901431e-38
0.36024001 2.094240002 0.79800004 1.103788087e-38
0.36176002 2.094240002 0.79800004 1.057976557e-38
0.36419046 2.094476193 0.80000001 1.011807276e-38
0.36571428 2.094476193 0.80000001 9.566698247e-39
0.36815622 2.094712384 0.80200005 9.104642499e-39
0.37060574 2.094948567 0.80400002 8.921323233e-39
0.3739886 2.095420949 0.80800003 8.736218712e-39
0.37645715 2.095657155 0.81000006 7.633117962e-39
0.37800002 2.095657155 0.81000006 6.53219483e-39
0.38048002 2.095893338 0.81200004 6.888084003e-39
0.38296762 2.096129529 0.81400001 7.262600635e-39
0.38499048 2.096247621 0.81500006 9.015009844e-39
0.38938859 2.096956201 0.82100004 1.086536841e-38
0.39095241 2.096956201 0.82100004 1.216507414e-38
0.39347237 2.097192384 0.82300001 1.346085904e-38
0.39503998 2.097192384 0.82300001 1.503214902e-38
0.39757144 2.097428575 0.82500005 1.659336086e-38
0.39817524 2.097192384 0.82300001 1.732805324e-38
0.39974287 2.097192384 0.82300001 1.815529998e-38
0.40228572 2.097428575 0.82500005 1.76972071e-38
0.1367238 2.088799998 0.74000001 1.085417484e-38
0.13813335 2.088799998 0.74000001 1.16828467e-38
0.13935429 2.088680007 0.73900002 1.250937598e-38
0.14095238 2.088799998 0.74000001 1.241755169e-38
0.14236189 2.088799998 0.74000001 1.241755169e-38
0.14377144 2.088799998 0.74000001 1.241611816e-38
0.14557333 2.089040004 0.74200004 1.241467903e-38
0.14698668 2.089040004 0.74200004 1.241682722e-38
0.14840001 2.089040004 0.74200004 1.232714272e-38
0.15001525 2.089160003 0.74300003 1.214311159e-38
0.15224572 2.089639999 0.74700004 1.204840063e-38
0.15387429 2.089759998 0.74800003 1.18643667e-38
0.15529905 2.089759998 0.74800003 1.177253541e-38
0.15672383 2.089759998 0.74800003 1.177397594e-38
0.15814857 2.089759998 0.74800003 1.177541087e-38
0.16000001 2.090000004 0.75000006 1.18676051e-38
0.16142859 2.090000004 0.75000006 1.195980073e-38
0.16285716 2.090000004 0.75000006 1.205199776e-38
0.16428573 2.090000004 0.75000006 1.223639042e-38
0.16615619 2.090240002 0.75200003 1.22360359e-38
0.16758858 2.090240002 0.75200003 1.232750705e-38
0.16924572 2.090360008 0.75300002 1.205414876e-38
0.17068 2.090360008 0.75300002 1.178151213e-38
0.17211428 2.090360008 0.75300002 1.187047776e-38
0.17400953 2.090600006 0.75500005 1.205163763e-38
0.17544763 2.090600006 0.75500005 1.214598565e-38
0.17688572 2.090600006 0.75500005 1.224068681e-38
0.17832382 2.090600006 0.75500005 1.196266639e-38
0.17976192 2.090600006 0.75500005 1.159281888e-38
0.18144001 2.090720005 0.75600004 1.177649688e-38
0.18288001 2.090720005 0.75600004 1.205199496e-38
0.18480763 2.090960003 0.75800002 1.205306275e-38
0.18625143 2.090960003 0.75800002 1.205416557e-38
0.18769524 2.090960003 0.75800002 1.214459416e-38
0.18963811 2.091200009 0.76000005 1.223501015e-38
0.19108573 2.091200009 0.76000005 1.205099583e-38
0.19253334 2.091200009 0.76000005 1.186694369e-38
0.1942362 2.091320001 0.76100004 1.195947563e-38
0.19568573 2.091320001 0.76100004 1.205200757e-38
0.19713524 2.091320001 0.76100004 1.223494008e-38
0.19858477 2.091320001 0.76100004 1.241825234e-38
0.20003429 2.091320001 0.76100004 1.251044657e-38
0.20148382 2.091320001 0.76100004 1.25108039e-38
0.20346667 2.091559999 0.76300001 1.214310178e-38
0.20491999 2.091559999 0.76300001 1.177540947e-38
0.20637333 2.091559999 0.76300001 1.20512831e-38
0.20782667 2.091559999 0.76300001 1.232714832e-38
0.20928 2.091559999 0.76300001 1.260409114e-38
0.21073334 2.091559999 0.76300001 1.297286946e-38
0.21218666 2.091559999 0.76300001 1.315654325e-38
0.21364 2.091559999 0.76300001 1.334058279e-38
0.21452953 2.091320001 0.76100004 1.361574175e-38
0.21597905 2.091320001 0.76100004 1.389125244e-38
0.21800001 2.091559999 0.76300001 1.398345088e-38
0.21945333 2.091559999 0.76300001 1.407564791e-38
0.22148572 2.091800004 0.76500005 1.416892254e-38
0.22294286 2.091800004 0.76500005 1.435401585e-38
0.22440001 2.091800004 0.76500005 1.407813802e-38
0.22585715 2.091800004 0.76500005 1.38022812e-38
0.22731429 2.091800004 0.76500005 1.389376778e-38
0.22936954 2.092040002 0.76700002 1.398524033e-38
0.23083048 2.092040002 0.76700002 1.416890852e-38
0.23229143 2.092040002 0.76700002 1.426110556e-38
0.23375238 2.092040002 0.76700002 1.389340764e-38
0.23521332 2.092040002 0.76700002 1.352571673e-38
0.23667429 2.092040002 0.76700002 1.407781712e-38
0.23844571 2.092159994 0.76800001 1.453769805e-38
0.23990858 2.092159994 0.76800001 1.435365571e-38
0.24137142 2.092159994 0.76800001 1.407922122e-38
0.2425181 2.092040002 0.76700002 1.407957715e-38
0.24397905 2.092040002 0.76700002 1.41707134e-38
0.24544001 2.092040002 0.76700002 1.417073161e-38
0.24690095 2.092040002 0.76700002 1.41707204e-38
0.2483619 2.092040002 0.76700002 1.40788737e-38
0.24982285 2.092040002 0.76700002 1.399169191e-38
0.25128379 2.092040002 0.76700002 1.371438195e-38
0.25274476 2.092040002 0.76700002 1.352928024e-38
0.25420573 2.092040002 0.76700002 1.352856697e-38
0.25566667 2.092040002 0.76700002 1.352820264e-38
0.25712761 2.092040002 0.76700002 1.361931506e-38
0.25858858 2.092040002 0.76700002 1.37104373e-38
0.26004952 2.092040002 0.76700002 1.371080023e-38
0.26151046 2.092040002 0.76700002 1.361933048e-38
0.26297143 2.092040002 0.76700002 1.38952027e-38
0.26477712 2.092159994 0.76800001 1.408066456e-38
0.26624 2.092159994 0.76800001 1.426433415e-38
0.26770288 2.092159994 0.76800001 1.435689972e-38
0.26916569 2.092159994 0.76800001 1.435691373e-38
0.27062857 2.092159994 0.76800001 1.445160227e-38
0.27209145 2.092159994 0.76800001 1.45405525e-38
0.27355427 2.092159994 0.76800001 1.463058592e-38
0.27501714 2.092159994 0.76800001 1.472241441e-38
0.27648002 2.092159994 0.76800001 1.481460724e-38
0.27794284 2.092159994 0.76800001 1.49050064e-38
0.27940571 2.092159994 0.76800001 1.508940327e-38
0.28050286 2.092040002 0.76700002 1.481426392e-38
0.28233144 2.092159994 0.76800001 1.463133281e-38
0.28379428 2.092159994 0.76800001 1.453916241e-38
0.28525713 2.092159994 0.76800001 1.453842392e-38
0.28672001 2.092159994 0.76800001 1.462952094e-38
0.28818285 2.092159994 0.76800001 1.46291608e-38
0.2896457 2.092159994 0.76800001 1.46291608e-38
0.29110858 2.092159994 0.76800001 1.453767563e-38
0.29333335 2.092399999 0.77000004 1.453910215e-38
0.29403427 2.092159994 0.76800001 1.463058172e-38
0.29626667 2.092399999 0.77000004 1.463094465e-38
0.29773337 2.092399999 0.77000004 1.463022579e-38
0.2992 2.092399999 0.77000004 1.472241862e-38
0.30066669 2.092399999 0.77000004 1.481426812e-38
0.30291808 2.092640005 0.77200001 1.472244804e-38
0.30438858 2.092640005 0.77200001 1.463061675e-38
0.30625525 2.092760012 0.77300006 1.453842673e-38
0.30772763 2.092760012 0.77300006 1.453840711e-38
0.31 2.093000002 0.77500004 1.444511846e-38
0.3114762 2.093000002 0.77500004 1.435220117e-38
0.31375998 2.09324 0.77700001 1.444403106e-38
0.31524 2.09324 0.77700001 1.444403666e-38
0.31672001 2.09324 0.77700001 1.407670168e-38
0.31820002 2.09324 0.77700001 1.37093583e-38
0.32050288 2.093480006 0.77900004 1.380119379e-38
0.32198671 2.093480006 0.77900004 1.398522352e-38
0.32347047 2.093480006 0.77900004 1.36175242e-38
0.32537144 2.093600005 0.78000003 1.333913805e-38
0.32685715 2.093600005 0.78000003 1.315545865e-38
0.3291848 2.093840003 0.78200006 1.287994375e-38
0.33067432 2.093840003 0.78200006 1.278774252e-38
0.33216384 2.093840003 0.78200006 1.269447769e-38
0.33365336 2.093840003 0.78200006 1.260157301e-38
0.33600003 2.094080001 0.78400004 1.250901865e-38
0.33835429 2.094319999 0.78600001 1.241682302e-38
0.33985141 2.094319999 0.78600001 1.232462739e-38
0.34134859 2.094319999 0.78600001 1.204876217e-38
0.34284571 2.094319999 0.78600001 1.186472824e-38
0.34565714 2.094680004 0.78900003 1.168105444e-38
0.34716001 2.094680004 0.78900003 1.149774639e-38
0.34954667 2.094920002 0.79100001 1.1314081e-38
0.35105336 2.094920002 0.79100001 1.121902392e-38
0.35345146 2.095160007 0.79300004 1.103535993e-38
0.35496193 2.095160007 0.79300004 1.075985905e-38
0.3582705 2.095640004 0.79700005 1.057619506e-38
0.36024001 2.095760003 0.79800004 1.039251706e-38
0.36176002 2.095760003 0.79800004 1.002516807e-38
0.36419046 2.096000001 0.80000001 9.658179215e-39
0.36571428 2.096000001 0.80000001 9.106084435e-39
0.36815622 2.096239999 0.80200005 8.646179681e-39
0.37152764 2.096720003 0.80600005 8.365282397e-39
0.3739886 2.096960008 0.80800003 8.176589151e-39
0.37645715 2.097200006 0.81000006 8.364564932e-39
0.37706667 2.096960008 0.80800003 8.552602371e-39
0.37954286 2.097200006 0.81000006 1.003853366e-38
0.38108575 2.097200006 0.81000006 1.161623878e-38
0.38688001 2.098280005 0.81900007 1.291054671e-38
0.38938859 2.098520003 0.82100004 1.429672516e-38
0.39095241 2.098520003 0.82100004 1.47584502e-38
0.39251623 2.098520003 0.82100004 1.531200373e-38
0.39503998 2.098759994 0.82300001 1.594950205e-38
0.39817524 2.098759994 0.82300001 1.71444425e-38
0.39974287 2.098759994 0.82300001 1.76979596e-38
0.1367238 2.090209521 0.74000001 1.076664273e-38
0.13794668 2.090087622 0.73900002 1.122330629e-38
0.13954286 2.090209521 0.74000001 1.1774685e-38
0.14095238 2.090209521 0.74000001 1.186724357e-38
0.14236189 2.090209521 0.74000001 1.195764553e-38
0.14377144 2.090209521 0.74000001 1.195621201e-38
0.14557333 2.090453334 0.74200004 1.204840343e-38
0.14698668 2.090453334 0.74200004 1.195692246e-38
0.1486 2.090575241 0.74300003 1.186795683e-38
0.15001525 2.090575241 0.74300003 1.168249217e-38
0.15224572 2.091062859 0.74700004 1.158993501e-38
0.15387429 2.091184765 0.74800003 1.140554375e-38
0.15529905 2.091184765 0.74800003 1.131371246e-38
0.15714286 2.091428578 0.75000006 1.131371666e-38
0.15814857 2.091184765 0.74800003 1.131730118e-38
0.16000001 2.091428578 0.75000006 1.140805908e-38
0.16185905 2.091672383 0.75200003 1.159209301e-38
0.16285716 2.091428578 0.75000006 1.159245594e-38
0.16428573 2.091428578 0.75000006 1.168429284e-38
0.16637714 2.09179429 0.75300002 1.159174128e-38
0.16758858 2.091672383 0.75200003 1.159173708e-38
0.16924572 2.09179429 0.75300002 1.095175286e-38
0.17068 2.09179429 0.75300002 1.030711773e-38
0.17257144 2.092038102 0.75500005 1.085634405e-38
0.17400953 2.092038102 0.75500005 1.149919253e-38
0.17544763 2.092038102 0.75500005 1.158206111e-38
0.17688572 2.092038102 0.75500005 1.177828774e-38
0.17832382 2.092038102 0.75500005 1.122368744e-38
0.17976192 2.092038102 0.75500005 1.076630082e-38
0.18144001 2.092160001 0.75600004 1.122511816e-38
0.18288001 2.092160001 0.75600004 1.168356977e-38
0.18480763 2.092403814 0.75800002 1.159136854e-38
0.18625143 2.092403814 0.75800002 1.159138956e-38
0.18769524 2.092403814 0.75800002 1.168324747e-38
0.18963811 2.092647627 0.76000005 1.186656954e-38
0.19108573 2.092647627 0.76000005 1.122337215e-38
0.19278668 2.092769526 0.76100004 1.057942786e-38
0.1942362 2.092769526 0.76100004 1.085419866e-38
0.19568573 2.092769526 0.76100004 1.122260704e-38
0.19713524 2.092769526 0.76100004 1.159137414e-38
0.19858477 2.092769526 0.76100004 1.195799726e-38
0.20003429 2.092769526 0.76100004 1.204947262e-38
0.20201333 2.093013331 0.76300001 1.214131092e-38
0.20346667 2.093013331 0.76300001 1.177433187e-38
0.20491999 2.093013331 0.76300001 1.140807029e-38
0.20637333 2.093013331 0.76300001 1.168071112e-38
0.20782667 2.093013331 0.76300001 1.205020831e-38
0.20928 2.093013331 0.76300001 1.232715253e-38
0.21073334 2.093013331 0.76300001 1.26977259e-38
0.21218666 2.093013331 0.76300001 1.288104237e-38
0.21364 2.093013331 0.76300001 1.315655306e-38
0.21452953 2.092769526 0.76100004 1.343170642e-38
0.21597905 2.092769526 0.76100004 1.380120641e-38
0.21800001 2.093013331 0.76300001 1.38952013e-38
0.21945333 2.093013331 0.76300001 1.398704661e-38
0.22148572 2.093257144 0.76500005 1.426256291e-38
0.22294286 2.093257144 0.76500005 1.453769665e-38
0.22440001 2.093257144 0.76500005 1.417105952e-38
0.22585715 2.093257144 0.76500005 1.389591176e-38
0.22731429 2.093257144 0.76500005 1.398810739e-38
0.22877143 2.093257144 0.76500005 1.407707303e-38
0.23022859 2.093257144 0.76500005 1.435042852e-38
0.23229143 2.093500957 0.76700002 1.462844194e-38
0.23375238 2.093500957 0.76700002 1.426073701e-38
0.23521332 2.093500957 0.76700002 1.389447823e-38
0.23698285 2.093622856 0.76800001 1.435473892e-38
0.23844571 2.093622856 0.76800001 1.490502462e-38
0.23959619 2.093500957 0.76700002 1.43536431e-38
0.24105714 2.093500957 0.76700002 1.389445721e-38
0.2425181 2.093500957 0.76700002 1.38966012e-38
0.24397905 2.093500957 0.76700002 1.389482716e-38
0.24544001 2.093500957 0.76700002 1.39870424e-38
0.24690095 2.093500957 0.76700002 1.407851216e-38
0.2483619 2.093500957 0.76700002 1.389339923e-38
0.24982285 2.093500957 0.76700002 1.37115177e-38
0.25128379 2.093500957 0.76700002 1.34381608e-38
0.25274476 2.093500957 0.76700002 1.316157952e-38
0.25420573 2.093500957 0.76700002 1.325269895e-38
0.25566667 2.093500957 0.76700002 1.34359972e-38
0.25712761 2.093500957 0.76700002 1.361822065e-38
0.25858858 2.093500957 0.76700002 1.389337821e-38
0.26004952 2.093500957 0.76700002 1.398486619e-38
0.26151046 2.093500957 0.76700002 1.40777961e-38
0.26297143 2.093500957 0.76700002 1.407853178e-38
0.2644324 2.093500957 0.76700002 1.407959677e-38
0.26624 2.093622856 0.76800001 1.408066316e-38
0.26770288 2.093622856 0.76800001 1.408066876e-38
0.26881525 2.093500957 0.76700002 1.417286859e-38
0.27062857 2.093622856 0.76800001 1.435581512e-38
0.27209145 2.093622856 0.76800001 1.444728487e-38
0.27355427 2.093622856 0.76800001 1.463023279e-38
0.27501714 2.093622856 0.76800001 1.472134382e-38
0.27648002 2.093622856 0.76800001 1.481317791e-38
0.27758098 2.093500957 0.76700002 1.481353384e-38
0.27940571 2.093622856 0.76800001 1.481354225e-38
0.28086856 2.093622856 0.76800001 1.4630237e-38
0.28196383 2.093500957 0.76700002 1.453877565e-38
0.28342476 2.093500957 0.76700002 1.444767163e-38
0.2848857 2.093500957 0.76700002 1.444550803e-38
0.28634667 2.093500957 0.76700002 1.444441922e-38
0.28818285 2.093622856 0.76800001 1.444549822e-38
0.2896457 2.093622856 0.76800001 1.444406609e-38
0.29110858 2.093622856 0.76800001 1.444584434e-38
0.29333335 2.093866669 0.77000004 1.444726385e-38
0.29403427 2.093622856 0.76800001 1.444726385e-38
0.29626667 2.093866669 0.77000004 1.444798132e-38
0.29773337 2.093866669 0.77000004 1.444762959e-38
0.2992 2.093866669 0.77000004 1.4447638e-38
0.30066669 2.093866669 0.77000004 1.453804838e-38
0.30291808 2.094110474 0.77200001 1.444478636e-38
0.30438858 2.094110474 0.77200001 1.444550522e-38
0.30625525 2.094232388 0.77300006 1.444622549e-38
0.30772763 2.094232388 0.77300006 1.444621428e-38
0.31 2.094476193 0.77500004 1.444441081e-38
0.3114762 2.094476193 0.77500004 1.444368774e-38
0.31295237 2.094476193 0.77500004 1.453479876e-38
0.31524 2.094719999 0.77700001 1.47188369e-38
0.31672001 2.094719999 0.77700001 1.426038529e-38
0.31901908 2.094963811 0.77900004 1.389230902e-38
0.32050288 2.094963811 0.77900004 1.398376897e-38
0.32198671 2.094963811 0.77900004 1.416816163e-38
0.32347047 2.094963811 0.77900004 1.370970722e-38
0.3249543 2.094963811 0.77900004 1.324693541e-38
0.32685715 2.095085718 0.78000003 1.297285825e-38
0.32834285 2.095085718 0.78000003 1.269627136e-38
0.32982856 2.095085718 0.78000003 1.260371419e-38
0.33216384 2.095329531 0.78200006 1.251008644e-38
0.33365336 2.095329531 0.78200006 1.232498191e-38
0.33600003 2.095573336 0.78400004 1.223386669e-38
0.33835429 2.095817141 0.78600001 1.204840483e-38
0.33985141 2.095817141 0.78600001 1.195656654e-38
0.34134859 2.095817141 0.78600001 1.168105724e-38
0.34371811 2.096060954 0.78800005 1.140519062e-38
0.34565714 2.09618286 0.78900003 1.131263766e-38
0.34716001 2.09618286 0.78900003 1.122152523e-38
0.34954667 2.096426666 0.79100001 1.103893604e-38
0.35194096 2.096670479 0.79300004 1.094351603e-38
0.35434285 2.096914284 0.79500002 1.066693755e-38
0.35496193 2.096670479 0.79300004 1.039215273e-38
0.3582705 2.097158097 0.79700005 1.002589254e-38
0.36024001 2.097280003 0.79800004 9.748939915e-39
0.36266667 2.097523808 0.80000001 9.472346019e-39
0.36419046 2.097523808 0.80000001 9.285802365e-39
0.36662859 2.097767621 0.80200005 8.732275458e-39
0.36907429 2.098011427 0.80400002 8.177340247e-39
0.37152764 2.098255247 0.80600005 7.898270257e-39
0.3739886 2.098499052 0.80800003 7.728605242e-39
0.37645715 2.098742865 0.81000006 9.120500994e-39
0.37800002 2.098742865 0.81000006 1.060426727e-38
0.37954286 2.098742865 0.81000006 1.3281895e-38
0.38108575 2.098742865 0.81000006 1.594870891e-38
0.38688001 2.099840008 0.81900007 1.67788129e-38
0.38938859 2.10008381 0.82100004 1.769718608e-38
0.39095241 2.10008381 0.82100004 1.742205654e-38
0.39251623 2.10008381 0.82100004 1.72387597e-38
0.13794668 2.091495238 0.73900002 1.13198025e-38
0.13954286 2.091619052 0.74000001 1.159423419e-38
0.14095238 2.091619052 0.74000001 1.1594237e-38
0.14236189 2.091619052 0.74000001 1.15942384e-38
0.14416 2.091866672 0.74200004 1.168464177e-38
0.14557333 2.091866672 0.74200004 1.177503953e-38
0.14718476 2.091990478 0.74300003 1.16839187e-38
0.1486 2.091990478 0.74300003 1.168463756e-38
0.15001525 2.091990478 0.74300003 1.15931622e-38
0.15183809 2.092238098 0.74500006 1.150204137e-38
0.15387429 2.092609525 0.74800003 1.122760827e-38
0.15529905 2.092609525 0.74800003 1.095318078e-38
0.15672383 2.092609525 0.74800003 1.104394429e-38
0.15814857 2.092609525 0.74800003 1.122653488e-38
0.15957333 2.092609525 0.74800003 1.131800884e-38
0.16142859 2.092857152 0.75000006 1.140984994e-38
0.16285716 2.092857152 0.75000006 1.140949681e-38
0.16428573 2.092857152 0.75000006 1.140913668e-38
0.16571429 2.092857152 0.75000006 1.113183653e-38
0.16758858 2.093104765 0.75200003 1.09478012e-38
0.16902097 2.093104765 0.75200003 1.021311302e-38
0.17068 2.093228571 0.75300002 9.4788004e-39
0.17257144 2.093476199 0.75500005 1.048828741e-38
0.17400953 2.093476199 0.75500005 1.14977604e-38
0.17544763 2.093476199 0.75500005 1.149847926e-38
0.17688572 2.093476199 0.75500005 1.159139376e-38
0.17832382 2.093476199 0.75500005 1.131660894e-38
0.17976192 2.093476199 0.75500005 1.11336442e-38
0.18144001 2.093600005 0.75600004 1.122475243e-38
0.18288001 2.093600005 0.75600004 1.140769895e-38
0.18480763 2.093847618 0.75800002 1.094815573e-38
0.18625143 2.093847618 0.75800002 1.058083056e-38
