# .PCD v0.7 - Point Cloud Data file format
VERSION 0.7
FIELDS x y z rgb
SIZE 4 4 4 4
TYPE F F F F
COUNT 1 1 1 1
WIDTH 969
HEIGHT 1
VIEWPOINT 0 0 0 1 0 0 0
POINTS 969
DATA ascii
0.26780954 1.902742855 0.74000001 1.214562132e-38
0.26921904 1.902742855 0.74000001 1.251405631e-38
0.27062857 1.902742855 0.74000001 1.260554989e-38
0.27167046 1.902874283 0.73900002 1.269774692e-38
0.27307808 1.902874283 0.73900002 1.297325762e-38
0.27374288 1.903137133 0.73700005 1.324912003e-38
0.27514669 1.903137133 0.73700005 1.361825428e-38
0.2765505 1.903137133 0.73700005 1.398631513e-38
0.27757716 1.903268561 0.73600006 1.417178119e-38
0.27897909 1.903268561 0.73600006 1.435722762e-38
0.28038096 1.903268561 0.73600006 1.398664023e-38
0.28637716 1.901691422 0.74800003 1.352390485e-38
0.28780192 1.901691422 0.74800003 1.316376695e-38
0.28922668 1.901691422 0.74800003 1.270388461e-38
0.29065144 1.901691422 0.74800003 1.288936328e-38
0.19428572 1.90285714 0.75000006 1.475124332e-38
0.19571429 1.90285714 0.75000006 1.492121382e-38
0.19766857 1.90259809 0.75200003 1.233647817e-38
0.19910097 1.90259809 0.75200003 9.842923602e-39
0.20053335 1.90259809 0.75200003 1.066226141e-38
0.20196572 1.90259809 0.75200003 1.150170225e-38
0.20366858 1.90246857 0.75300002 1.223890295e-38
0.20510286 1.90246857 0.75300002 1.297359953e-38
0.20653716 1.90246857 0.75300002 1.325234723e-38
0.20797144 1.90246857 0.75300002 1.352857118e-38
0.20996192 1.90220952 0.75500005 1.380515246e-38
0.21140002 1.90220952 0.75500005 1.408030022e-38
0.21312001 1.902079992 0.75600004 1.426396981e-38
0.21456 1.902079992 0.75600004 1.44476422e-38
0.21657144 1.90182095 0.75800002 1.4631316e-38
0.21801524 1.90182095 0.75800002 1.481463526e-38
0.2200381 1.901561901 0.76000005 1.509194242e-38
0.22148572 1.901561901 0.76000005 1.536708878e-38
0.22322668 1.90143238 0.76100004 1.509158089e-38
0.22821906 1.89987809 0.77300006 1.490827143e-38
0.23028573 1.89961905 0.77500004 1.481751493e-38
0.2317619 1.89961905 0.77500004 1.47253137e-38
0.23383999 1.89935999 0.77700001 1.500224951e-38
0.23532 1.89935999 0.77700001 1.527416587e-38
0.2368 1.89935999 0.77700001 1.481426953e-38
0.23889334 1.89910094 0.77900004 1.435472771e-38
0.24037716 1.89910094 0.77900004 1.407885688e-38
0.24217144 1.89897143 0.78000003 1.389446142e-38
0.24365716 1.89897143 0.78000003 1.33430827e-38
0.24577145 1.89871237 0.78200006 1.288068784e-38
0.24726097 1.89871237 0.78200006 1.269810566e-38
0.24875049 1.89871237 0.78200006 1.251263119e-38
0.25024 1.89871237 0.78200006 1.222886405e-38
0.25172952 1.89871237 0.78200006 1.195659736e-38
0.25321907 1.89871237 0.78200006 1.269738959e-38
0.25470859 1.89871237 0.78200006 1.352388243e-38
0.25685334 1.89845333 0.78400004 1.278917184e-38
0.25834668 1.89845333 0.78400004 1.214489544e-38
0.25984001 1.89845333 0.78400004 1.195979793e-38
0.26133335 1.89845333 0.78400004 1.177505494e-38
0.26282668 1.89845333 0.78400004 1.168214745e-38
0.26364574 1.89871237 0.78200006 1.159066509e-38
0.26513526 1.89871237 0.78200006 1.187226582e-38
0.26594287 1.89897143 0.78000003 1.223999036e-38
0.2670857 1.89910094 0.77900004 1.242440264e-38
0.26856953 1.89910094 0.77900004 1.260627997e-38
0.27005336 1.89910094 0.77900004 1.242081672e-38
0.27153715 1.89910094 0.77900004 1.232969448e-38
0.26005337 1.903893329 0.74200004 1.140774659e-38
0.26146668 1.903893329 0.74200004 1.048829441e-38
0.26288003 1.903893329 0.74200004 1.094637327e-38
0.26358095 1.904152386 0.74000001 1.14988366e-38
0.26499048 1.904152386 0.74000001 1.177651089e-38
0.26640001 1.904152386 0.74000001 1.205272784e-38
0.26780954 1.904152386 0.74000001 1.278919846e-38
0.26921904 1.904152386 0.74000001 1.352353351e-38
0.27062857 1.904152386 0.74000001 1.324803683e-38
0.27167046 1.904281899 0.73900002 1.297289328e-38
0.27307808 1.904281899 0.73900002 1.3159081e-38
0.27374288 1.904540941 0.73700005 1.343458329e-38
0.27514669 1.904540941 0.73700005 1.371044571e-38
0.2765505 1.904540941 0.73700005 1.407922542e-38
0.27795431 1.904540941 0.73700005 1.408209808e-38
0.27935812 1.904540941 0.73700005 1.417356364e-38
0.28076193 1.904540941 0.73700005 1.398880664e-38
0.28216574 1.904540941 0.73700005 1.38962719e-38
0.28780192 1.903116189 0.74800003 1.371226179e-38
0.28922668 1.903116189 0.74800003 1.36225885e-38
0.2914286 1.90285714 0.75000006 1.353112014e-38
0.29285717 1.90285714 0.75000006 1.344001192e-38
0.29507047 1.90259809 0.75200003 1.371624428e-38
0.29650286 1.90259809 0.75200003 1.399789826e-38
0.19571429 1.904285707 0.75000006 1.47501405e-38
0.19766857 1.904030472 0.75200003 1.344929552e-38
0.19936571 1.903902858 0.75300002 1.223101084e-38
0.2008 1.903902858 0.75300002 1.131370405e-38
0.2022343 1.903902858 0.75300002 1.039679102e-38
0.20420954 1.903647617 0.75500005 1.10418003e-38
0.20564763 1.903647617 0.75500005 1.159533982e-38
0.20708573 1.903647617 0.75500005 1.205704524e-38
0.20852382 1.903647617 0.75500005 1.242725708e-38
0.20996192 1.903647617 0.75500005 1.288535837e-38
0.21140002 1.903647617 0.75500005 1.334345685e-38
0.21312001 1.903519996 0.75600004 1.361931927e-38
0.21456 1.903519996 0.75600004 1.398702699e-38
0.21600002 1.903519996 0.75600004 1.426290062e-38
0.21801524 1.903264761 0.75800002 1.453876724e-38
0.2200381 1.903009519 0.76000005 1.499866359e-38
0.22177716 1.902881898 0.76100004 1.545856274e-38
0.22322668 1.902881898 0.76100004 1.509158369e-38
0.22792381 1.901478089 0.77200001 1.481642753e-38
0.23028573 1.901095234 0.77500004 1.454091403e-38
0.2317619 1.901095234 0.77500004 1.435760317e-38
0.2332381 1.901095234 0.77500004 1.463203627e-38
0.23532 1.900839999 0.77700001 1.490646375e-38
0.2368 1.900839999 0.77700001 1.46302384e-38
0.23889334 1.900584757 0.77900004 1.4446559e-38
0.24037716 1.900584757 0.77900004 1.417068677e-38
0.24217144 1.900457136 0.78000003 1.389480894e-38
0.24365716 1.900457136 0.78000003 1.343418392e-38
0.24577145 1.900201894 0.78200006 1.30650777e-38
0.24726097 1.900201894 0.78200006 1.288143753e-38
0.24875049 1.900201894 0.78200006 1.279030549e-38
0.25024 1.900201894 0.78200006 1.204520567e-38
0.25172952 1.900201894 0.78200006 1.131197204e-38
0.25321907 1.900201894 0.78200006 1.195949945e-38
0.25470859 1.900201894 0.78200006 1.260733094e-38
0.25619811 1.900201894 0.78200006 1.223744e-38
0.25834668 1.89994666 0.78400004 1.196158038e-38
0.25984001 1.89994666 0.78400004 1.17779164e-38
0.26133335 1.89994666 0.78400004 1.168644944e-38
0.26282668 1.89994666 0.78400004 1.177793601e-38
0.26364574 1.900201894 0.78200006 1.177757308e-38
0.26513526 1.900201894 0.78200006 1.214885832e-38
0.25230476 1.905561902 0.74000001 1.251765205e-38
0.25440001 1.90530666 0.74200004 1.270062239e-38
0.25581333 1.90530666 0.74200004 1.28878793e-38
0.25722668 1.90530666 0.74200004 1.279030409e-38
0.25794286 1.905561902 0.74000001 1.269810706e-38
0.26005337 1.90530666 0.74200004 1.187015126e-38
0.26076192 1.905561902 0.74000001 1.112826602e-38
0.26217142 1.905561902 0.74000001 1.140446335e-38
0.26358095 1.905561902 0.74000001 1.177326128e-38
0.26499048 1.905561902 0.74000001 1.195874696e-38
0.26640001 1.905561902 0.74000001 1.214492767e-38
0.26780954 1.905561902 0.74000001 1.269629938e-38
0.26885524 1.905689523 0.73900002 1.324803123e-38
0.27026287 1.905689523 0.73900002 1.297252754e-38
0.27167046 1.905689523 0.73900002 1.269738539e-38
0.27233908 1.905944757 0.73700005 1.315764607e-38
0.27374288 1.905944757 0.73700005 1.361825428e-38
0.27514669 1.905944757 0.73700005 1.389483276e-38
0.2765505 1.905944757 0.73700005 1.417249445e-38
0.27795431 1.905944757 0.73700005 1.417357485e-38
0.27935812 1.905944757 0.73700005 1.426576487e-38
0.28190476 1.905561902 0.74000001 1.417249164e-38
0.28331429 1.905561902 0.74000001 1.398847033e-38
0.28741717 1.904668562 0.74700004 1.39891976e-38
0.28884 1.904668562 0.74700004 1.3990278e-38
0.2914286 1.904285707 0.75000006 1.398992488e-38
0.29285717 1.904285707 0.75000006 1.398774446e-38
0.29507047 1.904030472 0.75200003 1.408134699e-38
0.29689714 1.903902858 0.75300002 1.417218756e-38
0.29833144 1.903902858 0.75300002 1.418374828e-38
0.19989525 1.905085713 0.75500005 1.463635927e-38
0.20133334 1.905085713 0.75500005 1.195262048e-38
0.20277144 1.905085713 0.75500005 9.383376178e-39
0.20420954 1.905085713 0.75500005 9.844701849e-39
0.20592001 1.904959992 0.75600004 1.030533388e-38
0.20708573 1.905085713 0.75500005 1.08578014e-38
0.2088 1.904959992 0.75600004 1.141168144e-38
0.21024001 1.904959992 0.75600004 1.19659216e-38
0.21224 1.904708572 0.75800002 1.260769388e-38
0.21368381 1.904708572 0.75800002 1.306579516e-38
0.21512762 1.904708572 0.75800002 1.352641038e-38
0.21657144 1.904708572 0.75800002 1.389554883e-38
0.2185905 1.904457137 0.76000005 1.435473331e-38
0.2200381 1.904457137 0.76000005 1.499794893e-38
0.22177716 1.904331423 0.76100004 1.564115193e-38
0.22322668 1.904331423 0.76100004 1.518376531e-38
0.22733334 1.903199993 0.77000004 1.472457241e-38
0.22969145 1.902822845 0.77300006 1.435721641e-38
0.23116381 1.902822845 0.77300006 1.398954372e-38
0.2332381 1.902571425 0.77500004 1.42647181e-38
0.2347143 1.902571425 0.77500004 1.463133281e-38
0.2368 1.902319998 0.77700001 1.453840991e-38
0.23828 1.902319998 0.77700001 1.453804277e-38
0.23976 1.902319998 0.77700001 1.417176998e-38
0.24123999 1.902319998 0.77700001 1.389446142e-38
0.24334477 1.90206857 0.77900004 1.361715426e-38
0.24482858 1.90206857 0.77900004 1.334058138e-38
0.24662858 1.901942849 0.78000003 1.31569216e-38
0.2481143 1.901942849 0.78000003 1.306328964e-38
0.25024 1.901691422 0.78200006 1.186189341e-38
0.25172952 1.901691422 0.78200006 1.066875783e-38
0.25321907 1.901691422 0.78200006 1.112973878e-38
0.25470859 1.901691422 0.78200006 1.168324327e-38
0.25685334 1.901439995 0.78400004 1.168573618e-38
0.25834668 1.901439995 0.78400004 1.177722135e-38
0.25984001 1.901439995 0.78400004 1.168503693e-38
0.24566668 1.907348566 0.73700005 1.168611313e-38
0.24774097 1.907097138 0.73900002 1.187086032e-38
0.24914859 1.907097138 0.73900002 1.205345651e-38
0.25089523 1.906971432 0.74000001 1.242546482e-38
0.25230476 1.906971432 0.74000001 1.279282362e-38
0.25440001 1.90671999 0.74200004 1.29772303e-38
0.25581333 1.90671999 0.74200004 1.325236965e-38
0.25653335 1.906971432 0.74000001 1.316016841e-38
0.25794286 1.906971432 0.74000001 1.315944394e-38
0.25935239 1.906971432 0.74000001 1.242439423e-38
0.26076192 1.906971432 0.74000001 1.177614235e-38
0.26217142 1.906971432 0.74000001 1.186293317e-38
0.26358095 1.906971432 0.74000001 1.204913071e-38
0.26499048 1.906971432 0.74000001 1.214098302e-38
0.26640001 1.906971432 0.74000001 1.223533385e-38
0.26744762 1.907097138 0.73900002 1.26033975e-38
0.26885524 1.907097138 0.73900002 1.297288907e-38
0.27026287 1.907097138 0.73900002 1.269738119e-38
0.27093527 1.907348566 0.73700005 1.242152297e-38
0.27233908 1.907348566 0.73700005 1.306437985e-38
0.27374288 1.907348566 0.73700005 1.380156934e-38
0.27477336 1.907474279 0.73600006 1.398738853e-38
0.2765505 1.907348566 0.73700005 1.426361108e-38
0.27795431 1.907348566 0.73700005 1.435723743e-38
0.27935812 1.907348566 0.73700005 1.444834566e-38
0.28152382 1.907097138 0.73900002 1.426430612e-38
0.28408003 1.90671999 0.74200004 1.417212731e-38
0.28664762 1.906342849 0.74500006 1.426577048e-38
0.28884 1.906091429 0.74700004 1.435761158e-38
0.2914286 1.905714281 0.75000006 1.444909395e-38
0.29285717 1.905714281 0.75000006 1.454127837e-38
0.29507047 1.905462854 0.75200003 1.445015053e-38
0.29689714 1.90533714 0.75300002 1.435656061e-38
0.29833144 1.90533714 0.75300002 1.427122013e-38
0.19989525 1.906523801 0.75500005 1.47458203e-38
0.2008 1.906771429 0.75300002 1.289574339e-38
0.20277144 1.906523801 0.75500005 1.113793918e-38
0.20448001 1.906399995 0.75600004 1.049113064e-38
0.20646477 1.906152382 0.75800002 9.93655276e-39
0.20790857 1.906152382 0.75800002 1.039682886e-38
0.20935239 1.906152382 0.75800002 1.094927256e-38
0.21079619 1.906152382 0.75800002 1.150064007e-38
0.21224 1.906152382 0.75800002 1.205237331e-38
0.21368381 1.906152382 0.75800002 1.251119486e-38
0.21512762 1.906152382 0.75800002 1.297036954e-38
0.21714287 1.905904762 0.76000005 1.352712083e-38
0.2185905 1.905904762 0.76000005 1.417105952e-38
0.2200381 1.905904762 0.76000005 1.453841552e-38
0.22177716 1.905780949 0.76100004 1.490574629e-38
0.22381333 1.905533329 0.76300001 1.490824621e-38
0.22644763 1.905038096 0.76700002 1.490750772e-38
0.22939429 1.90441905 0.77200001 1.435611499e-38
0.23086476 1.90441905 0.77200001 1.380515386e-38
0.23263621 1.904295236 0.77300006 1.408107233e-38
0.2341086 1.904295236 0.77300006 1.43565592e-38
0.23619048 1.904047616 0.77500004 1.435546479e-38
0.23828 1.903799996 0.77700001 1.444621568e-38
0.23976 1.903799996 0.77700001 1.407850656e-38
0.24186096 1.903552376 0.77900004 1.380263853e-38
0.24334477 1.903552376 0.77900004 1.352533558e-38
0.24514288 1.903428569 0.78000003 1.324874309e-38
0.24662858 1.903428569 0.78000003 1.306470495e-38
0.2481143 1.903428569 0.78000003 1.296893181e-38
0.25024 1.903180942 0.78200006 1.158746312e-38
0.25172952 1.903180942 0.78200006 1.030141024e-38
0.25321907 1.903180942 0.78200006 1.067019136e-38
0.25470859 1.903180942 0.78200006 1.104004447e-38
0.25685334 1.902933329 0.78400004 1.113152124e-38
0.25834668 1.902933329 0.78400004 1.113153385e-38
0.25984001 1.902933329 0.78400004 1.113190519e-38
0.24566668 1.908752374 0.73700005 1.122444694e-38
0.24707049 1.908752374 0.73700005 1.150173728e-38
0.2484743 1.908752374 0.73700005 1.187052261e-38
0.25089523 1.908380948 0.74000001 1.233150216e-38
0.25196382 1.908504762 0.73900002 1.288432561e-38
0.25371426 1.908380948 0.74000001 1.316092651e-38
0.25512382 1.908380948 0.74000001 1.352932928e-38
0.25653335 1.908380948 0.74000001 1.362007457e-38
0.25794286 1.908380948 0.74000001 1.371082266e-38
0.25935239 1.908380948 0.74000001 1.334454566e-38
0.26040953 1.908504762 0.73900002 1.297862039e-38
0.26181716 1.908504762 0.73900002 1.278955019e-38
0.26358095 1.908380948 0.74000001 1.269270225e-38
0.2646324 1.908504762 0.73900002 1.250904247e-38
0.26640001 1.908380948 0.74000001 1.241757411e-38
0.26744762 1.908504762 0.73900002 1.26952428e-38
0.26885524 1.908504762 0.73900002 1.297325481e-38
0.27026287 1.908504762 0.73900002 1.297324921e-38
0.27167046 1.908504762 0.73900002 1.297361635e-38
0.27233908 1.908752374 0.73700005 1.334168421e-38
0.27374288 1.908752374 0.73700005 1.380157355e-38
0.27514669 1.908752374 0.73700005 1.398667526e-38
0.2765505 1.908752374 0.73700005 1.417141405e-38
0.27795431 1.908752374 0.73700005 1.444691353e-38
0.27935812 1.908752374 0.73700005 1.481459743e-38
0.28152382 1.908504762 0.73900002 1.444759876e-38
0.28408003 1.908133328 0.74200004 1.417247063e-38
0.28741717 1.907514282 0.74700004 1.426504461e-38
0.28884 1.907514282 0.74700004 1.444943867e-38
0.2914286 1.907142848 0.75000006 1.45405623e-38
0.29285717 1.907142848 0.75000006 1.463384114e-38
0.29507047 1.906895235 0.75200003 1.454129659e-38
0.29689714 1.906771429 0.75300002 1.444909815e-38
0.29833144 1.906771429 0.75300002 1.426721662e-38
0.2008 1.90820571 0.75300002 1.382744011e-38
0.20277144 1.907961898 0.75500005 1.289432808e-38
0.20502095 1.907596186 0.75800002 1.121361771e-38
0.20646477 1.907596186 0.75800002 9.655663884e-39
0.20790857 1.907596186 0.75800002 1.002661421e-38
0.20935239 1.907596186 0.75800002 1.048722242e-38
0.21079619 1.907596186 0.75800002 1.094783203e-38
0.21280001 1.907352373 0.76000005 1.150028274e-38
0.21424764 1.907352373 0.76000005 1.196089935e-38
0.21512762 1.907596186 0.75800002 1.24197153e-38
0.21714287 1.907352373 0.76000005 1.315906139e-38
0.2185905 1.907352373 0.76000005 1.398702699e-38
0.2200381 1.907352373 0.76000005 1.407959116e-38
0.22236 1.906986669 0.76300001 1.426397962e-38
0.22440001 1.906742856 0.76500005 1.463311386e-38
0.22674286 1.906377144 0.76800001 1.509048227e-38
0.22939429 1.905889526 0.77200001 1.435614022e-38
0.23086476 1.905889526 0.77200001 1.362184721e-38
0.23263621 1.905767612 0.77300006 1.389774466e-38
0.2347143 1.905523807 0.77500004 1.417252247e-38
0.23619048 1.905523807 0.77500004 1.426434676e-38
0.23828 1.905280001 0.77700001 1.435474032e-38
0.23976 1.905280001 0.77700001 1.398631513e-38
0.24186096 1.905036189 0.77900004 1.371008277e-38
0.24334477 1.905036189 0.77900004 1.343385041e-38
0.24514288 1.904914282 0.78000003 1.315654605e-38
0.24662858 1.904914282 0.78000003 1.306470776e-38
0.2481143 1.904914282 0.78000003 1.296929054e-38
0.25024 1.904670469 0.78200006 1.140522425e-38
0.25172952 1.904670469 0.78200006 9.934062653e-39
0.25321907 1.904670469 0.78200006 1.021064674e-38
0.25470859 1.904670469 0.78200006 1.048794689e-38
0.25685334 1.904426664 0.78400004 1.048866295e-38
0.25834668 1.904426664 0.78400004 1.058050405e-38
0.24426287 1.910156183 0.73700005 1.067234516e-38
0.24566668 1.910156183 0.73700005 1.076489531e-38
0.24774097 1.909912378 0.73900002 1.122478886e-38
0.24914859 1.909912378 0.73900002 1.168505094e-38
0.2505562 1.909912378 0.73900002 1.232934276e-38
0.25196382 1.909912378 0.73900002 1.297686456e-38
0.25337145 1.909912378 0.73900002 1.344071537e-38
0.25477904 1.909912378 0.73900002 1.389737472e-38
0.25618666 1.909912378 0.73900002 1.408032264e-38
0.25759429 1.909912378 0.73900002 1.426398663e-38
0.25900191 1.909912378 0.73900002 1.426433975e-38
0.26040953 1.909912378 0.73900002 1.426432714e-38
0.26181716 1.909912378 0.73900002 1.380441958e-38
0.26322478 1.909912378 0.73900002 1.333879333e-38
0.2646324 1.909912378 0.73900002 1.296823116e-38
0.26640001 1.909790479 0.74000001 1.269416661e-38
0.26780954 1.909790479 0.74000001 1.287927953e-38
0.26885524 1.909912378 0.73900002 1.306545044e-38
0.27026287 1.909912378 0.73900002 1.324946896e-38
0.27167046 1.909912378 0.73900002 1.352570132e-38
0.27233908 1.910156183 0.73700005 1.371045692e-38
0.27374288 1.910156183 0.73700005 1.389413351e-38
0.27514669 1.910156183 0.73700005 1.398597602e-38
0.2765505 1.910156183 0.73700005 1.417070639e-38
0.27795431 1.910156183 0.73700005 1.463058452e-38
0.27935812 1.910156183 0.73700005 1.518123316e-38
0.28152382 1.909912378 0.73900002 1.472205007e-38
0.28293142 1.909912378 0.73900002 1.426431313e-38
0.28664762 1.909180947 0.74500006 1.435974155e-38
0.28884 1.908937141 0.74700004 1.454162449e-38
0.2914286 1.908571422 0.75000006 1.463238939e-38
0.29285717 1.908571422 0.75000006 1.47242389e-38
0.29507047 1.908327617 0.75200003 1.463241742e-38
0.29768574 1.907961898 0.75500005 1.454129799e-38
0.29912382 1.907961898 0.75500005 1.435475573e-38
0.30056193 1.907961898 0.75500005 1.426513709e-38
0.20502095 1.909039997 0.75800002 1.168857941e-38
0.20646477 1.909039997 0.75800002 9.375133741e-39
0.20845716 1.908799991 0.76000005 9.83863703e-39
0.21018097 1.908679999 0.76100004 1.03021151e-38
0.21163048 1.908679999 0.76100004 1.048721821e-38
0.21308 1.908679999 0.76100004 1.076452257e-38
0.21452953 1.908679999 0.76100004 1.122478045e-38
0.21569525 1.908799991 0.76000005 1.168574879e-38
0.21742858 1.908679999 0.76100004 1.20556005e-38
0.21887811 1.908679999 0.76100004 1.251729752e-38
0.22090666 1.908440001 0.76300001 1.2977561e-38
0.22236 1.908440001 0.76300001 1.334670646e-38
0.22498667 1.907959998 0.76700002 1.380517628e-38
0.22674286 1.907840006 0.76800001 1.426362509e-38
0.2288 1.907600001 0.77000004 1.38962719e-38
0.23086476 1.907359995 0.77200001 1.34356707e-38
0.23263621 1.907239988 0.77300006 1.362007176e-38
0.2341086 1.907239988 0.77300006 1.389665025e-38
0.23619048 1.906999998 0.77500004 1.389628871e-38
0.23828 1.90676 0.77700001 1.398775987e-38
0.23976 1.90676 0.77700001 1.370866045e-38
0.24123999 1.90676 0.77700001 1.343170362e-38
0.24334477 1.906519994 0.77900004 1.315618312e-38
0.24482858 1.906519994 0.77900004 1.278920267e-38
0.24631239 1.906519994 0.77900004 1.260517575e-38
0.2481143 1.906399995 0.78000003 1.24186377e-38
0.25024 1.906159997 0.78200006 1.131517962e-38
0.25108573 1.906399995 0.78000003 1.030175917e-38
0.25321907 1.906159997 0.78200006 1.011808677e-38
0.25470859 1.906159997 0.78200006 1.00276848e-38
0.25685334 1.905919999 0.78400004 9.937282836e-39
0.24285907 1.911559992 0.73700005 9.942662421e-39
0.24426287 1.911559992 0.73700005 1.002732187e-38
0.24566668 1.911559992 0.73700005 1.011880424e-38
0.24774097 1.911319993 0.73900002 1.058049845e-38
0.2484743 1.911559992 0.73700005 1.113187857e-38
0.2505562 1.911319993 0.73900002 1.205239433e-38
0.25128192 1.911559992 0.73700005 1.306940211e-38
0.25268573 1.911559992 0.73700005 1.353181098e-38
0.25477904 1.911319993 0.73900002 1.398991367e-38
0.25618666 1.911319993 0.73900002 1.444909395e-38
0.25759429 1.911319993 0.73900002 1.500046426e-38
0.25900191 1.911319993 0.73900002 1.463132721e-38
0.26040953 1.911319993 0.73900002 1.426505441e-38
0.26181716 1.911319993 0.73900002 1.389555303e-38
0.26322478 1.911319993 0.73900002 1.343423016e-38
0.2646324 1.911319993 0.73900002 1.324446772e-38
0.26604 1.911319993 0.73900002 1.297147657e-38
0.26744762 1.911319993 0.73900002 1.3063675e-38
0.26885524 1.911319993 0.73900002 1.315800481e-38
0.27026287 1.911319993 0.73900002 1.334130165e-38
0.27093527 1.911559992 0.73700005 1.361896754e-38
0.27233908 1.911559992 0.73700005 1.371009398e-38
0.27374288 1.911559992 0.73700005 1.389378179e-38
0.27514669 1.911559992 0.73700005 1.389415874e-38
0.2765505 1.911559992 0.73700005 1.389449085e-38
0.27795431 1.911559992 0.73700005 1.398558365e-38
0.27935812 1.911559992 0.73700005 1.407706602e-38
0.28152382 1.911319993 0.73900002 1.398702979e-38
0.28446287 1.910839997 0.74300003 1.398917238e-38
0.28587809 1.910839997 0.74300003 1.417355103e-38
0.28884 1.910360001 0.74700004 1.445013932e-38
0.2914286 1.909999996 0.75000006 1.454162169e-38
0.29285717 1.909999996 0.75000006 1.47253123e-38
0.29507047 1.909759998 0.75200003 1.463349642e-38
0.29689714 1.909639992 0.75300002 1.463349782e-38
0.29912382 1.909399994 0.75500005 1.435548161e-38
0.30056193 1.909399994 0.75500005 1.416934433e-38
0.20646477 1.910483807 0.75800002 9.115445109e-39
0.20873144 1.910129517 0.76100004 9.645259243e-39
0.21018097 1.910129517 0.76100004 1.020416994e-38
0.21163048 1.910129517 0.76100004 1.011700357e-38
0.21308 1.910129517 0.76100004 1.002804073e-38
0.21452953 1.910129517 0.76100004 1.048865595e-38
0.21597905 1.910129517 0.76100004 1.094962849e-38
0.21742858 1.910129517 0.76100004 1.104397652e-38
0.21887811 1.910129517 0.76100004 1.113833014e-38
0.22090666 1.909893334 0.76300001 1.178369815e-38
0.22294286 1.909657136 0.76500005 1.25180304e-38
0.22498667 1.909420952 0.76700002 1.297721488e-38
0.22674286 1.909302853 0.76800001 1.352821665e-38
0.2288 1.909066662 0.77000004 1.343672868e-38
0.23026668 1.909066662 0.77000004 1.334454706e-38
0.23233524 1.908830471 0.77200001 1.343603643e-38
0.2341086 1.90871238 0.77300006 1.361971724e-38
0.23619048 1.908476189 0.77500004 1.362008578e-38
0.23828 1.908239998 0.77700001 1.362007176e-38
0.23976 1.908239998 0.77700001 1.343136591e-38
0.24123999 1.908239998 0.77700001 1.324696484e-38
0.24334477 1.9080038 0.77900004 1.287889418e-38
0.24482858 1.9080038 0.77900004 1.251226966e-38
0.24662858 1.907885715 0.78000003 1.223748063e-38
0.2481143 1.907885715 0.78000003 1.195874555e-38
0.24960001 1.907885715 0.78000003 1.131733201e-38
0.25108573 1.907885715 0.78000003 1.067053468e-38
0.25257143 1.907885715 0.78000003 1.011772664e-38
0.25405714 1.907885715 0.78000003 9.65890789e-39
0.25619811 1.907649517 0.78200006 9.477749426e-39
0.24285907 1.9129638 0.73700005 9.292280568e-39
0.24426287 1.9129638 0.73700005 9.382319599e-39
0.24566668 1.9129638 0.73700005 9.567431126e-39
0.24707049 1.9129638 0.73700005 1.002840787e-38
0.2484743 1.9129638 0.73700005 1.058050546e-38
0.24987811 1.9129638 0.73700005 1.186764434e-38
0.25128192 1.9129638 0.73700005 1.324912424e-38
0.25268573 1.9129638 0.73700005 1.362328354e-38
0.25408953 1.9129638 0.73700005 1.408247644e-38
0.25549334 1.9129638 0.73700005 1.490901132e-38
0.25689715 1.9129638 0.73700005 1.573480351e-38
0.25830096 1.9129638 0.73700005 1.49986734e-38
0.2597048 1.9129638 0.73700005 1.435689271e-38
0.26110861 1.9129638 0.73700005 1.399277091e-38
0.26251242 1.9129638 0.73700005 1.361933748e-38
0.26391622 1.9129638 0.73700005 1.342885758e-38
0.26604 1.912727617 0.73900002 1.333809688e-38
0.26744762 1.912727617 0.73900002 1.333988774e-38
0.26812765 1.9129638 0.73700005 1.334058699e-38
0.26953146 1.9129638 0.73700005 1.352495723e-38
0.27093527 1.9129638 0.73700005 1.37093569e-38
0.27233908 1.9129638 0.73700005 1.380191967e-38
0.27374288 1.9129638 0.73700005 1.398560047e-38
0.27514669 1.9129638 0.73700005 1.380229802e-38
0.2765505 1.9129638 0.73700005 1.371080724e-38
0.27795431 1.9129638 0.73700005 1.334237505e-38
0.27935812 1.9129638 0.73700005 1.29753946e-38
0.28152382 1.912727617 0.73900002 1.334417431e-38
0.28446287 1.912255235 0.74300003 1.371294843e-38
0.28587809 1.912255235 0.74300003 1.399024577e-38
0.28884 1.911782853 0.74700004 1.435759056e-38
0.2914286 1.911428563 0.75000006 1.454162449e-38
0.29285717 1.911428563 0.75000006 1.481678486e-38
0.29546288 1.911074288 0.75300002 1.472460464e-38
0.29768574 1.91083809 0.75500005 1.472495637e-38
0.29952002 1.910719998 0.75600004 1.444836667e-38
0.30096003 1.910719998 0.75600004 1.417112398e-38
0.30240002 1.910719998 0.75600004 1.418050847e-38
0.20928 1.911346667 0.76300001 1.094636206e-38
0.21073334 1.911346667 0.76300001 9.463376307e-39
0.21218666 1.911346667 0.76300001 9.654235961e-39
0.21364 1.911346667 0.76300001 9.842571876e-39
0.21452953 1.911579043 0.76100004 1.002803933e-38
0.21654667 1.911346667 0.76300001 1.021386692e-38
0.21800001 1.911346667 0.76300001 1.039825958e-38
0.21945333 1.911346667 0.76300001 1.058301378e-38
0.22148572 1.911114283 0.76500005 1.09517977e-38
0.22352572 1.910881899 0.76700002 1.141277305e-38
0.22498667 1.910881899 0.76700002 1.242583757e-38
0.22674286 1.910765715 0.76800001 1.343601682e-38
0.2288 1.910533331 0.77000004 1.334488757e-38
0.23026668 1.910533331 0.77000004 1.316194666e-38
0.23233524 1.910300955 0.77200001 1.334419673e-38
0.2341086 1.910184756 0.77300006 1.352753141e-38
0.23558097 1.910184756 0.77300006 1.343607847e-38
0.23766668 1.90995238 0.77500004 1.334422056e-38
0.23914286 1.90995238 0.77500004 1.306582319e-38
0.24123999 1.909720004 0.77700001 1.287927253e-38
0.24271999 1.909720004 0.77700001 1.241936918e-38
0.24482858 1.90948762 0.77900004 1.204987199e-38
0.24631239 1.90948762 0.77900004 1.17743641e-38
0.2481143 1.909371428 0.78000003 1.149921214e-38
0.24960001 1.909371428 0.78000003 1.094999003e-38
0.25108573 1.909371428 0.78000003 1.039682185e-38
0.25321907 1.909139045 0.78200006 9.935489174e-39
0.25405714 1.909371428 0.78000003 9.474162102e-39
0.25619811 1.909139045 0.78200006 9.106105455e-39
0.24285907 1.914367609 0.73700005 8.738399133e-39
0.24426287 1.914367609 0.73700005 8.922783386e-39
0.24566668 1.914367609 0.73700005 9.104666321e-39
0.24707049 1.914367609 0.73700005 9.751466456e-39
0.2484743 1.914367609 0.73700005 1.030248644e-38
0.24987811 1.914367609 0.73700005 1.149886602e-38
0.25128192 1.914367609 0.73700005 1.278635663e-38
0.25268573 1.914367609 0.73700005 1.32519927e-38
0.25408953 1.914367609 0.73700005 1.380590356e-38
0.25549334 1.914367609 0.73700005 1.444985766e-38
0.25689715 1.914367609 0.73700005 1.509196905e-38
0.25830096 1.914367609 0.73700005 1.463277195e-38
0.2597048 1.914367609 0.73700005 1.417358466e-38
0.26110861 1.914367609 0.73700005 1.38973509e-38
0.26251242 1.914367609 0.73700005 1.352929845e-38
0.26391622 1.914367609 0.73700005 1.343029531e-38
0.26532003 1.914367609 0.73700005 1.342921071e-38
0.26744762 1.914135233 0.73900002 1.352283146e-38
0.26812765 1.914367609 0.73700005 1.361500467e-38
0.26953146 1.914367609 0.73700005 1.389049154e-38
0.27093527 1.914367609 0.73700005 1.407417514e-38
0.27233908 1.914367609 0.73700005 1.398378859e-38
0.27374288 1.914367609 0.73700005 1.380047773e-38
0.27514669 1.914367609 0.73700005 1.36186032e-38
0.2765505 1.914367609 0.73700005 1.343528814e-38
0.27795431 1.914367609 0.73700005 1.306758602e-38
0.2801162 1.914135233 0.73900002 1.270024404e-38
0.28190476 1.914019048 0.74000001 1.306794476e-38
0.28408003 1.913786665 0.74200004 1.343672587e-38
0.28664762 1.913438089 0.74500006 1.380478953e-38
0.28922668 1.913089521 0.74800003 1.417284898e-38
0.2914286 1.912857138 0.75000006 1.44497918e-38
0.29363811 1.912624761 0.75200003 1.472494656e-38
0.29507047 1.912624761 0.75200003 1.490898469e-38
0.29768574 1.912276186 0.75500005 1.509335633e-38
0.29912382 1.912276186 0.75500005 1.463129358e-38
0.30096003 1.912160002 0.75600004 1.417290363e-38
0.30240002 1.912160002 0.75600004 1.418086721e-38
0.20928 1.912800007 0.76300001 1.233938726e-38
0.21128573 1.91257143 0.76500005 8.83705615e-39
0.21274288 1.91257143 0.76500005 9.283651372e-39
0.21420002 1.91257143 0.76500005 9.748209838e-39
0.21509334 1.912800007 0.76300001 9.659245603e-39
0.2171143 1.91257143 0.76500005 9.569926839e-39
0.21914285 1.912342854 0.76700002 9.755755831e-39
0.22060381 1.912342854 0.76700002 1.00309148e-38
0.22206476 1.912342854 0.76700002 1.021710953e-38
0.22381714 1.912228569 0.76800001 1.040293011e-38
0.22528 1.912228569 0.76800001 1.187480637e-38
0.22733334 1.912 0.77000004 1.343636154e-38
0.2288 1.912 0.77000004 1.325519606e-38
0.23086476 1.911771432 0.77200001 1.306938389e-38
0.23233524 1.911771432 0.77200001 1.325235003e-38
0.2341086 1.911657132 0.77300006 1.343603784e-38
0.23558097 1.911657132 0.77300006 1.325238366e-38
0.23766668 1.911428563 0.77500004 1.306833291e-38
0.23914286 1.911428563 0.77500004 1.279244808e-38
0.24061905 1.911428563 0.77500004 1.2513713e-38
0.24271999 1.911200002 0.77700001 1.205166425e-38
0.24482858 1.910971425 0.77900004 1.158925958e-38
0.24631239 1.910971425 0.77900004 1.13126769e-38
0.2481143 1.910857141 0.78000003 1.103967873e-38
0.24960001 1.910857141 0.78000003 1.058264944e-38
0.25108573 1.910857141 0.78000003 1.021350539e-38
0.25257143 1.910857141 0.78000003 9.753244704e-39
0.25405714 1.910857141 0.78000003 9.38303286e-39
0.25619811 1.910628565 0.78200006 8.739466922e-39
0.24285907 1.915771425 0.73700005 8.188093811e-39
0.24426287 1.915771425 0.73700005 8.463598899e-39
0.24566668 1.915771425 0.73700005 8.739468323e-39
0.24707049 1.915771425 0.73700005 9.382681134e-39
0.2484743 1.915771425 0.73700005 1.011880984e-38
0.24987811 1.915771425 0.73700005 1.122227913e-38
0.25128192 1.915771425 0.73700005 1.232717775e-38
0.25268573 1.915771425 0.73700005 1.297289888e-38
0.25408953 1.915771425 0.73700005 1.362042489e-38
0.25549334 1.915771425 0.73700005 1.408248765e-38
0.25689715 1.915771425 0.73700005 1.454165812e-38
0.25830096 1.915771425 0.73700005 1.426650196e-38
0.2597048 1.915771425 0.73700005 1.408139043e-38
0.26110861 1.915771425 0.73700005 1.3804442e-38
0.26251242 1.915771425 0.73700005 1.352642859e-38
0.26391622 1.915771425 0.73700005 1.352392167e-38
0.26532003 1.915771425 0.73700005 1.352140494e-38
0.26672384 1.915771425 0.73700005 1.370614652e-38
0.26812765 1.915771425 0.73700005 1.398199633e-38
0.26953146 1.915771425 0.73700005 1.42574888e-38
0.27167046 1.915542856 0.73900002 1.453407149e-38
0.27233908 1.915771425 0.73700005 1.407561147e-38
0.27374288 1.915771425 0.73700005 1.370826949e-38
0.27514669 1.915771425 0.73700005 1.343527413e-38
0.2765505 1.915771425 0.73700005 1.325052974e-38
0.27870858 1.915542856 0.73900002 1.27906362e-38
0.2801162 1.915542856 0.73900002 1.242365575e-38
0.28380954 1.914857134 0.74500006 1.279136067e-38
0.28522858 1.914857134 0.74500006 1.315870405e-38
0.28741717 1.914628565 0.74700004 1.352604744e-38
0.28922668 1.914514288 0.74800003 1.398953391e-38
0.2914286 1.914285704 0.75000006 1.42661194e-38
0.29363811 1.914057136 0.75200003 1.46334726e-38
0.29624763 1.913714282 0.75500005 1.500226072e-38
0.29768574 1.913714282 0.75500005 1.545999066e-38
0.29912382 1.913714282 0.75500005 1.481426112e-38
0.30056193 1.913714282 0.75500005 1.426366433e-38
0.30200005 1.913714282 0.75500005 1.427304882e-38
0.21266668 1.913466662 0.77000004 1.215643374e-38
0.21357714 1.913691431 0.76800001 1.067157304e-38
0.21504 1.913691431 0.76800001 9.286507218e-39
0.21650286 1.913691431 0.76800001 9.291529472e-39
0.21853334 1.913466662 0.77000004 9.293688872e-39
0.22000001 1.913466662 0.77000004 9.38624884e-39
0.22146668 1.913466662 0.77000004 9.571011444e-39
0.22293335 1.913466662 0.77000004 9.75290559e-39
0.22440001 1.913466662 0.77000004 1.002660861e-38
0.22586668 1.913466662 0.77000004 1.076773995e-38
0.22792381 1.913241908 0.77200001 1.159999773e-38
0.22939429 1.913241908 0.77200001 1.196697958e-38
0.23086476 1.913241908 0.77200001 1.224213715e-38
0.23233524 1.913241908 0.77200001 1.270096711e-38
0.2341086 1.913129523 0.77300006 1.31590782e-38
0.23558097 1.913129523 0.77300006 1.297505969e-38
0.23766668 1.912904762 0.77500004 1.279137048e-38
0.23914286 1.912904762 0.77500004 1.25183569e-38
0.24061905 1.912904762 0.77500004 1.233684531e-38
0.24271999 1.91268 0.77700001 1.177687243e-38
0.24482858 1.912455231 0.77900004 1.131231676e-38
0.24631239 1.912455231 0.77900004 1.085421968e-38
0.2481143 1.912342854 0.78000003 1.048866716e-38
0.24960001 1.912342854 0.78000003 1.01216811e-38
0.25108573 1.912342854 0.78000003 9.846878066e-39
0.25257143 1.912342854 0.78000003 9.384818114e-39
0.25405714 1.912342854 0.78000003 9.016755862e-39
0.25685334 1.911893331 0.78400004 8.371752192e-39
0.24285907 1.917175233 0.73700005 7.816435828e-39
0.24426287 1.917175233 0.73700005 8.092303851e-39
0.24566668 1.917175233 0.73700005 8.460367504e-39
0.24707049 1.917175233 0.73700005 8.736597063e-39
0.2484743 1.917175233 0.73700005 9.012832226e-39
0.24987811 1.917175233 0.73700005 1.057404687e-38
0.25128192 1.917175233 0.73700005 1.222709001e-38
0.25268573 1.917175233 0.73700005 1.269308761e-38
0.25374475 1.91728761 0.73600006 1.325163537e-38
0.25549334 1.917175233 0.73700005 1.352929565e-38
0.25689715 1.917175233 0.73700005 1.389879423e-38
0.25830096 1.917175233 0.73700005 1.380481055e-38
0.2597048 1.917175233 0.73700005 1.380301408e-38
0.26110861 1.917175233 0.73700005 1.361862282e-38
0.26251242 1.917175233 0.73700005 1.342706112e-38
0.26391622 1.917175233 0.73700005 1.352356154e-38
0.26532003 1.917175233 0.73700005 1.36139593e-38
0.26744762 1.916950472 0.73900002 1.370615073e-38
0.26885524 1.916950472 0.73900002 1.389017064e-38
0.27026287 1.916950472 0.73900002 1.398235506e-38
0.2720381 1.916838095 0.74000001 1.398413611e-38
0.27307808 1.916950472 0.73900002 1.352458729e-38
0.27448574 1.916950472 0.73900002 1.306504827e-38
0.27589336 1.916950472 0.73900002 1.223888614e-38
0.27730095 1.916950472 0.73900002 1.150492524e-38
0.28021717 1.916500948 0.74300003 1.159425661e-38
0.28314859 1.916051425 0.74700004 1.159175109e-38
0.2849524 1.915939048 0.74800003 1.251011306e-38
0.28714287 1.915714279 0.75000006 1.352066085e-38
0.28857145 1.915714279 0.75000006 1.371114776e-38
0.29077333 1.915489517 0.75200003 1.389805295e-38
0.29220572 1.915489517 0.75200003 1.417464264e-38
0.29402858 1.91537714 0.75300002 1.445016314e-38
0.29624763 1.915152378 0.75500005 1.472568504e-38
0.29768574 1.915152378 0.75500005 1.500010693e-38
0.29912382 1.915152378 0.75500005 1.453948611e-38
0.30056193 1.915152378 0.75500005 1.407891714e-38
0.30200005 1.915152378 0.75500005 1.408864775e-38
0.3034381 1.915152378 0.75500005 1.410231602e-38
0.21349525 1.9146019 0.77300006 1.547369536e-38
0.21468954 1.914712377 0.77200001 1.215178423e-38
0.21644002 1.9146019 0.77300006 8.930685308e-39
0.21791239 1.9146019 0.77300006 8.923828755e-39
0.21938477 1.9146019 0.77300006 9.017466321e-39
0.22085716 1.9146019 0.77300006 9.109668957e-39
0.22232954 1.9146019 0.77300006 9.201512861e-39
0.22380193 1.9146019 0.77300006 9.385192261e-39
0.22527431 1.9146019 0.77300006 9.660695947e-39
0.22674668 1.9146019 0.77300006 9.752530042e-39
0.22821906 1.9146019 0.77300006 9.844717264e-39
0.22969145 1.9146019 0.77300006 1.067194719e-38
0.23116381 1.9146019 0.77300006 1.150242672e-38
0.23263621 1.9146019 0.77300006 1.2149594e-38
0.2341086 1.9146019 0.77300006 1.288428497e-38
0.23558097 1.9146019 0.77300006 1.270062239e-38
0.23766668 1.914380953 0.77500004 1.251837792e-38
0.23914286 1.914380953 0.77500004 1.233613345e-38
0.24061905 1.914380953 0.77500004 1.215174499e-38
0.24271999 1.914159998 0.77700001 1.15939161e-38
0.24420001 1.914159998 0.77700001 1.103859833e-38
0.24631239 1.913939044 0.77900004 1.048758676e-38
0.2481143 1.913828567 0.78000003 1.002804774e-38
0.24960001 1.913828567 0.78000003 9.752539851e-39
0.25108573 1.913828567 0.78000003 9.476304687e-39
0.25257143 1.913828567 0.78000003 9.108594161e-39
0.25405714 1.913828567 0.78000003 8.740887839e-39
0.25619811 1.913607612 0.78200006 8.0962415e-39
0.24285907 1.918579042 0.73700005 7.44909104e-39
0.24426287 1.918579042 0.73700005 7.813207236e-39
0.24566668 1.918579042 0.73700005 8.276329372e-39
0.24707049 1.918579042 0.73700005 8.09122345e-39
0.2484743 1.918579042 0.73700005 7.911150992e-39
0.24987811 1.918579042 0.73700005 1.002337861e-38
0.25128192 1.918579042 0.73700005 1.222671866e-38
0.25268573 1.918579042 0.73700005 1.250510062e-38
0.25408953 1.918579042 0.73700005 1.28756782e-38
0.25549334 1.918579042 0.73700005 1.306294352e-38
0.25689715 1.918579042 0.73700005 1.333952761e-38
0.25830096 1.918579042 0.73700005 1.34324407e-38
0.2597048 1.918579042 0.73700005 1.352750059e-38
0.26110861 1.918579042 0.73700005 1.343315116e-38
0.26251242 1.918579042 0.73700005 1.34324351e-38
0.26391622 1.918579042 0.73700005 1.352355453e-38
0.26532003 1.918579042 0.73700005 1.370578639e-38
0.26672384 1.918579042 0.73700005 1.380156374e-38
0.26885524 1.918358095 0.73900002 1.389231323e-38
0.27062857 1.918247618 0.74000001 1.370755623e-38
0.27277336 1.918026663 0.74200004 1.352208036e-38
0.2741867 1.918026663 0.74200004 1.296961985e-38
0.27597144 1.917916186 0.74300003 1.241969428e-38
0.27738667 1.917916186 0.74300003 1.11257591e-38
0.27880192 1.917916186 0.74300003 9.841504086e-39
0.28172573 1.917474277 0.74700004 1.03021235e-38
0.28314859 1.917474277 0.74700004 1.085493154e-38
0.2849524 1.917363808 0.74800003 1.232430228e-38
0.28637716 1.917363808 0.74800003 1.388944617e-38
0.28857145 1.917142853 0.75000006 1.380442099e-38
0.29077333 1.916921906 0.75200003 1.380657618e-38
0.29259428 1.916811429 0.75300002 1.399132617e-38
0.29480955 1.916590467 0.75500005 1.426649495e-38
0.29624763 1.916590467 0.75500005 1.435835147e-38
0.29768574 1.916590467 0.75500005 1.454129098e-38
0.29912382 1.916590467 0.75500005 1.426505441e-38
0.30056193 1.916590467 0.75500005 1.399138363e-38
0.30200005 1.916590467 0.75500005 1.399609059e-38
0.3034381 1.916590467 0.75500005 1.40068918e-38
0.21349525 1.916074276 0.77300006 1.35563323e-38
0.21468954 1.916182853 0.77200001 1.151224562e-38
0.21644002 1.916074276 0.77300006 9.581107799e-39
0.21847619 1.915857136 0.77500004 9.384799897e-39
0.22052 1.915639997 0.77700001 9.200421249e-39
0.222 1.915639997 0.77700001 9.108954295e-39
0.22290477 1.915857136 0.77500004 9.018913862e-39
0.22438096 1.915857136 0.77500004 9.294421752e-39
0.22585715 1.915857136 0.77500004 9.570291176e-39
0.22674668 1.916074276 0.77300006 9.661414813e-39
0.22821906 1.916074276 0.77300006 9.844714461e-39
0.22969145 1.916074276 0.77300006 1.030388073e-38
0.23116381 1.916074276 0.77300006 1.076307503e-38
0.23263621 1.916074276 0.77300006 1.094927396e-38
0.2341086 1.916074276 0.77300006 1.113546169e-38
0.23558097 1.916074276 0.77300006 1.141240871e-38
0.23766668 1.915857136 0.77500004 1.169473252e-38
0.23914286 1.915857136 0.77500004 1.160110476e-38
0.24061905 1.915857136 0.77500004 1.14156317e-38
0.24209525 1.915857136 0.77500004 1.094999003e-38
0.24420001 1.915639997 0.77700001 1.058121031e-38
0.24567999 1.915639997 0.77700001 1.012023636e-38
0.24779619 1.915422849 0.77900004 9.658906489e-39
0.24960001 1.915314279 0.78000003 9.383041268e-39
0.25108573 1.915314279 0.78000003 9.107526372e-39
0.25321907 1.915097132 0.78200006 8.833087672e-39
0.25470859 1.915097132 0.78200006 8.649050941e-39
0.25685334 1.914879993 0.78400004 8.281343218e-39
0.25834668 1.914879993 0.78400004 8.000458546e-39
0.24492571 1.919765711 0.73900002 8.184133742e-39
0.24633333 1.919765711 0.73900002 8.368157861e-39
0.24774097 1.919765711 0.73900002 8.091928303e-39
0.2484743 1.919982851 0.73700005 7.819661617e-39
0.24987811 1.919982851 0.73700005 9.012816812e-39
0.25128192 1.919982851 0.73700005 1.02978019e-38
0.25268573 1.919982851 0.73700005 1.066550962e-38
0.25408953 1.919982851 0.73700005 1.103860394e-38
0.25549334 1.919982851 0.73700005 1.204916574e-38
0.25689715 1.919982851 0.73700005 1.315154902e-38
0.25830096 1.919982851 0.73700005 1.324517818e-38
0.2597048 1.919982851 0.73700005 1.325198849e-38
0.26110861 1.919982851 0.73700005 1.31590726e-38
0.26322478 1.919765711 0.73900002 1.30661623e-38
0.26391622 1.919982851 0.73700005 1.315620694e-38
0.26604 1.919765711 0.73900002 1.33384374e-38
0.26780954 1.919657141 0.74000001 1.343206095e-38
0.26921904 1.919657141 0.74000001 1.352819143e-38
0.27136001 1.919439994 0.74200004 1.334056457e-38
0.27277336 1.919439994 0.74200004 1.315293631e-38
0.27455619 1.919331424 0.74300003 1.269303015e-38
0.27597144 1.919331424 0.74300003 1.232535466e-38
0.27738667 1.919331424 0.74300003 1.195409184e-38
0.27880192 1.919331424 0.74300003 1.158639813e-38
0.28097144 1.919114277 0.74500006 1.204737768e-38
0.28314859 1.918897137 0.74700004 1.250834602e-38
0.28457144 1.918897137 0.74700004 1.342921071e-38
0.28637716 1.918788567 0.74800003 1.425858882e-38
0.28857145 1.91857142 0.75000006 1.417248324e-38
0.29077333 1.91835428 0.75200003 1.40824414e-38
0.29259428 1.91824571 0.75300002 1.417463563e-38
0.29480955 1.918028563 0.75500005 1.426685648e-38
0.29624763 1.918028563 0.75500005 1.463422509e-38
0.29808 1.917919993 0.75600004 1.49100721e-38
0.29952002 1.917919993 0.75600004 1.426792287e-38
0.30096003 1.917919993 0.75600004 1.371802813e-38
0.30240002 1.917919993 0.75600004 1.390353483e-38
0.21847619 1.917333335 0.77500004 9.753935544e-39
0.22052 1.917120002 0.77700001 9.383732108e-39
0.222 1.917120002 0.77700001 9.107517964e-39
0.22348 1.917120002 0.77700001 8.832375813e-39
0.22496 1.917120002 0.77700001 9.108605371e-39
0.22585715 1.917333335 0.77500004 9.477752228e-39
0.22733334 1.917333335 0.77500004 9.661793163e-39
0.22880954 1.917333335 0.77500004 9.9358409e-39
0.23028573 1.917333335 0.77500004 1.002657638e-38
0.23116381 1.917546667 0.77300006 1.011914475e-38
0.23263621 1.917546667 0.77300006 9.755405506e-39
0.2341086 1.917546667 0.77300006 9.480622088e-39
0.23619048 1.917333335 0.77500004 1.021603053e-38
0.23766668 1.917333335 0.77500004 1.09517949e-38
0.23914286 1.917333335 0.77500004 1.086139854e-38
0.24061905 1.917333335 0.77500004 1.076740364e-38
0.24209525 1.917333335 0.77500004 1.039826099e-38
0.24357145 1.917333335 0.77500004 1.012167269e-38
0.24567999 1.917120002 0.77700001 9.752890175e-39
0.24779619 1.91690667 0.77900004 9.383398599e-39
0.24960001 1.9168 0.78000003 9.014264354e-39
0.25108573 1.9168 0.78000003 8.740543119e-39
0.25321907 1.91658666 0.78200006 8.649775413e-39
0.25470859 1.91658666 0.78200006 8.557935713e-39
0.24669716 1.919679999 0.75300002 8.558291642e-39
0.24648382 1.920213334 0.74800003 8.553629522e-39
0.24492571 1.921173327 0.73900002 8.553630924e-39
0.24633333 1.921173327 0.73900002 8.552549121e-39
0.24774097 1.921173327 0.73900002 8.184482665e-39
0.2494857 1.921066664 0.74000001 7.819661617e-39
0.2505562 1.921173327 0.73900002 8.094103118e-39
0.25196382 1.921173327 0.73900002 8.368178881e-39
0.25268573 1.921386659 0.73700005 8.73409014e-39
0.25408953 1.921386659 0.73700005 9.197945155e-39
0.25549334 1.921386659 0.73700005 1.113116811e-38
0.25689715 1.921386659 0.73700005 1.305898906e-38
0.25830096 1.921386659 0.73700005 1.305826599e-38
0.2597048 1.921386659 0.73700005 1.305826599e-38
0.26110861 1.921386659 0.73700005 1.287459499e-38
0.26322478 1.921173327 0.73900002 1.26919988e-38
0.2646324 1.921173327 0.73900002 1.278490909e-38
0.26640001 1.921066664 0.74000001 1.296857868e-38
0.26853335 1.920853332 0.74200004 1.306077151e-38
0.26994669 1.920853332 0.74200004 1.32422845e-38
0.27136001 1.920853332 0.74200004 1.305645411e-38
0.27314097 1.920746662 0.74300003 1.287421524e-38
0.27455619 1.920746662 0.74300003 1.250830538e-38
0.27597144 1.920746662 0.74300003 1.223353738e-38
0.27813336 1.920533322 0.74500006 1.278277771e-38
0.2795524 1.920533322 0.74500006 1.342599473e-38
0.28172573 1.920319997 0.74700004 1.380159737e-38
0.28314859 1.920319997 0.74700004 1.426219296e-38
0.2849524 1.920213334 0.74800003 1.44476408e-38
0.28637716 1.920213334 0.74800003 1.472350182e-38
0.28857145 1.919999994 0.75000006 1.454054269e-38
0.29116002 1.919679999 0.75300002 1.435759336e-38
0.29337144 1.919466659 0.75500005 1.435831643e-38
0.29520002 1.919359997 0.75600004 1.435833045e-38
0.29664001 1.919359997 0.75600004 1.481788067e-38
0.29886857 1.919146664 0.75800002 1.53695943e-38
0.30031237 1.919146664 0.75800002 1.436010589e-38
0.30096003 1.919359997 0.75600004 1.344250203e-38
0.30240002 1.919359997 0.75600004 1.381131397e-38
0.21960382 1.918390475 0.77900004 9.843977378e-39
0.22108763 1.918390475 0.77900004 9.475208872e-39
0.22257143 1.918390475 0.77900004 8.924564436e-39
0.22348 1.9186 0.77700001 8.374277332e-39
0.22496 1.9186 0.77700001 8.92565885e-39
0.22644001 1.9186 0.77700001 9.568884273e-39
0.22792001 1.9186 0.77700001 9.843691513e-39
0.22880954 1.918809518 0.77500004 1.021063833e-38
0.23028573 1.918809518 0.77500004 1.002657217e-38
0.2317619 1.918809518 0.77500004 9.750720965e-39
0.2332381 1.918809518 0.77500004 9.476304687e-39
0.2347143 1.918809518 0.77500004 9.110404639e-39
0.23619048 1.918809518 0.77500004 9.662143488e-39
0.23766668 1.918809518 0.77500004 1.021388094e-38
0.23852573 1.919019043 0.77300006 1.012169371e-38
0.2399981 1.919019043 0.77300006 1.012132798e-38
0.2414705 1.919019043 0.77300006 9.937649977e-39
0.24294288 1.919019043 0.77300006 9.846164805e-39
0.24441525 1.919019043 0.77300006 9.478098349e-39
0.24652381 1.918809518 0.77500004 9.200084938e-39
0.24096 1.921114288 0.75300002 8.924582653e-39
0.24239428 1.921114288 0.75300002 8.649425088e-39
0.2444762 1.920904763 0.75500005 8.649775413e-39
0.24526286 1.921114288 0.75300002 8.558298649e-39
0.24669716 1.921114288 0.75300002 8.648699215e-39
0.24780191 1.921219051 0.75200003 8.739458514e-39
0.24857146 1.921428569 0.75000006 8.738741049e-39
0.25000003 1.921428569 0.75000006 8.738016578e-39
0.25075811 1.921638086 0.74800003 8.462503083e-39
0.25184572 1.921742849 0.74700004 8.187363735e-39
0.25157332 1.922266662 0.74200004 8.368892142e-39
0.25230476 1.922476187 0.74000001 8.549696078e-39
0.25337145 1.92258095 0.73900002 8.824487904e-39
0.25477904 1.92258095 0.73900002 9.191485169e-39
0.25618666 1.92258095 0.73900002 1.002017244e-38
0.25759429 1.92258095 0.73900002 1.094066859e-38
0.25900191 1.92258095 0.73900002 1.103285161e-38
0.26040953 1.92258095 0.73900002 1.112540877e-38
0.26181716 1.92258095 0.73900002 1.167714342e-38
0.26322478 1.92258095 0.73900002 1.222886966e-38
0.26499048 1.922476187 0.74000001 1.259943603e-38
0.26712 1.922266662 0.74200004 1.296749828e-38
0.26853335 1.922266662 0.74200004 1.315117207e-38
0.26994669 1.922266662 0.74200004 1.333484026e-38
0.27172571 1.9221619 0.74300003 1.333376126e-38
0.27314097 1.9221619 0.74300003 1.342452477e-38
0.27529526 1.921952374 0.74500006 1.315045881e-38
0.27745715 1.921742849 0.74700004 1.296823957e-38
0.27888 1.921742849 0.74700004 1.333631723e-38
0.28030288 1.921742849 0.74700004 1.379658212e-38
0.28172573 1.921742849 0.74700004 1.398672151e-38
0.28352761 1.921638086 0.74800003 1.426434956e-38
0.2849524 1.921638086 0.74800003 1.43557955e-38
0.28714287 1.921428569 0.75000006 1.453946649e-38
0.28934097 1.921219051 0.75200003 1.43557969e-38
0.29193336 1.920904763 0.75500005 1.426432854e-38
0.29376003 1.9208 0.75600004 1.435725004e-38
0.29598096 1.920590475 0.75800002 1.435832764e-38
0.29742476 1.920590475 0.75800002 1.463419567e-38
0.29886857 1.920590475 0.75800002 1.48217973e-38
0.30031237 1.920590475 0.75800002 1.426897665e-38
0.3029505 1.920276187 0.76100004 1.36261548e-38
0.30440003 1.920276187 0.76100004 1.371801832e-38
0.21960382 1.919874281 0.77900004 9.850440167e-39
0.22137143 1.919771425 0.78000003 9.57243236e-39
0.22285716 1.919771425 0.78000003 8.743411577e-39
0.22405525 1.919874281 0.77900004 7.916896316e-39
