# .PCD v0.7 - Point Cloud Data file format
VERSION 0.7
FIELDS x y z rgb
SIZE 4 4 4 4
TYPE F F F F
COUNT 1 1 1 1
WIDTH 975
HEIGHT 1
VIEWPOINT 0 0 0 1 0 0 0
POINTS 975
DATA ascii
0.28342858 0.10480952 2.77500004 1.352641458e-38
0.28564 0.10508 2.77700001 1.315940751e-38
0.28785905 0.10535048 2.77900004 1.315938509e-38
0.28971431 0.10548571 2.78000003 1.325161715e-38
0.29120001 0.10548571 2.78000003 1.306762526e-38
0.29343623 0.10575619 2.78200006 1.297540721e-38
0.29492575 0.10575619 2.78200006 1.288390662e-38
0.29641527 0.10575619 2.78200006 1.279278999e-38
0.29790479 0.10575619 2.78200006 1.270059717e-38
0.29939431 0.10575619 2.78200006 1.270024124e-38
0.30088383 0.10575619 2.78200006 1.279136347e-38
0.30392 0.10629714 2.78600001 1.29743198e-38
0.30619431 0.10656762 2.78800005 1.297396387e-38
0.30808574 0.10670286 2.78900003 1.297360514e-38
0.30958858 0.10670286 2.78900003 1.297324641e-38
0.31109145 0.10670286 2.78900003 1.30640015e-38
0.31259429 0.10670286 2.78900003 1.324838575e-38
0.31409714 0.10670286 2.78900003 1.343278122e-38
0.31639999 0.10697333 2.79100001 1.31569244e-38
0.31790668 0.10697333 2.79100001 1.288105218e-38
0.31941333 0.10697333 2.79100001 1.278813348e-38
0.32091999 0.10697333 2.79100001 1.26955679e-38
0.32324192 0.10724381 2.79300004 1.260694979e-38
0.32475239 0.10724381 2.79300004 1.251511429e-38
0.3270857 0.10751428 2.79500002 1.223924907e-38
0.32859999 0.10751428 2.79500002 1.196375099e-38
0.33011428 0.10751428 2.79500002 1.223747363e-38
0.33246288 0.10778476 2.79700005 1.251083193e-38
0.33398098 0.10778476 2.79700005 1.223604851e-38
0.33549905 0.10778476 2.79700005 1.205273485e-38
0.33744001 0.10792 2.79800004 1.205237611e-38
0.33896002 0.10792 2.79800004 1.205237471e-38
0.34133333 0.10819048 2.80000001 1.177615076e-38
0.34285715 0.10819048 2.80000001 1.159139796e-38
0.34524193 0.10846096 2.80200005 1.177614095e-38
0.34763432 0.10873143 2.80400002 1.205272784e-38
0.34916574 0.10873143 2.80400002 1.186906245e-38
0.35156953 0.10900191 2.80600005 1.168502292e-38
0.35310477 0.10900191 2.80600005 1.177685001e-38
0.35464004 0.10900191 2.80600005 1.17790052e-38
0.35705906 0.10927239 2.80800003 1.177829054e-38
0.35859811 0.10927239 2.80800003 1.177650949e-38
0.36102858 0.10954287 2.81000006 1.186656394e-38
0.36257148 0.10954287 2.81000006 1.19591183e-38
0.36501333 0.10981334 2.81200004 1.177580884e-38
0.36656001 0.10981334 2.81200004 1.168432367e-38
0.36810669 0.10981334 2.81200004 1.205058245e-38
0.37056381 0.11008381 2.81400001 1.241719436e-38
0.37211427 0.11008381 2.81400001 1.204983976e-38
0.37412381 0.11021905 2.81500006 1.177469761e-38
0.37567621 0.11021905 2.81500006 1.168502152e-38
0.37815431 0.11048953 2.81700003 1.168537184e-38
0.3797105 0.11048953 2.81700003 1.140985835e-38
0.38220003 0.11076001 2.81900007 1.122618876e-38
0.38376004 0.11076001 2.81900007 1.168501031e-38
0.38532004 0.11076001 2.81900007 1.223565614e-38
0.38688001 0.11076001 2.81900007 1.177611152e-38
0.38844001 0.11076001 2.81900007 1.131658232e-38
0.39190477 0.11130095 2.82300001 1.140950102e-38
0.39442858 0.11157144 2.82500005 1.159389368e-38
0.39600003 0.11157144 2.82500005 1.168537605e-38
0.39757144 0.11157144 2.82500005 1.168430265e-38
0.40011048 0.11184191 2.82700002 1.140772417e-38
0.40168571 0.11184191 2.82700002 1.113257501e-38
0.40423623 0.11211239 2.82900006 1.168358659e-38
0.40581524 0.11211239 2.82900006 1.223459536e-38
0.40739432 0.11211239 2.82900006 1.19594448e-38
0.40897337 0.11211239 2.82900006 1.168537464e-38
0.41055238 0.11211239 2.82900006 1.159246435e-38
0.41213146 0.11211239 2.82900006 1.159101821e-38
0.4127124 0.11184191 2.82700002 1.122366642e-38
0.41428763 0.11184191 2.82700002 1.085669298e-38
0.41586286 0.11184191 2.82700002 1.11336442e-38
0.41743809 0.11184191 2.82700002 1.150277985e-38
0.41901335 0.11184191 2.82700002 1.10428849e-38
0.42058858 0.11184191 2.82700002 1.067518419e-38
0.42216381 0.11184191 2.82700002 1.104145138e-38
0.42373908 0.11184191 2.82700002 1.140808991e-38
0.42531431 0.11184191 2.82700002 1.159034139e-38
0.42688954 0.11184191 2.82700002 1.168144961e-38
0.42742857 0.11157144 2.82500005 1.177363403e-38
0.42900002 0.11157144 2.82500005 1.177398435e-38
0.43057147 0.11157144 2.82500005 1.149811072e-38
0.038514286 0.092434287 2.67400002 1.122981251e-38
0.039798096 0.092434287 2.67400002 1.067484928e-38
0.041142859 0.09257143 2.67500001 9.560264886e-39
0.042428572 0.09257143 2.67500001 8.548989823e-39
0.043649524 0.092434287 2.67400002 9.374783416e-39
0.044933334 0.092434287 2.67400002 1.020561748e-38
0.046217144 0.092434287 2.67400002 1.066695576e-38
0.047500957 0.092434287 2.67400002 1.112613324e-38
0.048784763 0.092434287 2.67400002 1.121832887e-38
0.050068572 0.092434287 2.67400002 1.131050909e-38
0.051352382 0.092434287 2.67400002 1.121901831e-38
0.052636191 0.092434287 2.67400002 1.112789748e-38
0.053920001 0.092434287 2.67400002 1.112861074e-38
0.055040002 0.092160001 2.67200005 1.112861354e-38
0.056487624 0.092434287 2.67400002 1.085346859e-38
0.057771433 0.092434287 2.67400002 1.066944026e-38
0.059055239 0.092434287 2.67400002 1.057724884e-38
0.060339049 0.092434287 2.67400002 1.048433154e-38
0.061714288 0.09257143 2.67500001 1.020810338e-38
0.063000001 0.09257143 2.67500001 9.929003965e-39
0.06428571 0.09257143 2.67500001 9.1910872e-39
0.065571427 0.09257143 2.67500001 8.457133307e-39
0.066857144 0.09257143 2.67500001 8.733730006e-39
0.068243816 0.09270858 2.67600006 9.011742016e-39
0.069531433 0.09270858 2.67600006 9.286525435e-39
0.071028575 0.092982858 2.67800003 9.563105318e-39
0.072426669 0.093120001 2.67900002 9.931520697e-39
0.073720008 0.093120001 2.67900002 1.039141284e-38
0.075123809 0.093257137 2.68000001 1.103533331e-38
0.076419048 0.093257137 2.68000001 1.168034538e-38
0.077714287 0.093257137 2.68000001 1.177470182e-38
0.079241909 0.093531437 2.68200004 1.195873575e-38
0.080540963 0.093531437 2.68200004 1.214312841e-38
0.081840008 0.093531437 2.68200004 1.241863349e-38
0.083139054 0.093531437 2.68200004 1.241863349e-38
0.0844381 0.093531437 2.68200004 1.2510476e-38
0.08586286 0.093668573 2.68300003 1.296966048e-38
0.087163813 0.093668573 2.68300003 1.352175246e-38
0.088594288 0.093805715 2.68400002 1.361502709e-38
0.089897141 0.093805715 2.68400002 1.380049315e-38
0.091466673 0.094080001 2.68600005 1.371081144e-38
0.092773341 0.094080001 2.68600005 1.37125967e-38
0.094217151 0.094217151 2.68700004 1.389805435e-38
0.095803812 0.09449143 2.68900001 1.417283356e-38
0.097257152 0.09462858 2.69000006 1.417246642e-38
0.099000007 0.095040001 2.69300002 1.4257486e-38
0.10046476 0.095177144 2.69400001 1.398269838e-38
0.10178667 0.095177144 2.69400001 1.379867146e-38
0.10325715 0.095314294 2.69500005 1.361500467e-38
0.10503238 0.095725715 2.69800001 1.343133087e-38
0.1063619 0.095725715 2.69800001 1.306183509e-38
0.10769143 0.095725715 2.69800001 1.269449591e-38
0.10902095 0.095725715 2.69800001 1.306220083e-38
0.11035048 0.095725715 2.69800001 1.352210138e-38
0.11168 0.095725715 2.69800001 1.352318319e-38
0.11300953 0.095725715 2.69800001 1.361466275e-38
0.11417524 0.095588572 2.69700003 1.343063583e-38
0.11550286 0.095588572 2.69700003 1.334059119e-38
0.11683048 0.095588572 2.69700003 1.334238205e-38
0.11815809 0.095588572 2.69700003 1.334274219e-38
0.11948572 0.095588572 2.69700003 1.343493922e-38
0.12081333 0.095588572 2.69700003 1.361754102e-38
0.1223162 0.095725715 2.69800001 1.398453128e-38
0.12364572 0.095725715 2.69800001 1.444369755e-38
0.12497523 0.095725715 2.69800001 1.389303209e-38
0.12666668 0.096000001 2.70000005 1.343385041e-38
0.12800001 0.096000001 2.70000005 1.306686295e-38
0.12933333 0.096000001 2.70000005 1.269880631e-38
0.13122666 0.096411429 2.70300001 1.297359953e-38
0.13256571 0.096411429 2.70300001 1.334094432e-38
0.13409525 0.09654858 2.70400006 1.324911303e-38
0.13543619 0.09654858 2.70400006 1.3156916e-38
0.13697143 0.096685715 2.70500004 1.31569146e-38
0.13870667 0.096960001 2.70700002 1.324912284e-38
0.14025143 0.097097144 2.708 1.36182725e-38
0.14160001 0.097097144 2.708 1.407564931e-38
0.14335239 0.097371429 2.71000004 1.352462933e-38
0.14470476 0.097371429 2.71000004 1.297253034e-38
0.14626285 0.097508572 2.71100003 1.288032771e-38
0.14761715 0.097508572 2.71100003 1.278921668e-38
0.14939049 0.097782865 2.71300006 1.288141652e-38
0.15074858 0.097782865 2.71300006 1.29732422e-38
0.15232 0.097920008 2.71400005 1.288175563e-38
0.15368001 0.097920008 2.71400005 1.288175983e-38
0.15504001 0.097920008 2.71400005 1.242258656e-38
0.15640001 0.097920008 2.71400005 1.196305315e-38
0.15776001 0.097920008 2.71400005 1.23300392e-38
0.15912001 0.097920008 2.71400005 1.27884852e-38
0.16048001 0.097920008 2.71400005 1.287994936e-38
0.16229333 0.098194286 2.71600002 1.297430579e-38
0.16365716 0.098194286 2.71600002 1.306543363e-38
0.16502096 0.098194286 2.71600002 1.315690899e-38
0.16661714 0.098331429 2.71700001 1.324838435e-38
0.16798286 0.098331429 2.71700001 1.343313014e-38
0.16982096 0.098605715 2.71900004 1.333842479e-38
0.17119049 0.098605715 2.71900004 1.324730816e-38
0.1728 0.098742865 2.72000003 1.334093872e-38
0.17417143 0.098742865 2.72000003 1.352424397e-38
0.17554286 0.098742865 2.72000003 1.343024907e-38
0.17740573 0.099017151 2.72200006 1.343024767e-38
0.17878097 0.099017151 2.72200006 1.343024767e-38
0.1801562 0.099017151 2.72200006 1.343060921e-38
0.18153144 0.099017151 2.72200006 1.324371383e-38
0.18290669 0.099017151 2.72200006 1.315187693e-38
0.18428192 0.099017151 2.72200006 1.296856467e-38
0.18565716 0.099017151 2.72200006 1.287636483e-38
0.18729143 0.099154294 2.72300005 1.250865711e-38
0.18866859 0.099154294 2.72300005 1.21420466e-38
0.19004573 0.099154294 2.72300005 1.260231289e-38
0.19142288 0.099154294 2.72300005 1.31558398e-38
0.19280002 0.099154294 2.72300005 1.324695923e-38
0.19471429 0.099428572 2.72500002 1.343099036e-38
0.19690667 0.099840008 2.72800004 1.32476795e-38
0.19911046 0.10025143 2.73100001 1.306543923e-38
0.20077714 0.10038857 2.73200005 1.325341081e-38
0.2035524 0.10107429 2.73700005 1.343314135e-38
0.2049562 0.10107429 2.73700005 1.315728314e-38
0.20719999 0.10148571 2.74000001 1.28814025e-38
0.20860954 0.10148571 2.74000001 1.223746382e-38
0.21058668 0.10176001 2.74200004 1.159785795e-38
0.212 0.10176001 2.74200004 1.224179663e-38
0.21370097 0.10189714 2.74300003 1.297611206e-38
0.21569526 0.10217144 2.74500006 1.27917152e-38
0.21769716 0.10244572 2.74700004 1.260840294e-38
0.21912001 0.10244572 2.74700004 1.251692617e-38
0.22054286 0.10244572 2.74700004 1.242474456e-38
0.22196572 0.10244572 2.74700004 1.251623393e-38
0.22368762 0.10258286 2.74800003 1.260842255e-38
0.22511239 0.10258286 2.74800003 1.270096991e-38
0.22714287 0.10285715 2.75000006 1.28846339e-38
0.22857144 0.10285715 2.75000006 1.288462689e-38
0.23061334 0.10313143 2.75200003 1.288499964e-38
0.23204572 0.10313143 2.75200003 1.288537378e-38
0.23378858 0.10326858 2.75300002 1.28857129e-38
0.23522286 0.10326858 2.75300002 1.270309988e-38
0.23665714 0.10326858 2.75300002 1.25194331e-38
0.23809142 0.10326858 2.75300002 1.279602139e-38
0.24016191 0.10354286 2.75500005 1.307081041e-38
0.24192002 0.10368001 2.75600004 1.316228717e-38
0.24336001 0.10368001 2.75600004 1.325376534e-38
0.2448 0.10368001 2.75600004 1.325376814e-38
0.24689142 0.10395429 2.75800002 1.325341501e-38
0.24899048 0.10422858 2.76000005 1.316158512e-38
0.25043812 0.10422858 2.76000005 1.306866783e-38
0.25221714 0.10436572 2.76100004 1.270167897e-38
0.25366667 0.10436572 2.76100004 1.233434119e-38
0.25511619 0.10436572 2.76100004 1.279352287e-38
0.25656572 0.10436572 2.76100004 1.334455126e-38
0.25869331 0.10464 2.76300001 1.334277302e-38
0.26082858 0.10491429 2.76500005 1.334276461e-38
0.26297143 0.10518858 2.76700002 1.315908521e-38
0.2644324 0.10518858 2.76700002 1.297577295e-38
0.26624 0.10532571 2.76800001 1.306832731e-38
0.26770288 0.10532571 2.76800001 1.325198989e-38
0.26916569 0.10532571 2.76800001 1.343673008e-38
0.27133337 0.10560001 2.77000004 1.371187223e-38
0.2728 0.10560001 2.77000004 1.288534576e-38
0.27426666 0.10560001 2.77000004 1.20588375e-38
0.27644953 0.10587429 2.77200001 1.270169578e-38
0.27792001 0.10587429 2.77200001 1.334381418e-38
0.2797524 0.10601144 2.77300006 1.380262032e-38
0.28122476 0.10601144 2.77300006 1.426073842e-38
0.28342858 0.10628572 2.77500004 1.370794999e-38
0.28490478 0.10628572 2.77500004 1.325018923e-38
0.28712001 0.10656 2.77700001 1.325160594e-38
0.28934288 0.10683429 2.77900004 1.325161855e-38
0.29082668 0.10683429 2.77900004 1.31601558e-38
0.29231051 0.10683429 2.77900004 1.306722449e-38
0.29417142 0.10697144 2.78000003 1.297536937e-38
0.29565713 0.10697144 2.78000003 1.288390382e-38
0.29714286 0.10697144 2.78000003 1.279243967e-38
0.29862857 0.10697144 2.78000003 1.279244527e-38
0.3001143 0.10697144 2.78000003 1.297612187e-38
0.30237335 0.10724572 2.78200006 1.315764187e-38
0.30541715 0.10779429 2.78600001 1.306688397e-38
0.30769524 0.10806858 2.78800005 1.306544484e-38
0.3091962 0.10806858 2.78800005 1.306544063e-38
0.31069717 0.10806858 2.78800005 1.306544063e-38
0.31259429 0.10820572 2.78900003 1.334130726e-38
0.31409714 0.10820572 2.78900003 1.370829331e-38
0.31560001 0.10820572 2.78900003 1.324911863e-38
0.31710285 0.10820572 2.78900003 1.28824843e-38
0.31860572 0.10820572 2.78900003 1.288355069e-38
0.32010859 0.10820572 2.78900003 1.288246749e-38
0.32324192 0.10875429 2.79300004 1.278990612e-38
0.32475239 0.10875429 2.79300004 1.269843076e-38
0.3270857 0.10902857 2.79500002 1.233144891e-38
0.32859999 0.10902857 2.79500002 1.196304194e-38
0.33011428 0.10902857 2.79500002 1.214600667e-38
0.33162859 0.10902857 2.79500002 1.232752527e-38
0.33398098 0.10930286 2.79700005 1.214457174e-38
0.33549905 0.10930286 2.79700005 1.196090075e-38
0.33701715 0.10930286 2.79700005 1.205166145e-38
0.33896002 0.10944 2.79800004 1.214384727e-38
0.34133333 0.10971429 2.80000001 1.177685701e-38
0.34285715 0.10971429 2.80000001 1.150206098e-38
0.34438094 0.10971429 2.80000001 1.177827933e-38
0.34676954 0.10998858 2.80200005 1.205272083e-38
0.34829718 0.10998858 2.80200005 1.186942118e-38
0.35069713 0.11026286 2.80400002 1.168503133e-38
0.35222855 0.11026286 2.80400002 1.168538866e-38
0.35464004 0.11053715 2.80600005 1.177757868e-38
0.35617527 0.11053715 2.80600005 1.168645785e-38
0.35859811 0.11081143 2.80800003 1.159175249e-38
0.36102858 0.11108572 2.81000006 1.168287193e-38
0.36257148 0.11108572 2.81000006 1.186726599e-38
0.36411431 0.11108572 2.81000006 1.168396073e-38
0.36656001 0.11136001 2.81200004 1.14999254e-38
0.36810669 0.11136001 2.81200004 1.205093278e-38
0.36965334 0.11136001 2.81200004 1.269412877e-38
0.37211427 0.11163428 2.81400001 1.223565614e-38
0.37366474 0.11163428 2.81400001 1.177721154e-38
0.37567621 0.11177143 2.81500006 1.159427343e-38
0.37815431 0.11204571 2.81700003 1.150134492e-38
0.3797105 0.11204571 2.81700003 1.122510415e-38
0.38126668 0.11204571 2.81700003 1.095032213e-38
0.38376004 0.11232001 2.81900007 1.168573057e-38
0.38532004 0.11232001 2.81900007 1.242005861e-38
0.38688001 0.11232001 2.81900007 1.177685421e-38
0.38844001 0.11232001 2.81900007 1.113328547e-38
0.39190477 0.11286857 2.82300001 1.141058282e-38
0.39442858 0.11314286 2.82500005 1.168574599e-38
0.39600003 0.11314286 2.82500005 1.18694324e-38
0.39757144 0.11314286 2.82500005 1.214313681e-38
0.40011048 0.11341715 2.82700002 1.15917581e-38
0.40168571 0.11341715 2.82700002 1.104038779e-38
0.40423623 0.11369143 2.82900006 1.177507316e-38
0.40581524 0.11369143 2.82900006 1.260193875e-38
0.40739432 0.11369143 2.82900006 1.205127189e-38
0.40897337 0.11369143 2.82900006 1.159174268e-38
0.41055238 0.11369143 2.82900006 1.140771997e-38
0.41113713 0.11341715 2.82700002 1.12244007e-38
0.4127124 0.11341715 2.82700002 1.085992297e-38
0.41428763 0.11341715 2.82700002 1.058334309e-38
0.41586286 0.11341715 2.82700002 1.094961308e-38
0.4164286 0.11314286 2.82500005 1.131875012e-38
0.41901335 0.11341715 2.82700002 1.122691743e-38
0.42058858 0.11341715 2.82700002 1.122584264e-38
0.42114288 0.11314286 2.82500005 1.140879897e-38
0.42373908 0.11341715 2.82700002 1.15917581e-38
0.42531431 0.11341715 2.82700002 1.159068751e-38
0.42688954 0.11341715 2.82700002 1.168180273e-38
0.42742857 0.11314286 2.82500005 1.140557598e-38
0.42796001 0.11286857 2.82300001 1.122297838e-38
0.42952761 0.11286857 2.82300001 1.122333431e-38
0.038514286 0.093718104 2.67400002 1.159964881e-38
0.039798096 0.093718104 2.67400002 1.095105782e-38
0.041081905 0.093718104 2.67400002 1.011341624e-38
0.042365715 0.093718104 2.67400002 9.376211339e-39
0.043649524 0.093718104 2.67400002 9.742108585e-39
0.044933334 0.093718104 2.67400002 1.002013741e-38
0.046217144 0.093718104 2.67400002 1.039107793e-38
0.047500957 0.093718104 2.67400002 1.075877865e-38
0.048784763 0.093718104 2.67400002 1.075806118e-38
0.050068572 0.093718104 2.67400002 1.075733531e-38
0.051352382 0.093718104 2.67400002 1.066549281e-38
0.052636191 0.093718104 2.67400002 1.048217915e-38
0.053920001 0.093718104 2.67400002 1.048181901e-38
0.055040002 0.093440004 2.67200005 1.038998352e-38
0.056487624 0.093718104 2.67400002 9.930448704e-39
0.057771433 0.093718104 2.67400002 9.379439931e-39
0.059055239 0.093718104 2.67400002 9.744635126e-39
0.060339049 0.093718104 2.67400002 1.011017504e-38
0.061622858 0.093718104 2.67400002 1.011052677e-38
0.063000001 0.093857147 2.67500001 1.020307412e-38
0.06428571 0.093857147 2.67500001 9.927203297e-39
0.065571427 0.093857147 2.67500001 9.743546317e-39
0.066857144 0.093857147 2.67500001 1.020524894e-38
0.068243816 0.093996197 2.67600006 1.066729768e-38
0.069531433 0.093996197 2.67600006 1.08534812e-38
0.071133338 0.094413333 2.67900002 1.11314876e-38
0.072426669 0.094413333 2.67900002 1.140877654e-38
0.073828578 0.094552375 2.68000001 1.177827233e-38
0.075123809 0.094552375 2.68000001 1.205234669e-38
0.076419048 0.094552375 2.68000001 1.241861948e-38
0.077714287 0.094552375 2.68000001 1.27863272e-38
0.079241909 0.094830483 2.68200004 1.315438946e-38
0.080540963 0.094830483 2.68200004 1.297144013e-38
0.081840008 0.094830483 2.68200004 1.278884674e-38
0.083139054 0.094830483 2.68200004 1.269557771e-38
0.084561907 0.094969526 2.68300003 1.269271626e-38
0.08586286 0.094969526 2.68300003 1.306473018e-38
0.087291434 0.095108569 2.68400002 1.343458469e-38
0.088594288 0.095108569 2.68400002 1.361861722e-38
0.089897141 0.095108569 2.68400002 1.380302529e-38
0.091466673 0.095386669 2.68600005 1.371049335e-38
0.092773341 0.095386669 2.68600005 1.371226319e-38
0.094217151 0.095525712 2.68700004 1.389662783e-38
0.095942862 0.095942862 2.69000006 1.417283356e-38
0.097257152 0.095942862 2.69000006 1.435325915e-38
0.099000007 0.096359998 2.69300002 1.453227222e-38
0.10046476 0.096499041 2.69400001 1.425677274e-38
0.10193334 0.096638106 2.69500005 1.398127186e-38
0.10355429 0.096916191 2.69700003 1.388944337e-38
0.10503238 0.097055241 2.69800001 1.37979666e-38
0.1063619 0.097055241 2.69800001 1.388908464e-38
0.10769143 0.097055241 2.69800001 1.398020687e-38
0.10902095 0.097055241 2.69800001 1.370506472e-38
0.11035048 0.097055241 2.69800001 1.352283146e-38
0.11168 0.097055241 2.69800001 1.352283566e-38
0.11300953 0.097055241 2.69800001 1.352283566e-38
0.11417524 0.096916191 2.69700003 1.333916467e-38
0.11550286 0.096916191 2.69700003 1.324912003e-38
0.11683048 0.096916191 2.69700003 1.334131286e-38
0.11815809 0.096916191 2.69700003 1.352534679e-38
0.11965714 0.097055241 2.69800001 1.361754522e-38
0.12098667 0.097055241 2.69800001 1.380159036e-38
0.1223162 0.097055241 2.69800001 1.398527677e-38
0.12364572 0.097055241 2.69800001 1.426111817e-38
0.12533334 0.097333334 2.70000005 1.389339363e-38
0.12666668 0.097333334 2.70000005 1.352784811e-38
0.12818287 0.097472385 2.70100003 1.334274639e-38
0.12951809 0.097472385 2.70100003 1.315871106e-38
0.13122666 0.097750477 2.70300001 1.315834672e-38
0.13256571 0.097750477 2.70300001 1.325018782e-38
0.13409525 0.097889535 2.70400006 1.297468834e-38
0.13543619 0.097889535 2.70400006 1.279101174e-38
0.13697143 0.098028578 2.70500004 1.2972166e-38
0.13870667 0.098306663 2.70700002 1.315585662e-38
0.14025143 0.098445714 2.708 1.343174286e-38
0.14160001 0.098445714 2.708 1.379978969e-38
0.14335239 0.098723814 2.71000004 1.343207636e-38
0.14490858 0.098862864 2.71100003 1.315584961e-38
0.14626285 0.098862864 2.71100003 1.306437144e-38
0.14803238 0.099140957 2.71300006 1.297290029e-38
0.14939049 0.099140957 2.71300006 1.306510012e-38
0.15096001 0.09928 2.71400005 1.306543923e-38
0.15232 0.09928 2.71400005 1.306541962e-38
0.15368001 0.09928 2.71400005 1.306685875e-38
0.15504001 0.09928 2.71400005 1.297359393e-38
0.15640001 0.09928 2.71400005 1.297467013e-38
0.15776001 0.09928 2.71400005 1.297538759e-38
0.15912001 0.09928 2.71400005 1.306792514e-38
0.16092952 0.0995581 2.71600002 1.315902916e-38
0.16229333 0.0995581 2.71600002 1.315868444e-38
0.16365716 0.0995581 2.71600002 1.334272957e-38
0.16502096 0.0995581 2.71600002 1.352711943e-38
0.16661714 0.099697143 2.71700001 1.352640477e-38
0.16845143 0.099975243 2.71900004 1.35256845e-38
0.16982096 0.099975243 2.71900004 1.352317198e-38
0.17142858 0.10011429 2.72000003 1.361465434e-38
0.1728 0.10011429 2.72000003 1.361645361e-38
0.17465526 0.10039239 2.72200006 1.370899536e-38
0.17554286 0.10011429 2.72000003 1.370790936e-38
0.17740573 0.10039239 2.72200006 1.370719609e-38
0.17878097 0.10039239 2.72200006 1.361464874e-38
0.1801562 0.10039239 2.72200006 1.352209157e-38
0.18153144 0.10039239 2.72200006 1.343025328e-38
0.18316001 0.10053144 2.72300005 1.333877651e-38
0.18428192 0.10039239 2.72200006 1.324622495e-38
0.18591429 0.10053144 2.72300005 1.315403212e-38
0.18729143 0.10053144 2.72300005 1.297108e-38
0.18866859 0.10053144 2.72300005 1.28803249e-38
0.19057143 0.10080953 2.72500002 1.3155837e-38
0.19195238 0.10080953 2.72500002 1.343170782e-38
0.19333333 0.10080953 2.72500002 1.34313561e-38
0.19498287 0.10094857 2.72600001 1.34313575e-38
0.19690667 0.10122667 2.72800004 1.334095833e-38
0.19856572 0.10136572 2.72900003 1.325162275e-38
0.20050286 0.10164381 2.73100001 1.361823606e-38
0.2027238 0.10206095 2.73400003 1.39848774e-38
0.2046781 0.10233905 2.73600006 1.352500067e-38
0.20692 0.10275619 2.73900002 1.306544484e-38
0.20860954 0.10289524 2.74000001 1.26988007e-38
0.21058668 0.10317334 2.74200004 1.224034068e-38
0.212 0.10317334 2.74200004 1.260840013e-38
0.21370097 0.10331238 2.74300003 1.297609945e-38
0.21569526 0.10359049 2.74500006 1.279099353e-38
0.21769716 0.10386857 2.74700004 1.269736857e-38
0.21912001 0.10386857 2.74700004 1.260625615e-38
0.22054286 0.10386857 2.74700004 1.251550946e-38
0.22196572 0.10386857 2.74700004 1.233149375e-38
0.22368762 0.10400762 2.74800003 1.223964704e-38
0.22511239 0.10400762 2.74800003 1.242510049e-38
0.22714287 0.10428572 2.75000006 1.270023002e-38
0.22857144 0.10428572 2.75000006 1.269913561e-38
0.23000002 0.10428572 2.75000006 1.279027186e-38
0.23204572 0.10456382 2.75200003 1.279352007e-38
0.23378858 0.10470286 2.75300002 1.279351727e-38
0.23522286 0.10470286 2.75300002 1.270167897e-38
0.23665714 0.10470286 2.75300002 1.27020391e-38
0.23809142 0.10470286 2.75300002 1.297790712e-38
0.23952572 0.10470286 2.75300002 1.334560504e-38
0.24160002 0.10498096 2.75500005 1.325305068e-38
0.24336001 0.10512 2.75600004 1.325233181e-38
0.2448 0.10512 2.75600004 1.325269054e-38
0.24689142 0.1053981 2.75800002 1.325305908e-38
0.24833524 0.1053981 2.75800002 1.325271156e-38
0.25043812 0.1056762 2.76000005 1.334453865e-38
0.25188571 0.1056762 2.76000005 1.325269615e-38
0.25333336 0.1056762 2.76000005 1.325269755e-38
0.25478098 0.1056762 2.76000005 1.325269895e-38
0.25656572 0.10581524 2.76100004 1.334455407e-38
0.25869331 0.10609333 2.76300001 1.334314016e-38
0.26014665 0.10609333 2.76300001 1.343388124e-38
0.26228574 0.10637144 2.76500005 1.325019343e-38
0.2644324 0.10664953 2.76700002 1.306650702e-38
0.26589334 0.10664953 2.76700002 1.316012217e-38
0.26735431 0.10664953 2.76700002 1.316013058e-38
0.26881525 0.10664953 2.76700002 1.325305208e-38
0.27062857 0.10678857 2.76800001 1.343743493e-38
0.27209145 0.10678857 2.76800001 1.297825325e-38
0.27426666 0.10706667 2.77000004 1.25194387e-38
0.27573335 0.10706667 2.77000004 1.288571009e-38
0.27792001 0.10734477 2.77200001 1.334343863e-38
0.27939048 0.10734477 2.77200001 1.352637955e-38
0.28122476 0.10748382 2.77300006 1.380156093e-38
0.28269717 0.10748382 2.77300006 1.352537201e-38
0.28490478 0.1077619 2.77500004 1.324734039e-38
0.28712001 0.10804 2.77700001 1.334203313e-38
0.2886 0.10804 2.77700001 1.343385742e-38
0.29082668 0.10831811 2.77900004 1.325053394e-38
0.29268572 0.10845715 2.78000003 1.306720627e-38
0.29417142 0.10845715 2.78000003 1.288352127e-38
0.29565713 0.10845715 2.78000003 1.279206552e-38
0.29714286 0.10845715 2.78000003 1.260805822e-38
0.29862857 0.10845715 2.78000003 1.242367817e-38
0.30088383 0.10873525 2.78200006 1.27903111e-38
0.30237335 0.10873525 2.78200006 1.315729295e-38
0.30464 0.10901333 2.78400004 1.325056337e-38
0.3069143 0.10929143 2.78600001 1.343314976e-38
0.3091962 0.10956953 2.78800005 1.32476767e-38
0.31069717 0.10956953 2.78800005 1.306293511e-38
0.31259429 0.10970858 2.78900003 1.315549368e-38
0.31409714 0.10970858 2.78900003 1.333987933e-38
0.31560001 0.10970858 2.78900003 1.297397088e-38
0.31710285 0.10970858 2.78900003 1.269988671e-38
0.31860572 0.10970858 2.78900003 1.279206973e-38
0.32010859 0.10970858 2.78900003 1.297358412e-38
0.32161143 0.10970858 2.78900003 1.306541681e-38
0.32475239 0.11026477 2.79300004 1.315653765e-38
0.32626286 0.11026477 2.79300004 1.2788481e-38
0.32859999 0.11054286 2.79500002 1.242043416e-38
0.33011428 0.11054286 2.79500002 1.242008944e-38
0.33162859 0.11054286 2.79500002 1.251191933e-38
0.33398098 0.11082096 2.79700005 1.232824274e-38
0.33549905 0.11082096 2.79700005 1.214493328e-38
0.33701715 0.11082096 2.79700005 1.232896581e-38
0.33896002 0.11096 2.79800004 1.251298012e-38
0.34048003 0.11096 2.79800004 1.223745821e-38
0.34285715 0.1112381 2.80000001 1.187010782e-38
0.34438094 0.1112381 2.80000001 1.214488984e-38
0.34590477 0.1112381 2.80000001 1.251189131e-38
0.34829718 0.1115162 2.80200005 1.205309218e-38
0.34982476 0.1115162 2.80200005 1.15928441e-38
0.35222855 0.11179429 2.80400002 1.168540407e-38
0.35376 0.11179429 2.80400002 1.177722976e-38
0.35617527 0.11207239 2.80600005 1.1500996e-38
0.35771051 0.11207239 2.80600005 1.131552013e-38
0.36013716 0.11235048 2.80800003 1.159137554e-38
0.36167619 0.11235048 2.80800003 1.177541508e-38
0.36411431 0.11262858 2.81000006 1.168323066e-38
0.36565718 0.11262858 2.81000006 1.168322786e-38
0.36720002 0.11262858 2.81000006 1.195980774e-38
0.36965334 0.11290666 2.81200004 1.223709668e-38
0.3712 0.11290666 2.81200004 1.196086151e-38
0.37274668 0.11290666 2.81200004 1.168609631e-38
0.37521523 0.11318476 2.81400001 1.159392731e-38
0.37722859 0.11332382 2.81500006 1.150098899e-38
0.3797105 0.11360191 2.81700003 1.131765011e-38
0.38126668 0.11360191 2.81700003 1.122833835e-38
0.38282287 0.11360191 2.81700003 1.168465858e-38
0.38532004 0.11388001 2.81900007 1.214169768e-38
0.38688001 0.11388001 2.81900007 1.168432787e-38
0.38938859 0.1141581 2.82100004 1.131733201e-38
0.39095241 0.1141581 2.82100004 1.150063166e-38
0.39347237 0.11443619 2.82300001 1.159213365e-38
0.39503998 0.11443619 2.82300001 1.177583126e-38
0.39660764 0.11443619 2.82300001 1.186764714e-38
0.39914289 0.11471429 2.82500005 1.159140357e-38
0.40071431 0.11471429 2.82500005 1.131554255e-38
0.40326095 0.11499239 2.82700002 1.168253141e-38
0.40483618 0.11499239 2.82700002 1.214025154e-38
0.40641144 0.11499239 2.82700002 1.1773606e-38
0.40798667 0.11499239 2.82700002 1.149882819e-38
0.4095619 0.11499239 2.82700002 1.149955826e-38
0.41113713 0.11499239 2.82700002 1.150063166e-38
0.4127124 0.11499239 2.82700002 1.122691743e-38
0.41328573 0.11471429 2.82500005 1.095104941e-38
0.41485718 0.11471429 2.82500005 1.11347176e-38
0.41743809 0.11499239 2.82700002 1.131875153e-38
0.41901335 0.11499239 2.82700002 1.131803827e-38
0.42058858 0.11499239 2.82700002 1.13173236e-38
0.42114288 0.11471429 2.82500005 1.140880457e-38
0.42373908 0.11499239 2.82700002 1.159211403e-38
0.42531431 0.11499239 2.82700002 1.149955826e-38
0.42688954 0.11499239 2.82700002 1.149920233e-38
0.42742857 0.11471429 2.82500005 1.113150582e-38
0.42796001 0.11443619 2.82300001 1.08556434e-38
0.42952761 0.11443619 2.82300001 1.094784184e-38
0.038514286 0.095001914 2.67400002 1.196951453e-38
0.039798096 0.095001914 2.67400002 1.123051176e-38
0.041081905 0.095001914 2.67400002 1.075876604e-38
0.042365715 0.095001914 2.67400002 1.029420617e-38
0.043649524 0.095001914 2.67400002 1.010945898e-38
0.044933334 0.095001914 2.67400002 9.928301915e-39
0.046217144 0.095001914 2.67400002 1.02070398e-38
0.047500957 0.095001914 2.67400002 1.048218335e-38
0.048784763 0.095001914 2.67400002 1.038998632e-38
0.050068572 0.095001914 2.67400002 1.029778929e-38
0.051352382 0.095001914 2.67400002 1.011375816e-38
0.052636191 0.095001914 2.67400002 9.92793057e-39
0.053920001 0.095001914 2.67400002 9.833939877e-39
0.05520381 0.095001914 2.67400002 9.74713224e-39
0.056487624 0.095001914 2.67400002 8.914159795e-39
0.057771433 0.095001914 2.67400002 8.179484234e-39
0.059055239 0.095001914 2.67400002 8.914176611e-39
0.060339049 0.095001914 2.67400002 9.744273591e-39
0.061714288 0.095142856 2.67500001 1.011124703e-38
0.063000001 0.095142856 2.67500001 1.048073861e-38
0.06428571 0.095142856 2.67500001 1.075839329e-38
0.065571427 0.095142856 2.67500001 1.112825621e-38
0.0669562 0.095283821 2.67600006 1.168179012e-38
0.068243816 0.095283821 2.67600006 1.232643366e-38
0.069737151 0.095565714 2.67800003 1.251225845e-38
0.071133338 0.095706671 2.67900002 1.269592664e-38
0.072533339 0.095847614 2.68000001 1.287959483e-38
0.073828578 0.095847614 2.68000001 1.315546145e-38
0.075123809 0.095847614 2.68000001 1.315653905e-38
0.076419048 0.095847614 2.68000001 1.315619293e-38
0.077942863 0.096129529 2.68200004 1.379869668e-38
0.079241909 0.096129529 2.68200004 1.444261434e-38
0.080540963 0.096129529 2.68200004 1.380119379e-38
0.081840008 0.096129529 2.68200004 1.315726772e-38
0.083260953 0.096270479 2.68300003 1.306471476e-38
0.084561907 0.096270479 2.68300003 1.2974324e-38
0.085988574 0.096411429 2.68400002 1.315979707e-38
0.087291434 0.096411429 2.68400002 1.343423016e-38
0.088594288 0.096411429 2.68400002 1.361826269e-38
0.089897141 0.096411429 2.68400002 1.380194349e-38
0.091466673 0.096693337 2.68600005 1.38019547e-38
0.092773341 0.096693337 2.68600005 1.380265815e-38
0.094217151 0.096834287 2.68700004 1.39870326e-38
0.095942862 0.097257152 2.69000006 1.416853718e-38
0.097257152 0.097257152 2.69000006 1.453407289e-38
0.098714292 0.097398102 2.69100004 1.489998275e-38
0.10046476 0.097820953 2.69400001 1.453156737e-38
0.10178667 0.097820953 2.69400001 1.425714829e-38
0.10325715 0.09796191 2.69500005 1.4165324e-38
0.10488191 0.098243818 2.69700003 1.416567293e-38
0.1063619 0.09838476 2.69800001 1.471703623e-38
0.10769143 0.09838476 2.69800001 1.526697581e-38
0.10902095 0.09838476 2.69800001 1.443974308e-38
0.11035048 0.09838476 2.69800001 1.361323483e-38
0.11168 0.09838476 2.69800001 1.352176787e-38
0.11284763 0.098243818 2.69700003 1.34313617e-38
0.11417524 0.098243818 2.69700003 1.333987793e-38
0.11550286 0.098243818 2.69700003 1.32487613e-38
0.11683048 0.098243818 2.69700003 1.343243229e-38
0.11815809 0.098243818 2.69700003 1.370901778e-38
0.11965714 0.09838476 2.69800001 1.380085748e-38
0.12098667 0.09838476 2.69800001 1.398525155e-38
0.1223162 0.09838476 2.69800001 1.407816884e-38
0.12364572 0.09838476 2.69800001 1.416854559e-38
0.12533334 0.098666668 2.70000005 1.389158175e-38
0.12666668 0.098666668 2.70000005 1.361716127e-38
0.12818287 0.098807625 2.70100003 1.361860741e-38
0.12951809 0.098807625 2.70100003 1.361824587e-38
0.13122666 0.099089518 2.70300001 1.334273798e-38
0.13256571 0.099089518 2.70300001 1.315872367e-38
0.13409525 0.099230483 2.70400006 1.27913971e-38
0.13562857 0.099371433 2.70500004 1.242259356e-38
0.13697143 0.099371433 2.70500004 1.278775653e-38
0.13870667 0.099653333 2.70700002 1.31558356e-38
0.14025143 0.099794291 2.708 1.33406024e-38
0.14160001 0.099794291 2.708 1.352390345e-38
0.14335239 0.10007619 2.71000004 1.343169942e-38
0.14490858 0.10021715 2.71100003 1.334022686e-38
0.14667429 0.10049906 2.71300006 1.32487557e-38
0.14803238 0.10049906 2.71300006 1.324911583e-38
0.14939049 0.10049906 2.71300006 1.32498361e-38
0.15096001 0.10064001 2.71400005 1.324946616e-38
0.15232 0.10064001 2.71400005 1.324909761e-38
0.15368001 0.10064001 2.71400005 1.334093591e-38
0.15504001 0.10064001 2.71400005 1.36164452e-38
0.15640001 0.10064001 2.71400005 1.398558646e-38
0.15776001 0.10064001 2.71400005 1.371187923e-38
0.15912001 0.10064001 2.71400005 1.343528254e-38
0.16092952 0.10092191 2.71600002 1.343562726e-38
0.16229333 0.10092191 2.71600002 1.343563847e-38
0.16365716 0.10092191 2.71600002 1.361932067e-38
0.16502096 0.10092191 2.71600002 1.389483136e-38
0.16661714 0.10106286 2.71700001 1.38033602e-38
0.16845143 0.10134476 2.71900004 1.371008417e-38
0.17005715 0.10148572 2.72000003 1.379976167e-38
0.17142858 0.10148572 2.72000003 1.398344247e-38
0.1728 0.10148572 2.72000003 1.389197692e-38
0.17465526 0.10176763 2.72200006 1.389267756e-38
0.17603049 0.10176763 2.72200006 1.389266075e-38
0.17740573 0.10176763 2.72200006 1.398378158e-38
0.17878097 0.10176763 2.72200006 1.379975466e-38
0.1801562 0.10176763 2.72200006 1.370791636e-38
0.18178286 0.10190857 2.72300005 1.36164368e-38
0.18316001 0.10190857 2.72300005 1.352424257e-38
0.18453714 0.10190857 2.72300005 1.352388524e-38
0.18591429 0.10190857 2.72300005 1.352353071e-38
0.18780953 0.10219048 2.72500002 1.352317478e-38
0.18919048 0.10219048 2.72500002 1.361536901e-38
0.19057143 0.10219048 2.72500002 1.361716267e-38
0.19195238 0.10219048 2.72500002 1.370901218e-38
0.19333333 0.10219048 2.72500002 1.361719069e-38
0.19498287 0.10233142 2.72600001 1.352463213e-38
0.19690667 0.10261334 2.72800004 1.343458469e-38
0.19856572 0.10275429 2.72900003 1.343421054e-38
0.20050286 0.1030362 2.73100001 1.398520811e-38
0.20217144 0.10317715 2.73200005 1.462806919e-38
0.2046781 0.10374096 2.73600006 1.398559346e-38
0.20636001 0.10388191 2.73700005 1.334165618e-38
0.20832762 0.10416381 2.73900002 1.31504406e-38
0.21001905 0.10430477 2.74000001 1.297143453e-38
0.212 0.10458668 2.74200004 1.297538198e-38
0.21427621 0.10500953 2.74500006 1.297502606e-38
0.21569526 0.10500953 2.74500006 1.28824745e-38
0.21769716 0.10529143 2.74700004 1.288103816e-38
0.21912001 0.10529143 2.74700004 1.26977245e-38
0.22054286 0.10529143 2.74700004 1.260732534e-38
0.22196572 0.10529143 2.74700004 1.223926869e-38
0.22368762 0.10543238 2.74800003 1.187156938e-38
0.22511239 0.10543238 2.74800003 1.214958839e-38
0.22653715 0.10543238 2.74800003 1.25162045e-38
0.22857144 0.10571429 2.75000006 1.260695399e-38
0.23000002 0.10571429 2.75000006 1.279206552e-38
0.23142858 0.10571429 2.75000006 1.279386619e-38
0.2334781 0.10599619 2.75200003 1.279314452e-38
0.23522286 0.10613714 2.75300002 1.279278299e-38
0.23665714 0.10613714 2.75300002 1.288462409e-38
0.23809142 0.10613714 2.75300002 1.325233041e-38
0.23952572 0.10613714 2.75300002 1.36196808e-38
0.24160002 0.10641905 2.75500005 1.343601962e-38
0.24336001 0.10656001 2.75600004 1.325233601e-38
0.2448 0.10656001 2.75600004 1.32523234e-38
0.24689142 0.10684191 2.75800002 1.334380017e-38
0.24899048 0.10712382 2.76000005 1.343563706e-38
0.25043812 0.10712382 2.76000005 1.361966959e-38
0.25188571 0.10712382 2.76000005 1.389553762e-38
0.25333336 0.10712382 2.76000005 1.41710455e-38
0.25511619 0.10726476 2.76100004 1.380370352e-38
0.25656572 0.10726476 2.76100004 1.343601962e-38
0.25869331 0.10754667 2.76300001 1.343531897e-38
0.26014665 0.10754667 2.76300001 1.352570973e-38
0.26228574 0.10782858 2.76500005 1.334202893e-38
0.2644324 0.10811048 2.76700002 1.325089828e-38
0.26589334 0.10811048 2.76700002 1.316048651e-38
0.26735431 0.10811048 2.76700002 1.316049772e-38
0.26916569 0.10825143 2.76800001 1.316158512e-38
0.27062857 0.10825143 2.76800001 1.316157672e-38
0.27209145 0.10825143 2.76800001 1.307116634e-38
0.27426666 0.10853334 2.77000004 1.297861618e-38
0.27573335 0.10853334 2.77000004 1.316157251e-38
0.27720001 0.10853334 2.77000004 1.343563706e-38
0.27939048 0.10881524 2.77200001 1.334164217e-38
0.28086093 0.10881524 2.77200001 1.334202332e-38
0.28269717 0.1089562 2.77300006 1.334276461e-38
0.28490478 0.1092381 2.77500004 1.334168e-38
0.28638095 0.1092381 2.77500004 1.352462652e-38
0.28785715 0.1092381 2.77500004 1.370864504e-38
0.29008001 0.10952 2.77700001 1.334200931e-38
0.29268572 0.10994286 2.78000003 1.306721328e-38
0.29417142 0.10994286 2.78000003 1.288461148e-38
0.29565713 0.10994286 2.78000003 1.279207113e-38
0.29714286 0.10994286 2.78000003 1.242402569e-38
0.29862857 0.10994286 2.78000003 1.214780594e-38
0.30088383 0.11022477 2.78200006 1.260698903e-38
0.30237335 0.11022477 2.78200006 1.315835793e-38
0.30464 0.11050667 2.78400004 1.343421895e-38
0.3069143 0.11078858 2.78600001 1.380011339e-38
0.30841142 0.11078858 2.78600001 1.343024907e-38
0.31069717 0.11107048 2.78800005 1.30629211e-38
0.3121981 0.11107048 2.78800005 1.297217722e-38
0.31369907 0.11107048 2.78800005 1.297325902e-38
0.31560001 0.11121143 2.78900003 1.279066983e-38
0.31710285 0.11121143 2.78900003 1.260770509e-38
0.31860572 0.11121143 2.78900003 1.279244247e-38
0.32010859 0.11121143 2.78900003 1.306614689e-38
0.32161143 0.11121143 2.78900003 1.334164497e-38
0.32475239 0.11177524 2.79300004 1.36153606e-38
0.32626286 0.11177524 2.79300004 1.324694662e-38
0.32859999 0.11205714 2.79500002 1.287926132e-38
0.33011428 0.11205714 2.79500002 1.278708391e-38
0.33162859 0.11205714 2.79500002 1.269559733e-38
0.33314288 0.11205714 2.79500002 1.251227526e-38
0.33549905 0.11233906 2.79700005 1.232968607e-38
0.33701715 0.11233906 2.79700005 1.260627436e-38
0.33853528 0.11233906 2.79700005 1.29732436e-38
0.34005335 0.11233906 2.79700005 1.260552887e-38
0.34200001 0.11248 2.79800004 1.233001958e-38
0.34352002 0.11248 2.79800004 1.260301074e-38
0.34590477 0.11276191 2.80000001 1.297108e-38
0.34829718 0.11304381 2.80200005 1.22371219e-38
0.34982476 0.11304381 2.80200005 1.15020778e-38
0.35135239 0.11304381 2.80200005 1.159391189e-38
0.35376 0.11332572 2.80400002 1.177758008e-38
0.35529143 0.11332572 2.80400002 1.140844304e-38
0.35682285 0.11332572 2.80400002 1.113328687e-38
0.36013716 0.11388953 2.80800003 1.140914368e-38
0.36167619 0.11388953 2.80800003 1.177649408e-38
0.36411431 0.11417144 2.81000006 1.177685982e-38
0.36565718 0.11417144 2.81000006 1.186869391e-38
0.36720002 0.11417144 2.81000006 1.186869111e-38
0.36874288 0.11417144 2.81000006 1.186832397e-38
0.3712 0.11445334 2.81200004 1.168464597e-38
0.37274668 0.11445334 2.81200004 1.159318182e-38
0.37429336 0.11445334 2.81200004 1.150171907e-38
0.37722859 0.1148762 2.81500006 1.150098619e-38
0.37878099 0.1148762 2.81500006 1.15024057e-38
0.38126668 0.1151581 2.81700003 1.150133931e-38
0.38282287 0.1151581 2.81700003 1.168394252e-38
0.38437906 0.1151581 2.81700003 1.186762332e-38
0.38688001 0.11544001 2.81900007 1.168396214e-38
0.38844001 0.11544001 2.81900007 1.159211543e-38
0.39095241 0.1157219 2.82100004 1.159246435e-38
0.39251623 0.1157219 2.82100004 1.159212524e-38
0.39503998 0.11600381 2.82300001 1.159214626e-38
0.39660764 0.11600381 2.82300001 1.168289295e-38
0.39914289 0.11628572 2.82500005 1.159032877e-38
0.40071431 0.11628572 2.82500005 1.159104203e-38
0.40228572 0.11628572 2.82500005 1.168179853e-38
0.40483618 0.11656762 2.82700002 1.177326268e-38
0.40641144 0.11656762 2.82700002 1.158886302e-38
0.40798667 0.11656762 2.82700002 1.140771436e-38
0.4095619 0.11656762 2.82700002 1.159139656e-38
0.41113713 0.11656762 2.82700002 1.177649968e-38
0.4127124 0.11656762 2.82700002 1.159390349e-38
0.41328573 0.11628572 2.82500005 1.140986816e-38
0.41485718 0.11628572 2.82500005 1.140986395e-38
0.4164286 0.11628572 2.82500005 1.140950802e-38
0.41800001 0.11628572 2.82500005 1.140915349e-38
0.41957143 0.11628572 2.82500005 1.150135333e-38
0.42114288 0.11628572 2.82500005 1.150351133e-38
0.42373908 0.11656762 2.82700002 1.159319443e-38
0.42428574 0.11628572 2.82500005 1.15010002e-38
0.42688954 0.11656762 2.82700002 1.140952484e-38
0.42742857 0.11628572 2.82500005 1.095070609e-38
0.42796001 0.11600381 2.82300001 1.049081114e-38
0.42952761 0.11600381 2.82300001 1.067376607e-38
0.038514286 0.096285716 2.67400002 1.187805038e-38
0.039798096 0.096285716 2.67400002 1.151032444e-38
0.041142859 0.096428573 2.67500001 1.122618455e-38
0.042365715 0.096285716 2.67400002 1.102889014e-38
0.043649524 0.096285716 2.67400002 1.029493204e-38
0.044933334 0.096285716 2.67400002 9.56095993e-39
0.046217144 0.096285716 2.67400002 9.469478962e-39
0.047500957 0.096285716 2.67400002 9.377993791e-39
0.048784763 0.096285716 2.67400002 9.652775808e-39
0.050068572 0.096285716 2.67400002 1.001940313e-38
0.051352382 0.096285716 2.67400002 9.834301412e-39
0.052636191 0.096285716 2.67400002 9.649548618e-39
0.053920001 0.096285716 2.67400002 9.927920761e-39
0.05520381 0.096285716 2.67400002 1.020666425e-38
0.056487624 0.096285716 2.67400002 9.836462214e-39
0.057771433 0.096285716 2.67400002 9.466620313e-39
0.059142858 0.096428573 2.67500001 9.927602667e-39
0.060428571 0.096428573 2.67500001 1.03885626e-38
0.061714288 0.096428573 2.67500001 1.075912196e-38
0.063093342 0.096571438 2.67600006 1.113004987e-38
0.06428571 0.096428573 2.67500001 1.140483749e-38
0.065668575 0.096571438 2.67600006 1.158815536e-38
0.0669562 0.096571438 2.67600006 1.205092577e-38
0.06844572 0.096857145 2.67800003 1.251117945e-38
0.069839999 0.097000003 2.67900002 1.269521057e-38
0.071133338 0.097000003 2.67900002 1.287960464e-38
0.072533339 0.097142853 2.68000001 1.324695223e-38
0.073828578 0.097142853 2.68000001 1.361465294e-38
0.075123809 0.097142853 2.68000001 1.343205955e-38
0.076419048 0.097142853 2.68000001 1.33416786e-38
0.077942863 0.097428575 2.68200004 1.38008757e-38
0.079241909 0.097428575 2.68200004 1.41685582e-38
0.080540963 0.097428575 2.68200004 1.38011994e-38
0.081840008 0.097428575 2.68200004 1.343421335e-38
0.083260953 0.097571433 2.68300003 1.325125842e-38
0.084561907 0.097571433 2.68300003 1.306867343e-38
0.085988574 0.09771429 2.68400002 1.315908381e-38
0.087291434 0.09771429 2.68400002 1.334239887e-38
0.088594288 0.09771429 2.68400002 1.352571393e-38
0.089897141 0.09771429 2.68400002 1.380086309e-38
0.091466673 0.098000005 2.68600005 1.380122322e-38
0.092773341 0.098000005 2.68600005 1.389341185e-38
0.094080001 0.098000005 2.68600005 1.40767199e-38
0.095803812 0.09842857 2.68900001 1.416854699e-38
0.097257152 0.098571435 2.69000006 1.444296887e-38
0.098714292 0.098714292 2.69100004 1.46269972e-38
0.10032 0.099000007 2.69300002 1.444045634e-38
0.10178667 0.099142857 2.69400001 1.416568274e-38
0.10310857 0.099142857 2.69400001 1.416641702e-38
0.10458095 0.099285722 2.69500005 1.407527937e-38
0.10620952 0.099571429 2.69700003 1.434969144e-38
0.10753714 0.099571429 2.69700003 1.462807059e-38
0.10886477 0.099571429 2.69700003 1.407311436e-38
0.11019238 0.099571429 2.69700003 1.361323623e-38
0.11152001 0.099571429 2.69700003 1.361468938e-38
0.11284763 0.099571429 2.69700003 1.361575296e-38
0.11417524 0.099571429 2.69700003 1.324839837e-38
0.11550286 0.099571429 2.69700003 1.288141792e-38
0.11683048 0.099571429 2.69700003 1.306509311e-38
0.11832762 0.099714287 2.69800001 1.33416772e-38
0.11965714 0.099714287 2.69800001 1.361646903e-38
0.12098667 0.099714287 2.69800001 1.389017765e-38
0.1223162 0.099714287 2.69800001 1.398165021e-38
0.12400001 0.10000001 2.70000005 1.416529878e-38
0.12533334 0.10000001 2.70000005 1.389084607e-38
0.12684762 0.10014286 2.70100003 1.370826949e-38
0.12818287 0.10014286 2.70100003 1.370828771e-38
0.12988763 0.10042857 2.70300001 1.370828771e-38
0.13122666 0.10042857 2.70300001 1.352533558e-38
0.1327543 0.10057143 2.70400006 1.343424137e-38
0.13409525 0.10057143 2.70400006 1.315804264e-38
0.13562857 0.10071429 2.70500004 1.288069485e-38
0.13735999 0.101 2.70700002 1.30643196e-38
0.13890286 0.10114285 2.708 1.324800881e-38
0.14025143 0.10114285 2.708 1.334201491e-38
0.142 0.10142858 2.71000004 1.343527693e-38
0.1435543 0.10157143 2.71100003 1.33430757e-38
0.14490858 0.10157143 2.71100003 1.334272817e-38
0.14667429 0.10185716 2.71300006 1.334309812e-38
0.14803238 0.10185716 2.71300006 1.334345545e-38
0.14960001 0.10200001 2.71400005 1.334273658e-38
0.15096001 0.10200001 2.71400005 1.325018222e-38
0.15232 0.10200001 2.71400005 1.324946475e-38
0.15368001 0.10200001 2.71400005 1.334094152e-38
0.15504001 0.10200001 2.71400005 1.352604744e-38
0.15640001 0.10200001 2.71400005 1.371116457e-38
0.15776001 0.10200001 2.71400005 1.343566929e-38
0.15956572 0.10228571 2.71600002 1.325198569e-38
0.16092952 0.10228571 2.71600002 1.334416731e-38
0.16229333 0.10228571 2.71600002 1.343636854e-38
0.16365716 0.10228571 2.71600002 1.362040527e-38
0.16525143 0.10242857 2.71700001 1.38962789e-38
0.16661714 0.10242857 2.71700001 1.380337562e-38
0.16845143 0.10271429 2.71900004 1.380300707e-38
0.17005715 0.10285715 2.72000003 1.389447403e-38
0.17142858 0.10285715 2.72000003 1.407816044e-38
0.1728 0.10285715 2.72000003 1.407745839e-38
0.17465526 0.10314287 2.72200006 1.4168554e-38
0.17603049 0.10314287 2.72200006 1.42607258e-38
0.17740573 0.10314287 2.72200006 1.435435496e-38
0.17878097 0.10314287 2.72200006 1.407741354e-38
0.18040572 0.10328571 2.72300005 1.380082806e-38
0.18178286 0.10328571 2.72300005 1.370970862e-38
0.18316001 0.10328571 2.72300005 1.352711523e-38
0.18453714 0.10328571 2.72300005 1.361823466e-38
0.18591429 0.10328571 2.72300005 1.36175228e-38
0.18780953 0.10357143 2.72500002 1.370828771e-38
0.18919048 0.10357143 2.72500002 1.370756464e-38
0.19057143 0.10357143 2.72500002 1.370971283e-38
0.19195238 0.10357143 2.72500002 1.371116878e-38
0.1936 0.10371429 2.72600001 1.352500768e-38
0.19498287 0.10371429 2.72600001 1.34324421e-38
0.19690667 0.104 2.72800004 1.343422456e-38
0.19856572 0.10414286 2.72900003 1.352532297e-38
0.1999543 0.10414286 2.72900003 1.38015273e-38
0.20189524 0.10442857 2.73100001 1.407524854e-38
0.2041219 0.10485715 2.73400003 1.371042609e-38
0.20636001 0.10528573 2.73700005 1.325052694e-38
0.20832762 0.10557143 2.73900002 1.315438245e-38
0.21001905 0.10571428 2.74000001 1.306003863e-38
0.212 0.106 2.74200004 1.306542382e-38
0.21427621 0.10642858 2.74500006 1.315869845e-38
0.21569526 0.10642858 2.74500006 1.29743156e-38
0.21769716 0.10671429 2.74700004 1.278956e-38
0.21912001 0.10671429 2.74700004 1.260624073e-38
0.22054286 0.10671429 2.74700004 1.251583036e-38
0.22196572 0.10671429 2.74700004 1.242290886e-38
0.22338858 0.10671429 2.74700004 1.233036991e-38
0.22511239 0.10685714 2.74800003 1.242293828e-38
0.22714287 0.10714287 2.75000006 1.251584998e-38
0.22857144 0.10714287 2.75000006 1.260660927e-38
0.23000002 0.10714287 2.75000006 1.270238382e-38
0.23204572 0.10742857 2.75200003 1.270130062e-38
0.2334781 0.10742857 2.75200003 1.270057895e-38
0.23522286 0.10757143 2.75300002 1.279133544e-38
0.23665714 0.10757143 2.75300002 1.279062639e-38
0.23809142 0.10757143 2.75300002 1.297645818e-38
0.24016191 0.10785715 2.75500005 1.316050893e-38
0.24192002 0.10800001 2.75600004 1.306869445e-38
0.24336001 0.10800001 2.75600004 1.297719246e-38
0.2448 0.10800001 2.75600004 1.297680991e-38
0.24689142 0.10828572 2.75800002 1.306720067e-38
0.24899048 0.10857143 2.76000005 1.315938509e-38
0.25043812 0.10857143 2.76000005 1.325159333e-38
0.25188571 0.10857143 2.76000005 1.343527833e-38
0.25333336 0.10857143 2.76000005 1.352711383e-38
0.25511619 0.10871429 2.76100004 1.325160734e-38
0.25656572 0.10871429 2.76100004 1.306830769e-38
0.25801525 0.10871429 2.76100004 1.315943833e-38
0.26014665 0.109 2.76300001 1.325055356e-38
0.26228574 0.10928572 2.76500005 1.31590754e-38
0.2644324 0.10957143 2.76700002 1.315978446e-38
0.26589334 0.10957143 2.76700002 1.316049351e-38
0.26735431 0.10957143 2.76700002 1.316086486e-38
0.26881525 0.10957143 2.76700002 1.306940211e-38
0.27027619 0.10957143 2.76700002 1.29775526e-38
0.27209145 0.10971429 2.76800001 1.297682252e-38
