# .PCD v0.7 - Point Cloud Data file format
VERSION 0.7
FIELDS x y z rgb
SIZE 4 4 4 4
TYPE F F F F
COUNT 1 1 1 1
WIDTH 947
HEIGHT 1
VIEWPOINT 0 0 0 1 0 0 0
POINTS 947
DATA ascii
2.23252763 -0.057087619 0.73100001 1.057800274e-38
2.23391999 -0.057087619 0.73100001 1.048617285e-38
2.23466858 -0.056931432 0.72900003 1.039541495e-38
2.23573335 -0.056853335 0.72800004 1.103862356e-38
2.23712002 -0.056853335 0.72800004 1.168217828e-38
2.23850669 -0.056853335 0.72800004 1.223497511e-38
2.23989335 -0.056853335 0.72800004 1.278742862e-38
2.24128 -0.056853335 0.72800004 1.315298395e-38
2.242 -0.056697145 0.72600001 1.351888821e-38
2.24338286 -0.056697145 0.72600001 1.370506892e-38
2.24476571 -0.056697145 0.72600001 1.398307673e-38
2.24614856 -0.056697145 0.72600001 1.250867673e-38
2.25776002 -0.059040003 0.75600004 1.09463999e-38
2.25885716 -0.058961909 0.75500005 1.113150862e-38
2.26029527 -0.058961909 0.75500005 1.140845144e-38
2.26173332 -0.058961909 0.75500005 1.150244074e-38
2.26317143 -0.058961909 0.75500005 1.159428184e-38
2.26460955 -0.058961909 0.75500005 1.168827533e-38
2.26640001 -0.059040003 0.75600004 1.178190309e-38
2.26784003 -0.059040003 0.75600004 1.205812564e-38
2.26999238 -0.059196193 0.75800002 1.242618789e-38
2.27215239 -0.059352383 0.76000005 1.242583336e-38
2.27396002 -0.05943048 0.76100004 1.242547463e-38
2.27613333 -0.059586667 0.76300001 1.224072884e-38
2.27758667 -0.059586667 0.76300001 1.205597185e-38
2.28745142 -0.06138286 0.78600001 1.251585698e-38
2.28894857 -0.06138286 0.78600001 1.297613168e-38
2.29044572 -0.06138286 0.78600001 1.334421215e-38
2.29268572 -0.06153905 0.78800005 1.380373715e-38
2.29418668 -0.06153905 0.78800005 1.389592017e-38
2.29568762 -0.06153905 0.78800005 1.40799597e-38
2.29832 -0.061773334 0.79100001 1.389665725e-38
2.30058476 -0.061929524 0.79300004 1.380517068e-38
2.30209523 -0.061929524 0.79300004 1.3989192e-38
2.30437142 -0.062085714 0.79500002 1.426542436e-38
2.3058857 -0.062085714 0.79500002 1.426507543e-38
2.30817336 -0.062241908 0.79700005 1.426470829e-38
2.31008002 -0.062320005 0.79800004 1.40810303e-38
2.31238094 -0.062476188 0.80000001 1.39891976e-38
2.31468952 -0.062632389 0.80200005 1.380517068e-38
2.31779429 -0.062944762 0.80600005 1.37136799e-38
2.32012191 -0.063100956 0.80800003 1.343780207e-38
2.32166097 -0.063100956 0.80800003 1.316084944e-38
2.324 -0.06325715 0.81000006 1.288533314e-38
2.3255429 -0.06325715 0.81000006 1.260984487e-38
2.19562668 -0.059733335 0.78400004 9.758664926e-39
2.19661716 -0.059580956 0.78200006 8.010574519e-39
2.19760001 -0.059428573 0.78000003 6.268585366e-39
2.19908573 -0.059428573 0.78000003 8.199658728e-39
2.2003143 -0.059352383 0.77900004 1.013178587e-38
2.20179811 -0.059352383 0.77900004 1.050701436e-38
2.2022381 -0.059047621 0.77500004 1.087470527e-38
2.20292571 -0.058819048 0.77200001 1.012781459e-38
2.20333713 -0.058514286 0.76800001 9.392760674e-39
2.20346667 -0.058133334 0.76300001 8.749902392e-39
2.20411429 -0.057904765 0.76000005 8.195299288e-39
2.20502095 -0.057752378 0.75800002 8.100232398e-39
2.20564763 -0.057523813 0.75500005 8.004072494e-39
2.20653716 -0.05737143 0.75300002 7.822176947e-39
2.20769525 -0.05729524 0.75200003 7.729629592e-39
2.20912763 -0.05729524 0.75200003 8.004782953e-39
2.21000001 -0.057142861 0.75000006 8.368889339e-39
2.21142858 -0.057142861 0.75000006 8.092298246e-39
2.21228953 -0.056990478 0.74800003 7.908627253e-39
2.21342857 -0.056914289 0.74700004 7.541644001e-39
2.21427621 -0.056761909 0.74500006 7.267215111e-39
2.21482667 -0.056533337 0.74200004 7.635634694e-39
2.21536571 -0.056304764 0.73900002 8.096965971e-39
2.21677333 -0.056304764 0.73900002 7.729625388e-39
2.2175905 -0.056152385 0.73700005 7.454118899e-39
2.21869716 -0.056076195 0.73600006 8.004054278e-39
2.22009906 -0.056076195 0.73600006 8.555065853e-39
2.22150096 -0.056076195 0.73600006 8.92276657e-39
2.22229715 -0.055923808 0.73400003 9.290108555e-39
2.22369523 -0.055923808 0.73400003 9.567049973e-39
2.22509333 -0.055923808 0.73400003 9.84327813e-39
2.22649144 -0.055923808 0.73400003 1.002767079e-38
2.22788954 -0.055923808 0.73400003 1.030281995e-38
2.22928762 -0.055923808 0.73400003 1.021062712e-38
2.23005715 -0.055771433 0.73200005 1.021062992e-38
2.23145144 -0.055771433 0.73200005 1.011879723e-38
2.23284574 -0.055771433 0.73200005 1.011879723e-38
2.23391999 -0.055695236 0.73100001 9.659621151e-39
2.23531239 -0.055695236 0.73100001 9.293005039e-39
2.23605716 -0.05554286 0.72900003 1.030392277e-38
2.23744573 -0.05554286 0.72900003 1.131482088e-38
2.23850669 -0.055466671 0.72800004 1.177470742e-38
2.23989335 -0.055466671 0.72800004 1.232572741e-38
2.24128 -0.055466671 0.72800004 1.26012409e-38
2.24266668 -0.055466671 0.72800004 1.296786262e-38
2.24405335 -0.055466671 0.72800004 1.333843179e-38
2.24544001 -0.055466671 0.72800004 1.370541084e-38
2.24682669 -0.055466671 0.72800004 1.195622742e-38
2.25844193 -0.057752378 0.75800002 1.02124348e-38
2.25920001 -0.057600003 0.75600004 1.048902449e-38
2.26064003 -0.057600003 0.75600004 1.076560577e-38
2.26208001 -0.057600003 0.75600004 1.095071029e-38
2.26317143 -0.057523813 0.75500005 1.122657692e-38
2.26495999 -0.057600003 0.75600004 1.122729578e-38
2.26640001 -0.057600003 0.75600004 1.122980971e-38
2.26854858 -0.057752378 0.75800002 1.141527717e-38
2.26999238 -0.057752378 0.75800002 1.168971026e-38
2.27215239 -0.057904765 0.76000005 1.196414336e-38
2.27396002 -0.057980955 0.76100004 1.223929111e-38
2.27540955 -0.057980955 0.76100004 1.196342449e-38
2.2859543 -0.059885714 0.78600001 1.177974789e-38
2.28745142 -0.059885714 0.78600001 1.251478639e-38
2.28894857 -0.059885714 0.78600001 1.325271016e-38
2.29118478 -0.060038101 0.78800005 1.362078082e-38
2.29268572 -0.060038101 0.78800005 1.408030723e-38
2.29418668 -0.060038101 0.78800005 1.408065755e-38
2.29606289 -0.060114287 0.78900003 1.417248884e-38
2.29832 -0.060266666 0.79100001 1.380514265e-38
2.30058476 -0.060419049 0.79300004 1.35300019e-38
2.30285713 -0.060571428 0.79500002 1.380587553e-38
2.30437142 -0.060571428 0.79500002 1.408174636e-38
2.3058857 -0.060571428 0.79500002 1.417394619e-38
2.30817336 -0.060723811 0.79700005 1.426505722e-38
2.31008002 -0.060800005 0.79800004 1.417321612e-38
2.31238094 -0.06095238 0.80000001 1.408066596e-38
2.31390476 -0.06095238 0.80000001 1.389663904e-38
2.31621715 -0.061104763 0.80200005 1.380515246e-38
2.32012191 -0.061561905 0.80800003 1.371366589e-38
2.32166097 -0.061561905 0.80800003 1.362074719e-38
2.32480001 -0.061866671 0.81200004 1.325268214e-38
2.32634667 -0.061866671 0.81200004 1.29775526e-38
2.32910478 -0.062095243 0.81500006 1.260700164e-38
2.33065718 -0.062095243 0.81500006 1.224401069e-38
2.19562668 -0.058240004 0.78400004 1.003380007e-38
2.19661716 -0.058091432 0.78200006 9.020756569e-39
2.19760001 -0.05794286 0.78000003 7.920901227e-39
2.19908573 -0.05794286 0.78000003 8.934697225e-39
2.2003143 -0.057868574 0.77900004 9.947746332e-39
2.20128001 -0.057719998 0.77700001 1.004423554e-38
2.2017162 -0.057422861 0.77300006 1.023113512e-38
2.2024 -0.0572 0.77000004 9.576449883e-39
2.20333713 -0.057051428 0.76800001 9.021475435e-39
2.20346667 -0.056679998 0.76300001 8.558336484e-39
2.20411429 -0.056457143 0.76000005 8.095571679e-39
2.20502095 -0.056308571 0.75800002 7.912259419e-39
2.20564763 -0.056085717 0.75500005 7.728933146e-39
2.20708573 -0.056085717 0.75500005 7.8193197e-39
2.20797144 -0.055937145 0.75300002 8.001911692e-39
2.20912763 -0.055862859 0.75200003 8.736592859e-39
2.21056001 -0.055862859 0.75200003 9.471272624e-39
2.21142858 -0.055714291 0.75000006 8.918821915e-39
2.21228953 -0.055565715 0.74800003 8.460001765e-39
2.21371429 -0.055565715 0.74800003 8.184854009e-39
2.21427621 -0.055342861 0.74500006 8.001893475e-39
2.2151162 -0.055194288 0.74300003 8.370663383e-39
2.21565714 -0.05497143 0.74000001 8.647613209e-39
2.21706666 -0.05497143 0.74000001 8.463950625e-39
2.21818095 -0.054897144 0.73900002 8.372112326e-39
2.21958858 -0.054897144 0.73900002 8.55470572e-39
2.22099619 -0.054897144 0.73900002 8.828418546e-39
2.22180192 -0.054748576 0.73700005 8.921688972e-39
2.22320573 -0.054748576 0.73700005 9.106792091e-39
2.22430478 -0.05467429 0.73600006 9.015312525e-39
2.22570668 -0.05467429 0.73600006 9.016039799e-39
2.22649144 -0.054525718 0.73400003 9.383391592e-39
2.22788954 -0.054525718 0.73400003 9.842567672e-39
2.22928762 -0.054525718 0.73400003 9.750372042e-39
2.23068573 -0.054525718 0.73400003 9.658169406e-39
2.23145144 -0.054377146 0.73200005 9.751074093e-39
2.23284574 -0.054377146 0.73200005 9.935458346e-39
2.23424001 -0.054377146 0.73200005 9.749989488e-39
2.23531239 -0.054302856 0.73100001 9.65565968e-39
2.23605716 -0.054154288 0.72900003 1.030031863e-38
2.23744573 -0.054154288 0.72900003 1.103678926e-38
2.23948953 -0.054302856 0.73100001 1.140448297e-38
2.24088189 -0.054302856 0.73100001 1.177254942e-38
2.24227428 -0.054302856 0.73100001 1.214169208e-38
2.24366666 -0.054302856 0.73100001 1.250867252e-38
2.24438857 -0.054154288 0.72900003 1.186618138e-38
2.24544001 -0.054080002 0.72800004 1.113185755e-38
2.24682669 -0.054080002 0.72800004 1.057869358e-38
2.25912383 -0.056457143 0.76000005 1.002517928e-38
2.25988573 -0.056308571 0.75800002 1.020993768e-38
2.26132953 -0.056308571 0.75800002 1.04868735e-38
2.26277333 -0.056308571 0.75800002 1.067233395e-38
2.26421714 -0.056308571 0.75800002 1.094963129e-38
2.26566094 -0.056308571 0.75800002 1.104289892e-38
2.26710474 -0.056308571 0.75800002 1.113725255e-38
2.26854858 -0.056308571 0.75800002 1.150496167e-38
2.27070478 -0.056457143 0.76000005 1.187266379e-38
2.27215239 -0.056457143 0.76000005 1.223785618e-38
2.27360001 -0.056457143 0.76000005 1.260268424e-38
2.28445715 -0.058388572 0.78600001 1.251658706e-38
2.2859543 -0.058388572 0.78600001 1.251873805e-38
2.28818285 -0.058537148 0.78800005 1.297827426e-38
2.28968385 -0.058537148 0.78800005 1.343781188e-38
2.29118478 -0.058537148 0.78800005 1.380515667e-38
2.29305717 -0.05861143 0.78900003 1.417356644e-38
2.29456002 -0.05861143 0.78900003 1.435758916e-38
2.29681331 -0.058760002 0.79100001 1.463343616e-38
2.29907429 -0.058908574 0.79300004 1.42653585e-38
2.30058476 -0.058908574 0.79300004 1.38976816e-38
2.30285713 -0.059057143 0.79500002 1.398990105e-38
2.30437142 -0.059057143 0.79500002 1.417429091e-38
2.3058857 -0.059057143 0.79500002 1.426577048e-38
2.30817336 -0.059205718 0.79700005 1.444907713e-38
2.31008002 -0.059280004 0.79800004 1.42650432e-38
2.31238094 -0.059428573 0.80000001 1.408029882e-38
2.31390476 -0.059428573 0.80000001 1.398810739e-38
2.31621715 -0.059577145 0.80200005 1.389590616e-38
2.32012191 -0.060022857 0.80800003 1.371366449e-38
2.32245716 -0.060171433 0.81000006 1.362146886e-38
2.324 -0.060171433 0.81000006 1.334560224e-38
2.32634667 -0.060320001 0.81200004 1.316159073e-38
2.32910478 -0.060542859 0.81500006 1.288466753e-38
2.33065718 -0.060542859 0.81500006 1.251591023e-38
2.33220956 -0.060542859 0.81500006 1.169192291e-38
2.19661716 -0.056601912 0.78200006 1.003129595e-38
2.19760001 -0.056457143 0.78000003 9.666481908e-39
2.19908573 -0.056457143 0.78000003 9.670084647e-39
2.2003143 -0.056384765 0.77900004 9.763711002e-39
2.20128001 -0.05624 0.77700001 9.673666365e-39
2.2017162 -0.055950481 0.77300006 9.578954003e-39
2.2024 -0.055733338 0.77000004 9.117259791e-39
2.20333713 -0.055588569 0.76800001 8.652320171e-39
2.20400001 -0.05537143 0.76500005 8.282444638e-39
2.20411429 -0.055009525 0.76000005 8.004435431e-39
2.20502095 -0.054864764 0.75800002 7.726784956e-39
2.20592001 -0.054719999 0.75600004 7.543102753e-39
2.20708573 -0.054647624 0.75500005 7.910434928e-39
2.20797144 -0.054502856 0.75300002 8.278494378e-39
2.20912763 -0.054430481 0.75200003 9.381956663e-39
2.21056001 -0.054430481 0.75200003 1.057401744e-38
2.21142858 -0.054285716 0.75000006 9.745338578e-39
2.21285716 -0.054285716 0.75000006 9.012807003e-39
2.21428573 -0.054285716 0.75000006 8.923482634e-39
2.21513906 -0.054140955 0.74800003 8.830925469e-39
2.21569526 -0.053923815 0.74500006 9.013873391e-39
2.21624002 -0.053706668 0.74200004 9.290821816e-39
2.21765333 -0.053706668 0.74200004 9.290468689e-39
2.21847619 -0.053561907 0.74000001 9.290824618e-39
2.21958858 -0.053489525 0.73900002 9.197192658e-39
2.22099619 -0.053489525 0.73900002 9.104641098e-39
2.22240381 -0.053489525 0.73900002 9.012446869e-39
2.22381143 -0.053489525 0.73900002 8.923118296e-39
2.22521906 -0.053489525 0.73900002 8.55469591e-39
2.22570668 -0.053272385 0.73600006 8.278840499e-39
2.22710858 -0.053272385 0.73600006 8.829503151e-39
2.2285105 -0.053272385 0.73600006 9.379800064e-39
2.22928762 -0.05312762 0.73400003 9.195771741e-39
2.23068573 -0.05312762 0.73400003 9.106799098e-39
2.23145144 -0.052982859 0.73200005 9.475569005e-39
2.23284574 -0.052982859 0.73200005 9.842549455e-39
2.23424001 -0.052982859 0.73200005 9.932231155e-39
2.2356343 -0.052982859 0.73200005 1.002407786e-38
2.23670477 -0.052910477 0.73100001 1.039178979e-38
2.23809715 -0.052910477 0.73100001 1.085310986e-38
2.23948953 -0.052910477 0.73100001 1.103569624e-38
2.24088189 -0.052910477 0.73100001 1.131228734e-38
2.24227428 -0.052910477 0.73100001 1.168430265e-38
2.24366666 -0.052910477 0.73100001 1.213989141e-38
2.24438857 -0.052765716 0.72900003 1.039429951e-38
2.24544001 -0.052693337 0.72800004 8.649778215e-39
2.24682669 -0.052693337 0.72800004 9.201504453e-39
2.25946477 -0.055081908 0.76100004 9.841851608e-39
2.26057142 -0.055009525 0.76000005 1.002696874e-38
2.26201907 -0.055009525 0.76000005 1.021063973e-38
2.26277333 -0.054864764 0.75800002 1.048614622e-38
2.26421714 -0.054864764 0.75800002 1.076523583e-38
2.26636192 -0.055009525 0.76000005 1.095069488e-38
2.26780954 -0.055009525 0.76000005 1.113365541e-38
2.26925716 -0.055009525 0.76000005 1.159212384e-38
2.27070478 -0.055009525 0.76000005 1.205201878e-38
2.27215239 -0.055009525 0.76000005 1.251191513e-38
2.27360001 -0.055009525 0.76000005 1.306651403e-38
2.28445715 -0.056891426 0.78600001 1.316193685e-38
2.2859543 -0.056891426 0.78600001 1.325377655e-38
2.28818285 -0.057036195 0.78800005 1.343781188e-38
2.28968385 -0.057036195 0.78800005 1.371332818e-38
2.29118478 -0.057036195 0.78800005 1.398920461e-38
2.29305717 -0.057108574 0.78900003 1.426505722e-38
2.29456002 -0.057108574 0.78900003 1.463310546e-38
2.29681331 -0.057253335 0.79100001 1.509227173e-38
2.29907429 -0.057398096 0.79300004 1.463344177e-38
2.30134284 -0.057542857 0.79500002 1.426610819e-38
2.30285713 -0.057542857 0.79500002 1.426647673e-38
2.30437142 -0.057542857 0.79500002 1.426576347e-38
2.3058857 -0.057542857 0.79500002 1.444836247e-38
2.30817336 -0.057687622 0.79700005 1.463202786e-38
2.31008002 -0.05776 0.79800004 1.43568745e-38
2.31238094 -0.057904761 0.80000001 1.417248184e-38
2.31468952 -0.058049526 0.80200005 1.407956734e-38
2.31700572 -0.058194283 0.80400002 1.398845351e-38
2.32012191 -0.058483809 0.80800003 1.380550559e-38
2.32166097 -0.058483809 0.80800003 1.362147446e-38
2.324 -0.058628574 0.81000006 1.35299977e-38
2.32634667 -0.058773335 0.81200004 1.343745315e-38
2.32789335 -0.058773335 0.81200004 1.316159774e-38
2.33065718 -0.058990479 0.81500006 1.288358012e-38
2.33220956 -0.058990479 0.81500006 1.177940177e-38
2.19712001 -0.055253334 0.78400004 1.03075115e-38
2.19810669 -0.055112384 0.78200006 1.003453015e-38
2.19908573 -0.05497143 0.78000003 9.945219791e-39
2.2003143 -0.054900955 0.77900004 9.855540893e-39
2.20179811 -0.054900955 0.77900004 9.578962411e-39
2.2017162 -0.054478098 0.77300006 9.302724445e-39
2.20292571 -0.054407619 0.77200001 8.838153366e-39
2.20386668 -0.054266669 0.77000004 8.375359134e-39
2.20400001 -0.05391429 0.76500005 8.190583919e-39
2.20411429 -0.053561911 0.76000005 8.005134679e-39
2.20502095 -0.053420953 0.75800002 7.911881069e-39
2.20592001 -0.053280003 0.75600004 7.727126872e-39
2.20708573 -0.053209525 0.75500005 8.003343819e-39
2.20797144 -0.053068571 0.75300002 8.279571976e-39
2.20912763 -0.052998096 0.75200003 9.014620283e-39
2.21056001 -0.052998096 0.75200003 9.748575577e-39
2.21199238 -0.052998096 0.75200003 9.382299981e-39
2.21285716 -0.052857146 0.75000006 9.016392926e-39
2.21428573 -0.052857146 0.75000006 9.017111792e-39
2.21513906 -0.052716192 0.74800003 9.10966195e-39
2.21627429 -0.052645717 0.74700004 9.292253943e-39
2.21653143 -0.052363813 0.74300003 9.566688438e-39
2.21794668 -0.052363813 0.74300003 9.84219913e-39
2.21906668 -0.052293338 0.74200004 1.011806015e-38
2.22048001 -0.052293338 0.74200004 9.749997895e-39
2.22189334 -0.052293338 0.74200004 9.474134076e-39
2.22270475 -0.052152384 0.74000001 9.382299981e-39
2.22411428 -0.052152384 0.74000001 9.382294376e-39
2.22552381 -0.052152384 0.74000001 9.197900313e-39
2.22601335 -0.051940955 0.73700005 9.013520264e-39
2.22710858 -0.05187048 0.73600006 9.47234742e-39
2.2285105 -0.05187048 0.73600006 9.839334876e-39
2.2299124 -0.05187048 0.73600006 9.840415277e-39
2.23068573 -0.051729526 0.73400003 9.749648972e-39
2.23208381 -0.051729526 0.73400003 9.933312958e-39
2.23348191 -0.051729526 0.73400003 1.020917818e-38
2.23488 -0.051729526 0.73400003 1.020882085e-38
2.2356343 -0.051588573 0.73200005 1.030066055e-38
2.23702858 -0.051588573 0.73200005 1.057581391e-38
2.23842287 -0.051588573 0.73200005 1.094529708e-38
2.23981716 -0.051588573 0.73200005 1.076017995e-38
2.24088189 -0.051518098 0.73100001 1.05768789e-38
2.24227428 -0.051518098 0.73100001 1.085275533e-38
2.244 -0.051588573 0.73200005 1.112862055e-38
2.24505906 -0.051518098 0.73100001 9.474865554e-39
2.24645144 -0.051518098 0.73100001 7.913292176e-39
2.25869331 -0.053773336 0.76300001 8.831635927e-39
2.25946477 -0.053632382 0.76100004 9.75035943e-39
2.2609143 -0.053632382 0.76100004 1.002659459e-38
2.26236382 -0.053632382 0.76100004 1.021098866e-38
2.26346669 -0.053561911 0.76000005 1.048685948e-38
2.26491427 -0.053561911 0.76000005 1.076487009e-38
2.26636192 -0.053561911 0.76000005 1.103857591e-38
2.26816192 -0.053632382 0.76100004 1.140448997e-38
2.26961145 -0.053632382 0.76100004 1.195802108e-38
2.27106097 -0.053632382 0.76100004 1.251154379e-38
2.2725105 -0.053632382 0.76100004 1.297394986e-38
2.28296 -0.055394288 0.78600001 1.343671466e-38
2.28445715 -0.055394288 0.78600001 1.362146325e-38
2.28668192 -0.055535242 0.78800005 1.380658039e-38
2.28818285 -0.055535242 0.78800005 1.371403864e-38
2.29005143 -0.055605717 0.78900003 1.371369812e-38
2.2915543 -0.055605717 0.78900003 1.389738733e-38
2.2938 -0.055746667 0.79100001 1.408140024e-38
2.29530665 -0.055746667 0.79100001 1.435653258e-38
2.29756382 -0.055887621 0.79300004 1.46313174e-38
2.29982859 -0.056028571 0.79500002 1.426504741e-38
2.30134284 -0.056028571 0.79500002 1.389949348e-38
2.30361906 -0.056169529 0.79700005 1.399060591e-38
2.30513716 -0.056169529 0.79700005 1.417392377e-38
2.30665523 -0.056169529 0.79700005 1.426576627e-38
2.30856001 -0.05624 0.79800004 1.444978899e-38
2.31008002 -0.05624 0.79800004 1.42650362e-38
2.31238094 -0.056380954 0.80000001 1.417318949e-38
2.31468952 -0.056521907 0.80200005 1.408170292e-38
2.31621715 -0.056521907 0.80200005 1.399024297e-38
2.31932953 -0.056803815 0.80600005 1.380587133e-38
2.3200686 -0.056662858 0.80400002 1.371331697e-38
2.324 -0.057085719 0.81000006 1.362148147e-38
2.32715046 -0.057367619 0.81400001 1.353000471e-38
2.32910478 -0.057438098 0.81500006 1.343637555e-38
2.33065718 -0.057438098 0.81500006 1.334344284e-38
2.33220956 -0.057438098 0.81500006 1.251511009e-38
2.3337619 -0.057438098 0.81500006 1.168614256e-38
2.19712001 -0.05376 0.78400004 1.058406756e-38
2.19810669 -0.05362286 0.78200006 1.049404254e-38
2.19908573 -0.053485718 0.78000003 1.022034793e-38
2.2003143 -0.053417146 0.77900004 9.945563109e-39
2.20179811 -0.053417146 0.77900004 9.487107297e-39
2.2017162 -0.053005718 0.77300006 9.02648788e-39
2.20292571 -0.052937143 0.77200001 8.559052547e-39
2.20386668 -0.052800003 0.77000004 8.191326607e-39
2.20453334 -0.052594289 0.76700002 8.099107155e-39
2.20491999 -0.05232 0.76300001 8.097330309e-39
2.20556192 -0.052114289 0.76000005 8.004794163e-39
2.20592001 -0.051840004 0.75600004 8.002992093e-39
2.20736001 -0.051840004 0.75600004 8.092306654e-39
2.20852382 -0.051771432 0.75500005 8.279566371e-39
2.20940572 -0.051634289 0.75300002 8.555431592e-39
2.21056001 -0.051565714 0.75200003 8.922409239e-39
2.21199238 -0.051565714 0.75200003 8.923838564e-39
2.21285716 -0.051428575 0.75000006 9.016758665e-39
2.21428573 -0.051428575 0.75000006 9.202233128e-39
2.21571429 -0.051428575 0.75000006 9.384820917e-39
2.21656382 -0.051291432 0.74800003 9.659604335e-39
2.2171143 -0.051085718 0.74500006 9.934756295e-39
2.21794668 -0.050948571 0.74300003 1.039393938e-38
2.21936192 -0.050948571 0.74300003 1.094458522e-38
2.22077715 -0.050948571 0.74300003 1.039356243e-38
2.22189334 -0.050880004 0.74200004 9.842553659e-39
2.22330669 -0.050880004 0.74200004 9.842556461e-39
2.22411428 -0.050742857 0.74000001 9.841836194e-39
2.22613335 -0.050880004 0.74200004 9.841473258e-39
2.22693333 -0.050742857 0.74000001 9.842194926e-39
2.22803429 -0.050674286 0.73900002 1.011842308e-38
2.22882096 -0.050537147 0.73700005 1.039285478e-38
2.23022479 -0.050537147 0.73700005 1.039214011e-38
2.2313143 -0.050468575 0.73600006 1.04839686e-38
2.23208381 -0.050331432 0.73400003 1.048360286e-38
2.23348191 -0.050331432 0.73400003 1.05758013e-38
2.23488 -0.050331432 0.73400003 1.057616563e-38
2.2362781 -0.050331432 0.73400003 1.066800113e-38
2.23702858 -0.050194286 0.73200005 1.085167352e-38
2.23842287 -0.050194286 0.73200005 1.103641791e-38
2.23981716 -0.050194286 0.73200005 1.039284917e-38
2.24121144 -0.050194286 0.73200005 9.841838997e-39
2.24260573 -0.050194286 0.73200005 9.932243767e-39
2.244 -0.050194286 0.73200005 1.011627629e-38
2.24539432 -0.050194286 0.73200005 8.647269891e-39
2.24678859 -0.050194286 0.73200005 7.177534812e-39
2.25869331 -0.05232 0.76300001 8.462866019e-39
2.26014665 -0.05232 0.76300001 9.748930106e-39
2.2609143 -0.052182861 0.76100004 1.002480373e-38
2.26236382 -0.052182861 0.76100004 1.030246402e-38
2.26381335 -0.052182861 0.76100004 1.048757274e-38
2.26526284 -0.052182861 0.76100004 1.07627163e-38
2.26671237 -0.052182861 0.76100004 1.122153224e-38
2.26816192 -0.052182861 0.76100004 1.177685982e-38
2.27032 -0.05232 0.76300001 1.233218739e-38
2.27177334 -0.05232 0.76300001 1.297575613e-38
2.27322668 -0.05232 0.76300001 1.343601261e-38
2.28368002 -0.054034289 0.78800005 1.389554883e-38
2.28518099 -0.054034289 0.78800005 1.408137221e-38
2.28668192 -0.054034289 0.78800005 1.43568829e-38
2.28854859 -0.05410286 0.78900003 1.408173935e-38
2.29005143 -0.05410286 0.78900003 1.380516648e-38
2.29229331 -0.05424 0.79100001 1.389737051e-38
2.2938 -0.05424 0.79100001 1.39891962e-38
2.29605335 -0.054377146 0.79300004 1.408102189e-38
2.29756382 -0.054377146 0.79300004 1.417249585e-38
2.29982859 -0.054514285 0.79500002 1.380515246e-38
2.30210099 -0.054651432 0.79700005 1.353000611e-38
2.30361906 -0.054651432 0.79700005 1.380587413e-38
2.30552003 -0.054719999 0.79800004 1.408173935e-38
2.30704004 -0.054719999 0.79800004 1.417500978e-38
2.30933335 -0.054857146 0.80000001 1.426576908e-38
2.31085715 -0.054857146 0.80000001 1.426541034e-38
2.31316191 -0.054994289 0.80200005 1.426576067e-38
2.31468952 -0.054994289 0.80200005 1.408279873e-38
2.31700572 -0.055131428 0.80400002 1.399026259e-38
2.31932953 -0.055268575 0.80600005 1.389808518e-38
2.3200686 -0.055131428 0.80400002 1.380516648e-38
2.32320002 -0.055405717 0.80800003 1.371296384e-38
2.3255429 -0.05554286 0.81000006 1.371296244e-38
2.32910478 -0.055885717 0.81500006 1.371116737e-38
2.33065718 -0.055885717 0.81500006 1.380263013e-38
2.33302477 -0.056022856 0.81700003 1.315940891e-38
2.33540002 -0.056160007 0.81900007 1.260734496e-38
2.33613715 -0.056022856 0.81700003 1.242298172e-38
2.33769333 -0.056022856 0.81700003 1.224474076e-38
2.19810669 -0.052133337 0.78200006 1.058621435e-38
2.19908573 -0.052000001 0.78000003 1.021961085e-38
2.2003143 -0.051933337 0.77900004 9.853707995e-39
2.20128001 -0.051799998 0.77700001 9.393818654e-39
2.2017162 -0.051533338 0.77300006 8.93428104e-39
2.20292571 -0.051466666 0.77200001 8.375734682e-39
2.20386668 -0.051333334 0.77000004 7.823623087e-39
2.20480001 -0.051200002 0.76800001 8.098391092e-39
2.20545715 -0.051000003 0.76500005 8.281720167e-39
2.20583239 -0.050733335 0.76100004 8.187750493e-39
2.20700954 -0.050666671 0.76000005 8.18738055e-39
2.20736001 -0.0504 0.75600004 8.279563569e-39
2.20852382 -0.050333336 0.75500005 8.371753593e-39
2.20940572 -0.0502 0.75300002 8.647257279e-39
2.21084 -0.0502 0.75300002 9.014597863e-39
2.21199238 -0.050133336 0.75200003 8.923119698e-39
2.21342477 -0.050133336 0.75200003 8.833812144e-39
2.21428573 -0.050000004 0.75000006 9.109336849e-39
2.21571429 -0.050000004 0.75000006 9.384833529e-39
2.21656382 -0.049866665 0.74800003 9.659971475e-39
2.21769716 -0.049800001 0.74700004 9.935124837e-39
2.21853335 -0.049666673 0.74500006 1.02102796e-38
2.21936192 -0.049533334 0.74300003 1.057760617e-38
2.22077715 -0.049533334 0.74300003 9.934384951e-39
2.22219238 -0.049533334 0.74300003 9.385529974e-39
2.22360763 -0.049533334 0.74300003 9.568130374e-39
2.22472 -0.04946667 0.74200004 9.659247004e-39
2.22643811 -0.049533334 0.74300003 9.842916595e-39
2.22754668 -0.04946667 0.74200004 1.002694492e-38
2.22834286 -0.04933333 0.74000001 1.030209267e-38
2.22944191 -0.04926667 0.73900002 1.057724043e-38
2.23084953 -0.04926667 0.73900002 1.066835846e-38
2.2316286 -0.049133338 0.73700005 1.075946949e-38
2.2327162 -0.04906667 0.73600006 1.076017995e-38
2.23443621 -0.049133338 0.73700005 1.085310005e-38
2.23552002 -0.04906667 0.73600006 1.085239239e-38
2.2362781 -0.048933335 0.73400003 1.085203086e-38
2.23702858 -0.048800007 0.73200005 1.103641651e-38
2.23842287 -0.048800007 0.73200005 1.12211679e-38
2.23981716 -0.048800007 0.73200005 1.076199603e-38
2.24121144 -0.048800007 0.73200005 1.039464984e-38
2.24260573 -0.048800007 0.73200005 1.020989985e-38
2.244 -0.048800007 0.73200005 1.011735109e-38
2.24539432 -0.048800007 0.73200005 9.383031459e-39
2.24678859 -0.048800007 0.73200005 8.649059349e-39
2.25869331 -0.050866667 0.76300001 9.476292075e-39
2.26014665 -0.050866667 0.76300001 1.039572884e-38
2.2609143 -0.050733335 0.76100004 1.048649514e-38
2.26305333 -0.050866667 0.76300001 1.066944727e-38
2.26450667 -0.050866667 0.76300001 1.104145138e-38
2.26595998 -0.050866667 0.76300001 1.141058702e-38
2.26741332 -0.050866667 0.76300001 1.187263436e-38
2.26886666 -0.050866667 0.76300001 1.233469431e-38
2.27776 -0.052266669 0.78400004 1.279424314e-38
2.27925333 -0.052266669 0.78400004 1.325378636e-38
2.28146288 -0.0524 0.78600001 1.352786492e-38
2.28368002 -0.052533336 0.78800005 1.380372874e-38
2.28518099 -0.052533336 0.78800005 1.39891934e-38
2.28704572 -0.052600004 0.78900003 1.417250145e-38
2.28928003 -0.052733332 0.79100001 1.389699216e-38
2.29078665 -0.052733332 0.79100001 1.371332257e-38
2.29303241 -0.052866668 0.79300004 1.380516087e-38
2.29454288 -0.052866668 0.79300004 1.398990386e-38
2.29680002 -0.052999999 0.79500002 1.408173655e-38
2.2983143 -0.052999999 0.79500002 1.408173515e-38
2.30058289 -0.053133339 0.79700005 1.389770542e-38
2.30210099 -0.053133339 0.79700005 1.380587974e-38
2.30400002 -0.053200003 0.79800004 1.389772644e-38
2.30552003 -0.053200003 0.79800004 1.408174916e-38
2.30704004 -0.053200003 0.79800004 1.426613201e-38
2.30933335 -0.053333335 0.80000001 1.444944988e-38
2.31163427 -0.05346667 0.80200005 1.444945689e-38
2.31316191 -0.05346667 0.80200005 1.435797311e-38
2.31468952 -0.05346667 0.80200005 1.426613201e-38
2.31700572 -0.053600002 0.80400002 1.41739546e-38
2.31932953 -0.053733334 0.80600005 1.398994169e-38
2.32166097 -0.053866666 0.80800003 1.389737332e-38
2.32320002 -0.053866666 0.80800003 1.389700057e-38
2.3255429 -0.054000005 0.81000006 1.398775567e-38
2.32910478 -0.054333337 0.81500006 1.389591737e-38
2.33065718 -0.054333337 0.81500006 1.389626909e-38
2.33220956 -0.054333337 0.81500006 1.35289201e-38
2.33458099 -0.054466669 0.81700003 1.307008734e-38
2.33613715 -0.054466669 0.81700003 1.270022162e-38
2.33769333 -0.054466669 0.81700003 1.23297169e-38
2.33924952 -0.054466669 0.81700003 1.196782317e-38
2.19908573 -0.050514285 0.78000003 1.02192409e-38
2.1998 -0.050320003 0.77700001 9.760426359e-39
2.20128001 -0.050320003 0.77700001 9.296949694e-39
2.2017162 -0.050060954 0.77300006 8.836335882e-39
2.20292571 -0.049996193 0.77200001 8.192411212e-39
2.20386668 -0.049866669 0.77000004 7.54631593e-39
2.20480001 -0.049737141 0.76800001 8.004041666e-39
2.20545715 -0.049542859 0.76500005 8.554709923e-39
2.20637333 -0.049413335 0.76300001 8.46288844e-39
2.20700954 -0.04921905 0.76000005 8.370329874e-39
2.20736001 -0.048960004 0.75600004 8.461799631e-39
2.20852382 -0.04889524 0.75500005 8.553632325e-39
2.20940572 -0.048765715 0.75300002 8.829137412e-39
2.21084 -0.048765715 0.75300002 9.105715894e-39
2.21199238 -0.048700955 0.75200003 8.922758162e-39
2.21342477 -0.048700955 0.75200003 8.740530508e-39
2.21428573 -0.04857143 0.75000006 9.01676427e-39
2.21571429 -0.04857143 0.75000006 9.383385987e-39
2.21714287 -0.04857143 0.75000006 9.658172208e-39
2.21798857 -0.048441906 0.74800003 9.933681499e-39
2.21853335 -0.04824762 0.74500006 1.00255212e-38
2.2199524 -0.04824762 0.74500006 1.021025718e-38
2.22137144 -0.04824762 0.74500006 9.567040164e-39
2.22279049 -0.04824762 0.74500006 9.01890125e-39
2.22360763 -0.048118096 0.74300003 9.294411943e-39
2.22502287 -0.048118096 0.74300003 9.569566705e-39
2.22643811 -0.048118096 0.74300003 9.840057946e-39
2.22785333 -0.048118096 0.74300003 1.020883346e-38
2.22834286 -0.047923807 0.74000001 1.048577348e-38
2.22944191 -0.04785905 0.73900002 1.07616401e-38
2.23084953 -0.04785905 0.73900002 1.094064897e-38
2.2313143 -0.047664765 0.73600006 1.112646955e-38
2.23208381 -0.047535241 0.73400003 1.112897648e-38
2.23411812 -0.047664765 0.73600006 1.112898208e-38
2.23488 -0.047535241 0.73400003 1.112934642e-38
2.2362781 -0.047535241 0.73400003 1.113005548e-38
2.25257143 -0.050514285 0.78000003 1.131479566e-38
2.23842287 -0.04740572 0.73200005 1.149882539e-38
2.23981716 -0.04740572 0.73200005 1.122403636e-38
2.24121144 -0.04740572 0.73200005 1.094673481e-38
2.24260573 -0.04740572 0.73200005 1.048576227e-38
2.244 -0.04740572 0.73200005 1.011878182e-38
2.2614857 -0.050514285 0.78000003 1.011950348e-38
2.26297146 -0.050514285 0.78000003 1.011986362e-38
2.25937146 -0.049542859 0.76500005 1.057939983e-38
2.26082858 -0.049542859 0.76500005 1.103965771e-38
2.26228574 -0.049542859 0.76500005 1.10450429e-38
2.2644324 -0.049672384 0.76700002 1.104468417e-38
2.26797333 -0.050060954 0.77300006 1.159533982e-38
2.26735431 -0.049672384 0.76700002 1.214779193e-38
2.27337143 -0.050514285 0.78000003 1.251693178e-38
2.27626669 -0.050773337 0.78400004 1.297756241e-38
2.27776 -0.050773337 0.78400004 1.325416331e-38
2.27996573 -0.050902858 0.78600001 1.35285894e-38
2.28217906 -0.051032383 0.78800005 1.362006196e-38
2.28404 -0.051097143 0.78900003 1.380445602e-38
2.28554288 -0.051097143 0.78900003 1.389737191e-38
2.28704572 -0.051097143 0.78900003 1.40810345e-38
2.28928003 -0.051226668 0.79100001 1.38055182e-38
2.29152194 -0.051356193 0.79300004 1.362148708e-38
2.29303241 -0.051356193 0.79300004 1.380479793e-38
2.29528573 -0.051485714 0.79500002 1.408101908e-38
2.29680002 -0.051485714 0.79500002 1.408245261e-38
2.29906476 -0.051615242 0.79700005 1.40824428e-38
2.30058289 -0.051615242 0.79700005 1.40824344e-38
2.30248001 -0.051680002 0.79800004 1.408210089e-38
2.30400002 -0.051680002 0.79800004 1.408212471e-38
2.30628571 -0.051809523 0.80000001 1.417358886e-38
2.30780953 -0.051809523 0.80000001 1.445016034e-38
2.31010669 -0.051939052 0.80200005 1.472458923e-38
2.31163427 -0.051939052 0.80200005 1.463167613e-38
2.31316191 -0.051939052 0.80200005 1.45416329e-38
2.3154743 -0.052068572 0.80400002 1.44497974e-38
2.31700572 -0.052068572 0.80400002 1.435761578e-38
2.31932953 -0.052198097 0.80600005 1.417359867e-38
2.32086477 -0.052198097 0.80600005 1.398956054e-38
2.32320002 -0.052327618 0.80800003 1.408138763e-38
2.3255429 -0.052457146 0.81000006 1.426541595e-38
2.32870096 -0.052716192 0.81400001 1.417393778e-38
2.33065718 -0.052780956 0.81500006 1.408173375e-38
2.33302477 -0.052910481 0.81700003 1.380586012e-38
2.33458099 -0.052910481 0.81700003 1.362110452e-38
2.33613715 -0.052910481 0.81700003 1.3069723e-38
2.33852002 -0.053040005 0.81900007 1.251514933e-38
2.34008002 -0.053040005 0.81900007 1.15017555e-38
2.34164003 -0.053040005 0.81900007 1.05005894e-38
2.1998 -0.048840001 0.77700001 1.003484544e-38
2.20128001 -0.048840001 0.77700001 9.666791595e-39
2.2017162 -0.048588578 0.77300006 9.199722001e-39
2.20292571 -0.048525713 0.77200001 8.647632827e-39
2.20386668 -0.048400003 0.77000004 8.095888372e-39
2.20533334 -0.048400003 0.77000004 8.187709856e-39
2.20626286 -0.048274286 0.76800001 8.372109523e-39
2.20691429 -0.048085716 0.76500005 8.371403269e-39
2.20782667 -0.047960002 0.76300001 8.369966938e-39
2.20790857 -0.047645714 0.75800002 8.645830757e-39
2.2088 -0.047520004 0.75600004 8.829859081e-39
2.20940572 -0.04733143 0.75300002 9.105364168e-39
2.21084 -0.04733143 0.75300002 9.289028154e-39
2.21199238 -0.047268573 0.75200003 8.831279997e-39
2.21285716 -0.04714286 0.75000006 8.464296745e-39
2.21428573 -0.04714286 0.75000006 9.01495099e-39
2.21513906 -0.047017142 0.74800003 9.565968171e-39
2.21656382 -0.047017142 0.74800003 9.841121532e-39
2.21798857 -0.047017142 0.74800003 1.020846352e-38
2.21912001 -0.046954285 0.74700004 1.039321071e-38
2.2199524 -0.046828575 0.74500006 1.057759216e-38
2.22137144 -0.046828575 0.74500006 1.030315626e-38
2.22279049 -0.046828575 0.74500006 1.01219992e-38
2.22420953 -0.046828575 0.74500006 1.048970412e-38
2.22502287 -0.046702858 0.74300003 1.094961308e-38
2.22704764 -0.046828575 0.74500006 1.094604117e-38
2.22785333 -0.046702858 0.74300003 1.094245244e-38
2.22834286 -0.046514284 0.74000001 1.112791569e-38
2.22944191 -0.046451431 0.73900002 1.140557738e-38
2.23084953 -0.046451431 0.73900002 1.159032737e-38
2.23225716 -0.046451431 0.73900002 1.177507456e-38
2.24726097 -0.049154289 0.78200006 1.177543329e-38
2.2481143 -0.049028575 0.78000003 1.177579343e-38
2.24960001 -0.049028575 0.78000003 1.214349695e-38
2.25108573 -0.049028575 0.78000003 1.241934816e-38
2.25257143 -0.049028575 0.78000003 1.214454652e-38
2.25405714 -0.049028575 0.78000003 1.196158879e-38
2.25554287 -0.049028575 0.78000003 1.205306135e-38
2.25702858 -0.049028575 0.78000003 1.214489684e-38
2.25851429 -0.049028575 0.78000003 1.17768374e-38
2.26066667 -0.049154289 0.78200006 1.131730398e-38
2.2614857 -0.049028575 0.78000003 1.113327706e-38
2.26297146 -0.049028575 0.78000003 1.104144717e-38
2.26343998 -0.048840001 0.77700001 1.122476644e-38
2.26560193 -0.048965715 0.77900004 1.140843883e-38
2.26742858 -0.049028575 0.78000003 1.178008841e-38
2.26856953 -0.048965715 0.77900004 1.214671433e-38
2.27040002 -0.049028575 0.78000003 1.251549405e-38
2.27188572 -0.049028575 0.78000003 1.28846381e-38
2.27477336 -0.049280003 0.78400004 1.306867763e-38
2.27626669 -0.049280003 0.78400004 1.325308991e-38
2.27846858 -0.049405713 0.78600001 1.3436426e-38
2.28067809 -0.04953143 0.78800005 1.352788734e-38
2.28253713 -0.049594287 0.78900003 1.371190166e-38
2.28476 -0.04972 0.79100001 1.389701739e-38
2.28626668 -0.04972 0.79100001 1.408069959e-38
2.28777334 -0.04972 0.79100001 1.435690813e-38
2.29001144 -0.049845714 0.79300004 1.408102889e-38
2.29225713 -0.049971428 0.79500002 1.38055168e-38
2.29377142 -0.049971428 0.79500002 1.408065895e-38
2.29528573 -0.049971428 0.79500002 1.435616404e-38
2.29680002 -0.049971428 0.79500002 1.417285178e-38
2.29906476 -0.050097149 0.79700005 1.40813582e-38
2.30058289 -0.050097149 0.79700005 1.398986462e-38
2.30248001 -0.050160002 0.79800004 1.399026119e-38
2.30400002 -0.050160002 0.79800004 1.38981062e-38
2.30628571 -0.050285712 0.80000001 1.380625248e-38
2.30780953 -0.050285712 0.80000001 1.435724724e-38
2.31010669 -0.050411429 0.80200005 1.500008731e-38
2.31163427 -0.050411429 0.80200005 1.481676664e-38
2.31316191 -0.050411429 0.80200005 1.463381732e-38
2.3154743 -0.050537147 0.80400002 1.454162729e-38
2.31779429 -0.05066286 0.80600005 1.435760597e-38
2.31932953 -0.05066286 0.80600005 1.426542156e-38
2.32086477 -0.05066286 0.80600005 1.417501819e-38
2.32320002 -0.050788574 0.80800003 1.435689411e-38
2.3255429 -0.050914288 0.81000006 1.453984764e-38
2.32870096 -0.051165711 0.81400001 1.435725285e-38
2.33065718 -0.051228575 0.81500006 1.417357064e-38
2.33302477 -0.051354285 0.81700003 1.398917238e-38
2.33458099 -0.051354285 0.81700003 1.380513705e-38
2.33613715 -0.051354285 0.81700003 1.334559663e-38
2.33852002 -0.051480003 0.81900007 1.288425134e-38
2.34008002 -0.051480003 0.81900007 1.214453111e-38
2.34330857 -0.05173143 0.82300001 1.140705295e-38
2.34487617 -0.05173143 0.82300001 1.224728132e-38
2.3464438 -0.05173143 0.82300001 1.308531385e-38
2.20128001 -0.047359999 0.77700001 1.003699083e-38
2.2022381 -0.047238097 0.77500004 9.664626589e-39
2.20318858 -0.047116194 0.77300006 9.105005436e-39
2.20439619 -0.047055237 0.77200001 8.646537012e-39
2.20533334 -0.046933334 0.77000004 8.37173958e-39
2.20680001 -0.046933334 0.77000004 8.188076996e-39
2.20772572 -0.046811428 0.76800001 8.280279632e-39
2.20891619 -0.046750478 0.76700002 8.46323316e-39
2.20928 -0.046506666 0.76300001 8.830217813e-39
2.20935239 -0.046201907 0.75800002 9.197922734e-39
2.20996192 -0.046019051 0.75500005 9.382674128e-39
2.21140002 -0.046019051 0.75500005 9.566335311e-39
2.21199238 -0.045836192 0.75200003 8.832000265e-39
2.21285716 -0.045714289 0.75000006 8.188790257e-39
2.21428573 -0.045714289 0.75000006 8.923471423e-39
2.21513906 -0.045592383 0.74800003 9.750353825e-39
2.21656382 -0.045592383 0.74800003 1.011841888e-38
2.21798857 -0.045592383 0.74800003 1.05779579e-38
2.21912001 -0.045531429 0.74700004 1.076199182e-38
2.2199524 -0.045409527 0.74500006 1.094673061e-38
2.22137144 -0.045409527 0.74500006 1.103963389e-38
2.22279049 -0.045409527 0.74500006 1.122546008e-38
2.22360763 -0.04528762 0.74300003 1.177755346e-38
2.22502287 -0.04528762 0.74300003 1.242041174e-38
2.22704764 -0.045409527 0.74500006 1.20534397e-38
2.22785333 -0.04528762 0.74300003 1.168789558e-38
2.22926858 -0.04528762 0.74300003 1.187336444e-38
2.24217144 -0.047542859 0.78000003 1.205416417e-38
2.24365716 -0.047542859 0.78000003 1.223532263e-38
2.24577145 -0.047664765 0.78200006 1.251155079e-38
2.24726097 -0.047664765 0.78200006 1.251263119e-38
2.2481143 -0.047542859 0.78000003 1.251264521e-38
2.24960001 -0.047542859 0.78000003 1.315550909e-38
2.25108573 -0.047542859 0.78000003 1.379869388e-38
2.25257143 -0.047542859 0.78000003 1.306470635e-38
2.25405714 -0.047542859 0.78000003 1.242185087e-38
2.25554287 -0.047542859 0.78000003 1.288138148e-38
2.25702858 -0.047542859 0.78000003 1.343131686e-38
2.25851429 -0.047542859 0.78000003 1.297142051e-38
2.26066667 -0.047664765 0.78200006 1.2603724e-38
2.26215622 -0.047664765 0.78200006 1.223638762e-38
2.26364574 -0.047664765 0.78200006 1.196088534e-38
2.26445717 -0.047542859 0.78000003 1.186905545e-38
2.26662478 -0.047664765 0.78200006 1.177901361e-38
2.2681143 -0.047664765 0.78200006 1.251549264e-38
2.26960382 -0.047664765 0.78200006 1.334273378e-38
2.27109334 -0.047664765 0.78200006 1.343529094e-38
2.27327999 -0.047786668 0.78400004 1.362039687e-38
2.27477336 -0.047786668 0.78400004 1.362147306e-38
2.27697143 -0.047908571 0.78600001 1.362041648e-38
2.27846858 -0.047908571 0.78600001 1.362007597e-38
2.28067809 -0.048030477 0.78800005 1.362006756e-38
2.28253713 -0.04809143 0.78900003 1.380408888e-38
2.28476 -0.048213333 0.79100001 1.407996251e-38
2.28626668 -0.048213333 0.79100001 1.435619627e-38
2.28850096 -0.048335239 0.79300004 1.463097548e-38
2.29001144 -0.048335239 0.79300004 1.435510045e-38
2.29225713 -0.048457142 0.79500002 1.408102609e-38
2.29377142 -0.048457142 0.79500002 1.435617104e-38
2.29528573 -0.048457142 0.79500002 1.46313202e-38
2.29754668 -0.048579048 0.79700005 1.435581512e-38
2.29906476 -0.048579048 0.79700005 1.408029742e-38
2.30096003 -0.048640002 0.79800004 1.398881084e-38
2.30248001 -0.048640002 0.79800004 1.398990806e-38
2.30400002 -0.048640002 0.79800004 1.371442259e-38
2.30628571 -0.048761904 0.80000001 1.343890349e-38
2.30780953 -0.048761904 0.80000001 1.435796471e-38
2.31010669 -0.048883811 0.80200005 1.527595393e-38
2.31163427 -0.048883811 0.80200005 1.500044043e-38
2.31316191 -0.048883811 0.80200005 1.481712817e-38
2.3154743 -0.049005713 0.80400002 1.463345858e-38
2.31779429 -0.049127623 0.80600005 1.444942606e-38
2.31932953 -0.049127623 0.80600005 1.444942466e-38
2.32086477 -0.049127623 0.80600005 1.445050646e-38
2.32320002 -0.049249526 0.80800003 1.463274953e-38
2.3255429 -0.049371433 0.81000006 1.490790989e-38
2.32870096 -0.049615238 0.81400001 1.463241602e-38
2.33065718 -0.049676195 0.81500006 1.435725004e-38
2.33302477 -0.049798097 0.81700003 1.417248604e-38
2.33458099 -0.049798097 0.81700003 1.408064494e-38
2.33613715 -0.049798097 0.81700003 1.362182199e-38
2.33852002 -0.049920004 0.81900007 1.325159613e-38
2.34008002 -0.049920004 0.81900007 1.278738238e-38
2.34247431 -0.050041907 0.82100004 1.24218761e-38
2.34487617 -0.050163809 0.82300001 1.24237118e-38
2.3464438 -0.050163809 0.82300001 1.252420872e-38
2.2022381 -0.045761906 0.77500004 1.012953258e-38
2.2037143 -0.045761906 0.77500004 9.757171142e-39
2.20439619 -0.045584764 0.77200001 9.385161432e-39
2.20586666 -0.045584764 0.77200001 9.015305518e-39
2.20680001 -0.045466669 0.77000004 8.740163367e-39
2.20826668 -0.045466669 0.77000004 8.739092775e-39
2.20918857 -0.045348573 0.76800001 8.739095578e-39
2.21065143 -0.045348573 0.76800001 9.014604869e-39
2.21211429 -0.045348573 0.76800001 9.382315395e-39
2.20940572 -0.044462856 0.75300002 9.750027323e-39
2.21084 -0.044462856 0.75300002 1.011807276e-38
2.21227428 -0.044462856 0.75300002 9.474851541e-39
2.21370858 -0.044462856 0.75300002 8.831997462e-39
2.21428573 -0.044285718 0.75000006 9.291170739e-39
2.21571429 -0.044285718 0.75000006 9.752863551e-39
2.22553906 -0.0459981 0.77900004 1.011985101e-38
2.22702286 -0.0459981 0.77900004 1.048684127e-38
2.22850667 -0.0459981 0.77900004 1.076271349e-38
2.23028572 -0.046057142 0.78000003 1.104143876e-38
2.23177144 -0.046057142 0.78000003 1.122581741e-38
2.23325716 -0.046057142 0.78000003 1.14105674e-38
2.23474286 -0.046057142 0.78000003 1.187118262e-38
2.23622857 -0.046057142 0.78000003 1.233395443e-38
2.23771429 -0.046057142 0.78000003 1.214885551e-38
2.23981334 -0.046175241 0.78200006 1.196411673e-38
2.24068573 -0.046057142 0.78000003 1.21474388e-38
2.24217144 -0.046057142 0.78000003 1.242258095e-38
2.24365716 -0.046057142 0.78000003 1.251477098e-38
2.24577145 -0.046175241 0.78200006 1.260697221e-38
2.24726097 -0.046175241 0.78200006 1.260482822e-38
2.2481143 -0.046057142 0.78000003 1.260485485e-38
2.24960001 -0.046057142 0.78000003 1.297258359e-38
2.25108573 -0.046057142 0.78000003 1.343244771e-38
2.25257143 -0.046057142 0.78000003 1.288176404e-38
2.25405714 -0.046057142 0.78000003 1.233110138e-38
2.25554287 -0.046057142 0.78000003 1.25140465e-38
2.25702858 -0.046057142 0.78000003 1.278919146e-38
2.25851429 -0.046057142 0.78000003 1.269735316e-38
2.26066667 -0.046175241 0.78200006 1.251368917e-38
2.26215622 -0.046175241 0.78200006 1.251441364e-38
2.26432002 -0.046293333 0.78400004 1.242365715e-38
2.26513526 -0.046175241 0.78200006 1.288499123e-38
2.26730669 -0.046293333 0.78400004 1.334667984e-38
2.26880002 -0.046293333 0.78400004 1.34370804e-38
2.27029335 -0.046293333 0.78400004 1.36196808e-38
2.27178666 -0.046293333 0.78400004 1.362076401e-38
2.27327999 -0.046293333 0.78400004 1.371366589e-38
2.27547431 -0.046411429 0.78600001 1.343743353e-38
2.27697143 -0.046411429 0.78600001 1.325341782e-38
2.27917716 -0.046529528 0.78800005 1.33438324e-38
2.28103429 -0.046588574 0.78900003 1.352714185e-38
2.28325334 -0.046706665 0.79100001 1.38044406e-38
2.28548002 -0.046824764 0.79300004 1.407923663e-38
2.28699049 -0.046824764 0.79300004 1.4171798e-38
2.28850096 -0.046824764 0.79300004 1.426326916e-38
2.29001144 -0.046824764 0.79300004 1.40799527e-38
2.29225713 -0.046942856 0.79500002 1.38973579e-38
2.29377142 -0.046942856 0.79500002 1.408067156e-38
2.29528573 -0.046942856 0.79500002 1.426398663e-38
2.29754668 -0.047060952 0.79700005 1.408067717e-38
2.29906476 -0.047060952 0.79700005 1.39902724e-38
2.30096003 -0.047120001 0.79800004 1.398991086e-38
2.30248001 -0.047120001 0.79800004 1.398991367e-38
2.30400002 -0.047120001 0.79800004 1.389808097e-38
2.30628571 -0.047238097 0.80000001 1.38065986e-38
2.30780953 -0.047238097 0.80000001 1.435760597e-38
2.31010669 -0.047356192 0.80200005 1.490861335e-38
2.31163427 -0.047356192 0.80200005 1.481677224e-38
2.31394288 -0.047474284 0.80400002 1.472529268e-38
2.3154743 -0.047474284 0.80400002 1.454161888e-38
2.31779429 -0.047592383 0.80600005 1.445012951e-38
2.31932953 -0.047592383 0.80600005 1.44501169e-38
2.32086477 -0.047592383 0.80600005 1.445048964e-38
2.32320002 -0.047710475 0.80800003 1.444906873e-38
2.3255429 -0.047828577 0.81000006 1.444909395e-38
2.32870096 -0.048064765 0.81400001 1.435728508e-38
2.33065718 -0.04812381 0.81500006 1.426578309e-38
2.33302477 -0.048241906 0.81700003 1.417248744e-38
2.33458099 -0.048241906 0.81700003 1.408064634e-38
2.33613715 -0.048241906 0.81700003 1.371222395e-38
2.33769333 -0.048241906 0.81700003 1.343562726e-38
2.34008002 -0.048360001 0.81900007 1.3066479e-38
2.34247431 -0.0484781 0.82100004 1.269735036e-38
2.3440381 -0.0484781 0.82100004 1.2605882e-38
2.3464438 -0.048596192 0.82300001 1.241187783e-38
2.34801143 -0.048596192 0.82300001 1.252315494e-38
2.2022381 -0.044285718 0.77500004 1.068054836e-38
2.2037143 -0.044285718 0.77500004 1.04032454e-38
2.20439619 -0.044114284 0.77200001 1.012271386e-38
2.20586666 -0.044114284 0.77200001 9.750706952e-39
2.20680001 -0.044 0.77000004 9.383013242e-39
2.20826668 -0.044 0.77000004 9.197914326e-39
2.20973335 -0.044 0.77000004 9.014603468e-39
2.21065143 -0.043885715 0.76800001 9.290468689e-39
2.21211429 -0.043885715 0.76800001 9.565980782e-39
2.20940572 -0.043028571 0.75300002 1.01173581e-38
2.21812001 -0.044514287 0.77900004 1.066800533e-38
2.21904001 -0.044399999 0.77700001 1.002479252e-38
2.22052 -0.044399999 0.77700001 9.474859948e-39
2.22257143 -0.044514287 0.77900004 9.659252609e-39
2.22405525 -0.044514287 0.77900004 9.844354327e-39
2.22553906 -0.044514287 0.77900004 1.012129154e-38
2.22702286 -0.044514287 0.77900004 1.04882776e-38
2.22850667 -0.044514287 0.77900004 1.076378829e-38
2.2299905 -0.044514287 0.77900004 1.11325596e-38
2.23177144 -0.044571429 0.78000003 1.131873611e-38
2.23295811 -0.044514287 0.77900004 1.159460834e-38
2.23444192 -0.044514287 0.77900004 1.196482719e-38
2.23592572 -0.044514287 0.77900004 1.233217198e-38
2.23740953 -0.044514287 0.77900004 1.233253491e-38
2.2392 -0.044571429 0.78000003 1.233218038e-38
2.24068573 -0.044571429 0.78000003 1.251442205e-38
2.24217144 -0.044571429 0.78000003 1.27906404e-38
2.24365716 -0.044571429 0.78000003 1.279171099e-38
2.24514288 -0.044571429 0.78000003 1.279099073e-38
2.24726097 -0.044685718 0.78200006 1.269736017e-38
2.2481143 -0.044571429 0.78000003 1.269702526e-38
2.24960001 -0.044571429 0.78000003 1.288143753e-38
2.25108573 -0.044571429 0.78000003 1.306545044e-38
2.25257143 -0.044571429 0.78000003 1.260697361e-38
2.25405714 -0.044571429 0.78000003 1.223891136e-38
2.25554287 -0.044571429 0.78000003 1.223854842e-38
2.25702858 -0.044571429 0.78000003 1.223854842e-38
2.25917715 -0.044685718 0.78200006 1.233038392e-38
2.26066667 -0.044685718 0.78200006 1.251298292e-38
2.26215622 -0.044685718 0.78200006 1.269916924e-38
2.26432002 -0.044800002 0.78400004 1.297575053e-38
2.26581332 -0.044800002 0.78400004 1.389984521e-38
2.26730669 -0.044800002 0.78400004 1.490753014e-38
2.26948571 -0.044914287 0.78600001 1.43558039e-38
2.27098286 -0.044914287 0.78600001 1.389699637e-38
2.27248001 -0.044914287 0.78600001 1.389736491e-38
2.27397713 -0.044914287 0.78600001 1.38962747e-38
2.27617523 -0.045028575 0.78800005 1.334417011e-38
2.27767622 -0.045028575 0.78800005 1.288500104e-38
2.27953145 -0.045085717 0.78900003 1.315979847e-38
2.28174669 -0.045199998 0.79100001 1.343637555e-38
