# .PCD v0.7 - Point Cloud Data file format
VERSION 0.7
FIELDS x y z rgb
SIZE 4 4 4 4
TYPE F F F F
COUNT 1 1 1 1
WIDTH 938
HEIGHT 1
VIEWPOINT 0 0 0 1 0 0 0
POINTS 938
DATA ascii
0.15893336 -0.011352382 2.74500006 9.751431424e-39
0.16035239 -0.011352382 2.74500006 9.109304619e-39
0.16177145 -0.011352382 2.74500006 9.386251643e-39
0.1631905 -0.011352382 2.74500006 9.752880366e-39
0.16460954 -0.011352382 2.74500006 1.030318148e-38
0.16602859 -0.011352382 2.74500006 1.094747189e-38
0.16744764 -0.011352382 2.74500006 1.1504233e-38
0.16886668 -0.011352382 2.74500006 1.214672414e-38
0.17028573 -0.011352382 2.74500006 1.297288767e-38
0.17170477 -0.011352382 2.74500006 1.380084347e-38
0.17358857 -0.011382857 2.74700004 1.407814362e-38
0.17501144 -0.011382857 2.74700004 1.444548841e-38
0.17643429 -0.011382857 2.74700004 1.453732811e-38
0.17785716 -0.011382857 2.74700004 1.472171937e-38
0.17928 -0.011382857 2.74700004 1.47231571e-38
0.18070287 -0.011382857 2.74700004 1.481535133e-38
0.18212572 -0.011382857 2.74700004 1.555075416e-38
0.18379429 -0.011398096 2.74800003 1.637692611e-38
0.18521905 -0.011398096 2.74800003 1.591775984e-38
0.18664382 -0.011398096 2.74800003 1.554932904e-38
0.18806857 -0.011398096 2.74800003 1.545784107e-38
0.19000001 -0.011428572 2.75000006 1.536529652e-38
0.19142859 -0.011428572 2.75000006 1.51812738e-38
0.19285716 -0.011428572 2.75000006 1.499795874e-38
0.19428572 -0.011428572 2.75000006 1.4998672e-38
0.19623619 -0.011459048 2.75200003 1.509050889e-38
0.19793142 -0.011474286 2.75300002 1.527454002e-38
0.19936571 -0.011474286 2.75300002 1.545893268e-38
0.2008 -0.011474286 2.75300002 1.555148985e-38
0.20277144 -0.011504763 2.75500005 1.564259106e-38
0.20366858 -0.011474286 2.75300002 1.582983116e-38
0.20592001 -0.01152 2.75600004 1.609886926e-38
0.20708573 -0.011504763 2.75500005 1.407238008e-38
0.2088 -0.01152 2.75600004 1.214528641e-38
0.21024001 -0.01152 2.75600004 1.315692861e-38
0.21168001 -0.01152 2.75600004 1.416927426e-38
0.21312001 -0.01152 2.75600004 1.472172637e-38
0.21456 -0.01152 2.75600004 1.527274075e-38
0.21600002 -0.01152 2.75600004 1.545784808e-38
0.21744001 -0.01152 2.75600004 1.573156651e-38
0.21945906 -0.011550477 2.75800002 1.600671847e-38
0.22090286 -0.011550477 2.75800002 1.637405345e-38
0.22234666 -0.011550477 2.75800002 1.619037405e-38
0.22379048 -0.011550477 2.75800002 1.600813518e-38
0.22582857 -0.011580953 2.76000005 1.582446279e-38
0.22727621 -0.011580953 2.76000005 1.56407974e-38
0.22872382 -0.011580953 2.76000005 1.536386299e-38
0.23017144 -0.011580953 2.76000005 1.51801948e-38
0.23192382 -0.011596191 2.76100004 1.508907957e-38
0.23306668 -0.011580953 2.76000005 1.499759159e-38
0.2345143 -0.011580953 2.76000005 1.490610502e-38
0.23596191 -0.011580953 2.76000005 1.49068365e-38
0.23740953 -0.011580953 2.76000005 1.472389699e-38
0.23885716 -0.011580953 2.76000005 1.463203346e-38
0.24030478 -0.011580953 2.76000005 1.408135119e-38
0.24175239 -0.011580953 2.76000005 1.362183039e-38
0.24256 -0.011550477 2.75800002 1.408066596e-38
0.24464762 -0.011580953 2.76000005 1.4631323e-38
0.24609526 -0.011580953 2.76000005 1.453949031e-38
0.24754287 -0.011580953 2.76000005 1.444802055e-38
0.24899048 -0.011580953 2.76000005 1.472389138e-38
0.25043812 -0.011580953 2.76000005 1.509196064e-38
0.25188571 -0.011580953 2.76000005 1.490937705e-38
0.25266668 -0.011550477 2.75800002 1.481753175e-38
0.25478098 -0.011580953 2.76000005 1.509302983e-38
0.25622857 -0.011580953 2.76000005 1.546072494e-38
0.25767621 -0.011580953 2.76000005 1.55532737e-38
0.25912383 -0.011580953 2.76000005 1.564439033e-38
0.26057142 -0.011580953 2.76000005 1.573586569e-38
0.26201907 -0.011580953 2.76000005 1.582806973e-38
0.26346669 -0.011580953 2.76000005 1.564656234e-38
0.26491427 -0.011580953 2.76000005 1.555364084e-38
0.26636192 -0.011580953 2.76000005 1.573694329e-38
0.26780954 -0.011580953 2.76000005 1.601352457e-38
0.26961145 -0.011596191 2.76100004 1.638158122e-38
0.27106097 -0.011596191 2.76100004 1.674820574e-38
0.2725105 -0.011596191 2.76100004 1.647234192e-38
0.27396002 -0.011596191 2.76100004 1.61964795e-38
0.27540955 -0.011596191 2.76100004 1.61067992e-38
0.27685907 -0.011596191 2.76100004 1.601351897e-38
0.27830857 -0.011596191 2.76100004 1.582947943e-38
0.2797581 -0.011596191 2.76100004 1.573621882e-38
0.28120762 -0.011596191 2.76100004 1.610464821e-38
0.2834 -0.011626666 2.76300001 1.65627537e-38
0.28485334 -0.011626666 2.76300001 1.628725141e-38
0.28705713 -0.011657143 2.76500005 1.610249441e-38
0.28926855 -0.01168762 2.76700002 1.573478529e-38
0.29110858 -0.011702857 2.76800001 1.545926479e-38
0.29409525 -0.011763809 2.77200001 1.50000747e-38
0.29594859 -0.011779048 2.77300006 1.463382993e-38
0.29742098 -0.011779048 2.77300006 1.49090001e-38
0.29966667 -0.011809524 2.77500004 1.52774295e-38
0.30192 -0.01184 2.77700001 1.527851831e-38
0.30418095 -0.011870476 2.77900004 1.527850569e-38
0.30566478 -0.011870476 2.77900004 1.5002988e-38
0.30754286 -0.011885715 2.78000003 1.472675704e-38
0.30982095 -0.011916191 2.78200006 1.481822679e-38
0.31210667 -0.011946667 2.78400004 1.491079237e-38
0.31439999 -0.011977143 2.78600001 1.481932821e-38
0.31589717 -0.011977143 2.78600001 1.481932261e-38
0.31820193 -0.012007619 2.78800005 1.463564741e-38
0.31970286 -0.012007619 2.78800005 1.454380631e-38
0.32161143 -0.012022858 2.78900003 1.463635507e-38
0.32311431 -0.012022858 2.78900003 1.481966873e-38
0.32461715 -0.012022858 2.78900003 1.47274773e-38
0.32694668 -0.012053333 2.79100001 1.463564881e-38
0.32845333 -0.012053333 2.79100001 1.472785145e-38
0.3307943 -0.01208381 2.79300004 1.491150983e-38
0.33314288 -0.012114285 2.79500002 1.463635086e-38
0.33549905 -0.012144762 2.79700005 1.435975837e-38
0.33701715 -0.012144762 2.79700005 1.4267197e-38
0.33896002 -0.01216 2.79800004 1.417500978e-38
0.34048003 -0.01216 2.79800004 1.362364648e-38
0.15893336 -0.0099333348 2.74500006 9.381216777e-39
0.16035239 -0.0099333348 2.74500006 8.557571375e-39
0.16177145 -0.0099333348 2.74500006 9.109306021e-39
0.1631905 -0.0099333348 2.74500006 9.752877564e-39
0.16460954 -0.0099333348 2.74500006 1.011986782e-38
0.16602859 -0.0099333348 2.74500006 1.057689992e-38
0.16744764 -0.0099333348 2.74500006 1.10382382e-38
0.16886668 -0.0099333348 2.74500006 1.149956667e-38
0.17028573 -0.0099333348 2.74500006 1.177650669e-38
0.17170477 -0.0099333348 2.74500006 1.205380824e-38
0.17312382 -0.0099333348 2.74500006 1.242222782e-38
0.17501144 -0.0099600004 2.74700004 1.279100754e-38
0.17643429 -0.0099600004 2.74700004 1.315978866e-38
0.17785716 -0.0099600004 2.74700004 1.362040527e-38
0.17928 -0.0099600004 2.74700004 1.408030582e-38
0.18070287 -0.0099600004 2.74700004 1.453732951e-38
0.18236953 -0.0099733332 2.74800003 1.490610642e-38
0.18379429 -0.0099733332 2.74800003 1.536672584e-38
0.18521905 -0.0099733332 2.74800003 1.527417989e-38
0.18664382 -0.0099733332 2.74800003 1.527345822e-38
0.18857144 -0.010000001 2.75000006 1.518197725e-38
0.19000001 -0.010000001 2.75000006 1.518233878e-38
0.19142859 -0.010000001 2.75000006 1.499831186e-38
0.19285716 -0.010000001 2.75000006 1.490647777e-38
0.19480382 -0.010026667 2.75200003 1.49068379e-38
0.19623619 -0.010026667 2.75200003 1.49068407e-38
0.19766857 -0.010026667 2.75200003 1.509087323e-38
0.19910097 -0.010026667 2.75200003 1.527525328e-38
0.2008 -0.01004 2.75300002 1.536708177e-38
0.2022343 -0.01004 2.75300002 1.536742789e-38
0.20420954 -0.010066668 2.75500005 1.573583346e-38
0.20564763 -0.010066668 2.75500005 1.619607032e-38
0.20708573 -0.010066668 2.75500005 1.481350021e-38
0.2088 -0.01008 2.75600004 1.352316637e-38
0.21024001 -0.01008 2.75600004 1.389089371e-38
0.21140002 -0.010066668 2.75500005 1.416819667e-38
0.2128381 -0.010066668 2.75500005 1.444478355e-38
0.21456 -0.01008 2.75600004 1.472172778e-38
0.21600002 -0.01008 2.75600004 1.508871383e-38
0.21744001 -0.01008 2.75600004 1.536421752e-38
0.21888 -0.01008 2.75600004 1.564008134e-38
0.22090286 -0.010106667 2.75800002 1.600777925e-38
0.22234666 -0.010106667 2.75800002 1.600813518e-38
0.22379048 -0.010106667 2.75800002 1.600850652e-38
0.22523428 -0.010106667 2.75800002 1.582449081e-38
0.2266781 -0.010106667 2.75800002 1.564081421e-38
0.22872382 -0.010133334 2.76000005 1.545606282e-38
0.23017144 -0.010133334 2.76000005 1.527131843e-38
0.23161906 -0.010133334 2.76000005 1.508836911e-38
0.23306668 -0.010133334 2.76000005 1.499758879e-38
0.2345143 -0.010133334 2.76000005 1.499864397e-38
0.23596191 -0.010133334 2.76000005 1.499937405e-38
0.23678477 -0.010106667 2.75800002 1.490719243e-38
0.23822857 -0.010106667 2.75800002 1.490826022e-38
0.23967238 -0.010106667 2.75800002 1.463238659e-38
0.2411162 -0.010106667 2.75800002 1.435688571e-38
0.24256 -0.010106667 2.75800002 1.453948611e-38
0.24400382 -0.010106667 2.75800002 1.472244384e-38
0.24544762 -0.010106667 2.75800002 1.472352424e-38
0.24689142 -0.010106667 2.75800002 1.472352985e-38
0.24833524 -0.010106667 2.75800002 1.51834304e-38
0.24977905 -0.010106667 2.75800002 1.555222132e-38
0.25122285 -0.010106667 2.75800002 1.527672885e-38
0.25266668 -0.010106667 2.75800002 1.509340257e-38
0.25478098 -0.010133334 2.76000005 1.527705955e-38
0.25622857 -0.010133334 2.76000005 1.546108648e-38
0.25767621 -0.010133334 2.76000005 1.555292057e-38
0.25912383 -0.010133334 2.76000005 1.573659156e-38
0.26057142 -0.010133334 2.76000005 1.573659296e-38
0.26201907 -0.010133334 2.76000005 1.573696291e-38
0.26346669 -0.010133334 2.76000005 1.555366186e-38
0.26491427 -0.010133334 2.76000005 1.546217248e-38
0.26636192 -0.010133334 2.76000005 1.564583226e-38
0.26780954 -0.010133334 2.76000005 1.592169468e-38
0.26925716 -0.010133334 2.76000005 1.61975571e-38
0.27106097 -0.010146667 2.76100004 1.656525361e-38
0.2725105 -0.010146667 2.76100004 1.638086235e-38
0.27396002 -0.010146667 2.76100004 1.61964767e-38
0.27540955 -0.010146667 2.76100004 1.610500274e-38
0.27685907 -0.010146667 2.76100004 1.601350916e-38
0.27830857 -0.010146667 2.76100004 1.592129812e-38
0.2797581 -0.010146667 2.76100004 1.582804731e-38
0.28120762 -0.010146667 2.76100004 1.610357482e-38
0.28265715 -0.010146667 2.76100004 1.637909392e-38
0.28485334 -0.010173334 2.76300001 1.61950768e-38
0.28705713 -0.010200001 2.76500005 1.601138899e-38
0.28926855 -0.010226667 2.76700002 1.564331273e-38
0.29110858 -0.01024 2.76800001 1.536742509e-38
0.29409525 -0.010293334 2.77200001 1.509225631e-38
0.29556569 -0.010293334 2.77200001 1.481749531e-38
0.29742098 -0.010306667 2.77300006 1.518486673e-38
0.29966667 -0.010333333 2.77500004 1.555257305e-38
0.30192 -0.01036 2.77700001 1.537034399e-38
0.30340001 -0.01036 2.77700001 1.527957629e-38
0.30566478 -0.010386666 2.77900004 1.500262646e-38
0.30754286 -0.0104 2.78000003 1.472710596e-38
0.30982095 -0.010426668 2.78200006 1.481892884e-38
0.3113105 -0.010426668 2.78200006 1.491077695e-38
0.31360003 -0.010453334 2.78400004 1.500262646e-38
0.31509334 -0.010453334 2.78400004 1.500262646e-38
0.31739429 -0.01048 2.78600001 1.48193142e-38
0.31970286 -0.010506667 2.78800005 1.463599774e-38
0.32120383 -0.010506667 2.78800005 1.463527607e-38
0.32270479 -0.010506667 2.78800005 1.47263997e-38
0.32461715 -0.01052 2.78900003 1.454381192e-38
0.32612002 -0.01052 2.78900003 1.436050806e-38
0.32845333 -0.010546667 2.79100001 1.454418746e-38
0.32996002 -0.010546667 2.79100001 1.463600755e-38
0.33314288 -0.0106 2.79500002 1.445232114e-38
0.33465716 -0.0106 2.79500002 1.436120031e-38
0.33701715 -0.010626667 2.79700005 1.445052327e-38
0.33896002 -0.010640001 2.79800004 1.45427175e-38
0.34048003 -0.010640001 2.79800004 1.399134579e-38
0.16035239 -0.008514286 2.74500006 8.097313493e-39
0.16177145 -0.008514286 2.74500006 8.928859416e-39
0.1631905 -0.008514286 2.74500006 9.753949557e-39
0.16505145 -0.0085371435 2.74700004 9.936549957e-39
0.16647428 -0.0085371435 2.74700004 1.021026699e-38
0.16789715 -0.0085371435 2.74700004 1.048542035e-38
0.16886668 -0.008514286 2.74500006 1.085490912e-38
0.17028573 -0.008514286 2.74500006 1.05779635e-38
0.17216572 -0.0085371435 2.74700004 1.039609318e-38
0.17358857 -0.0085371435 2.74700004 1.076559456e-38
0.17501144 -0.0085371435 2.74700004 1.122513778e-38
0.17643429 -0.0085371435 2.74700004 1.186835059e-38
0.17785716 -0.0085371435 2.74700004 1.251515073e-38
0.17928 -0.0085371435 2.74700004 1.334562185e-38
0.18070287 -0.0085371435 2.74700004 1.426075523e-38
0.18236953 -0.0085485708 2.74800003 1.425968464e-38
0.18379429 -0.0085485708 2.74800003 1.435294806e-38
0.18521905 -0.0085485708 2.74800003 1.46302426e-38
0.18664382 -0.0085485708 2.74800003 1.499793912e-38
0.18857144 -0.0085714292 2.75000006 1.499972998e-38
0.19000001 -0.0085714292 2.75000006 1.509120954e-38
0.19142859 -0.0085714292 2.75000006 1.490718262e-38
0.19285716 -0.0085714292 2.75000006 1.481535133e-38
0.19428572 -0.0085714292 2.75000006 1.481535693e-38
0.19623619 -0.0085942857 2.75200003 1.481535833e-38
0.19766857 -0.0085942857 2.75200003 1.499939086e-38
0.19910097 -0.0085942857 2.75200003 1.518341638e-38
0.20053335 -0.0085942857 2.75200003 1.518341358e-38
0.2022343 -0.0086057149 2.75300002 1.518340798e-38
0.20366858 -0.0086057149 2.75300002 1.573441675e-38
0.20564763 -0.0086285714 2.75500005 1.628613178e-38
0.20708573 -0.0086285714 2.75500005 1.564398675e-38
0.20852382 -0.0086285714 2.75500005 1.49968447e-38
0.20996192 -0.0086285714 2.75500005 1.462521054e-38
0.21140002 -0.0086285714 2.75500005 1.42550071e-38
0.2128381 -0.0086285714 2.75500005 1.425250439e-38
0.21456 -0.0086400006 2.75600004 1.426183143e-38
0.21571429 -0.0086285714 2.75500005 1.462809862e-38
0.21744001 -0.0086400006 2.75600004 1.508871663e-38
0.21888 -0.0086400006 2.75600004 1.536530632e-38
0.22032002 -0.0086400006 2.75600004 1.56418792e-38
0.22234666 -0.008662858 2.75800002 1.582661798e-38
0.22379048 -0.008662858 2.75800002 1.601029598e-38
0.22523428 -0.008662858 2.75800002 1.582698933e-38
0.2266781 -0.008662858 2.75800002 1.564116454e-38
0.22812191 -0.008662858 2.75800002 1.545641735e-38
0.22956572 -0.008662858 2.75800002 1.536386159e-38
0.23100951 -0.008662858 2.75800002 1.517947173e-38
0.23245333 -0.008662858 2.75800002 1.499830345e-38
0.23389715 -0.008662858 2.75800002 1.499937124e-38
0.23534095 -0.008662858 2.75800002 1.509121375e-38
0.23678477 -0.008662858 2.75800002 1.509086202e-38
0.23822857 -0.008662858 2.75800002 1.518340798e-38
0.23967238 -0.008662858 2.75800002 1.518340097e-38
0.24048001 -0.0086400006 2.75600004 1.518376531e-38
0.24192002 -0.0086400006 2.75600004 1.499830626e-38
0.24400382 -0.008662858 2.75800002 1.490683089e-38
0.24544762 -0.008662858 2.75800002 1.499938666e-38
0.24689142 -0.008662858 2.75800002 1.509158789e-38
0.24833524 -0.008662858 2.75800002 1.555148985e-38
0.24977905 -0.008662858 2.75800002 1.610286996e-38
0.25122285 -0.008662858 2.75800002 1.573661398e-38
0.25266668 -0.008662858 2.75800002 1.536961672e-38
0.25478098 -0.0086857146 2.76000005 1.546323327e-38
0.25622857 -0.0086857146 2.76000005 1.555363523e-38
0.25767621 -0.0086857146 2.76000005 1.564475607e-38
0.25912383 -0.0086857146 2.76000005 1.582842706e-38
0.26057142 -0.0086857146 2.76000005 1.57369503e-38
0.26201907 -0.0086857146 2.76000005 1.57369559e-38
0.26346669 -0.0086857146 2.76000005 1.555329192e-38
0.26491427 -0.0086857146 2.76000005 1.537068731e-38
0.26636192 -0.0086857146 2.76000005 1.564618539e-38
0.26780954 -0.0086857146 2.76000005 1.592169608e-38
0.26925716 -0.0086857146 2.76000005 1.610501395e-38
0.27106097 -0.0086971428 2.76100004 1.63812309e-38
0.2725105 -0.0086971428 2.76100004 1.628938979e-38
0.27396002 -0.0086971428 2.76100004 1.619648931e-38
0.27540955 -0.0086971428 2.76100004 1.610466503e-38
0.27685907 -0.0086971428 2.76100004 1.601281412e-38
0.27830857 -0.0086971428 2.76100004 1.601315743e-38
0.2797581 -0.0086971428 2.76100004 1.601173231e-38
0.28120762 -0.0086971428 2.76100004 1.610321889e-38
0.28265715 -0.0086971428 2.76100004 1.628689688e-38
0.28485334 -0.0087200003 2.76300001 1.61032343e-38
0.28705713 -0.0087428577 2.76500005 1.601174212e-38
0.28851432 -0.0087428577 2.76500005 1.564582105e-38
0.29110858 -0.0087771425 2.76800001 1.527775039e-38
0.29333335 -0.0088000009 2.77000004 1.518518762e-38
0.29556569 -0.0088228574 2.77200001 1.509265288e-38
0.29742098 -0.0088342866 2.77300006 1.546144801e-38
0.29889333 -0.0088342866 2.77300006 1.582808374e-38
0.30114287 -0.0088571431 2.77500004 1.555402199e-38
0.30340001 -0.0088800006 2.77700001 1.527814696e-38
0.30487999 -0.0088800006 2.77700001 1.500263207e-38
0.30714858 -0.008902858 2.77900004 1.481859393e-38
0.30902857 -0.0089142863 2.78000003 1.491185595e-38
0.3113105 -0.0089371437 2.78200006 1.500333692e-38
0.31280002 -0.0089371437 2.78200006 1.509481929e-38
0.31428954 -0.0089371437 2.78200006 1.527848888e-38
0.31658667 -0.0089600012 2.78400004 1.500333972e-38
0.31889144 -0.0089828568 2.78600001 1.481930719e-38
0.32120383 -0.0090057142 2.78800005 1.472603537e-38
0.32270479 -0.0090057142 2.78800005 1.463492294e-38
0.32461715 -0.0090171434 2.78900003 1.436014092e-38
0.32612002 -0.0090171434 2.78900003 1.417647133e-38
0.32762289 -0.0090171434 2.78900003 1.426866836e-38
0.32996002 -0.0090400008 2.79100001 1.445233235e-38
0.33230478 -0.0090628574 2.79300004 1.436048985e-38
0.33465716 -0.0090857139 2.79500002 1.436013111e-38
0.33617145 -0.0090857139 2.79500002 1.463384394e-38
0.33853528 -0.0091085723 2.79700005 1.490934763e-38
0.34005335 -0.0091085723 2.79700005 1.435976818e-38
0.34200001 -0.0091200005 2.79800004 1.389842709e-38
0.34524193 -0.0091657145 2.80200005 1.371223376e-38
0.34676954 -0.0091657145 2.80200005 1.362078643e-38
0.34829718 -0.0091657145 2.80200005 1.33456695e-38
0.34982476 -0.0091657145 2.80200005 1.306874069e-38
0.1631905 -0.0070952387 2.74500006 9.759324938e-39
0.16505145 -0.0071142861 2.74700004 9.939414211e-39
0.16647428 -0.0071142861 2.74700004 1.011950068e-38
0.16744764 -0.0070952387 2.74500006 1.021277391e-38
0.16886668 -0.0070952387 2.74500006 1.039822876e-38
0.17028573 -0.0070952387 2.74500006 1.030387373e-38
0.17170477 -0.0070952387 2.74500006 1.011662802e-38
0.17358857 -0.0071142861 2.74700004 1.030533528e-38
0.17501144 -0.0071142861 2.74700004 1.048901468e-38
0.17643429 -0.0071142861 2.74700004 1.076309605e-38
0.17785716 -0.0071142861 2.74700004 1.103753194e-38
0.17952 -0.0071238098 2.74800003 1.159249798e-38
0.18070287 -0.0071142861 2.74700004 1.214746963e-38
0.18236953 -0.0071238098 2.74800003 1.251267323e-38
0.18379429 -0.0071238098 2.74800003 1.287820054e-38
0.18521905 -0.0071238098 2.74800003 1.334130445e-38
0.18664382 -0.0071238098 2.74800003 1.389626069e-38
0.18857144 -0.0071428576 2.75000006 1.398701718e-38
0.18949333 -0.0071238098 2.74800003 1.416997351e-38
0.19142859 -0.0071428576 2.75000006 1.435436477e-38
0.19285716 -0.0071428576 2.75000006 1.453876164e-38
0.19428572 -0.0071428576 2.75000006 1.463096427e-38
0.19571429 -0.0071428576 2.75000006 1.472351863e-38
0.19766857 -0.0071619051 2.75200003 1.472387877e-38
0.19910097 -0.0071619051 2.75200003 1.481643173e-38
0.20053335 -0.0071619051 2.75200003 1.48160744e-38
0.2022343 -0.0071714288 2.75300002 1.49079127e-38
0.20366858 -0.0071714288 2.75300002 1.536709438e-38
0.20510286 -0.0071714288 2.75300002 1.591809335e-38
0.20653716 -0.0071714288 2.75300002 1.545961932e-38
0.20797144 -0.0071714288 2.75300002 1.509299199e-38
0.20996192 -0.0071904766 2.75500005 1.472062635e-38
0.21140002 -0.0071904766 2.75500005 1.443616417e-38
0.2128381 -0.0071904766 2.75500005 1.425501832e-38
0.21427621 -0.0071904766 2.75500005 1.416927847e-38
0.21571429 -0.0071904766 2.75500005 1.444514229e-38
0.21715239 -0.0071904766 2.75500005 1.472138025e-38
0.21888 -0.0072000003 2.75600004 1.499654342e-38
0.22032002 -0.0072000003 2.75600004 1.518486252e-38
0.22176 -0.0072000003 2.75600004 1.545999627e-38
0.22320001 -0.0072000003 2.75600004 1.573550135e-38
0.22464001 -0.0072000003 2.75600004 1.564330712e-38
0.22608002 -0.0072000003 2.75600004 1.5641875e-38
0.22812191 -0.0072190473 2.75800002 1.573299583e-38
0.22956572 -0.0072190473 2.75800002 1.582410686e-38
0.23100951 -0.0072190473 2.75800002 1.536563983e-38
0.23245333 -0.0072190473 2.75800002 1.499901952e-38
0.23328002 -0.0072000003 2.75600004 1.509121795e-38
0.23534095 -0.0072190473 2.75800002 1.518341218e-38
0.23678477 -0.0072190473 2.75800002 1.527524908e-38
0.23760001 -0.0072000003 2.75600004 1.536707897e-38
0.23904002 -0.0072000003 2.75600004 1.53674335e-38
0.24048001 -0.0072000003 2.75600004 1.536779643e-38
0.24192002 -0.0072000003 2.75600004 1.527596654e-38
0.24336001 -0.0072000003 2.75600004 1.518413105e-38
0.2448 -0.0072000003 2.75600004 1.518449118e-38
0.24624 -0.0072000003 2.75600004 1.509338156e-38
0.24833524 -0.0072190473 2.75800002 1.536853772e-38
0.24977905 -0.0072190473 2.75800002 1.573552377e-38
0.25122285 -0.0072190473 2.75800002 1.555293318e-38
0.25266668 -0.0072190473 2.75800002 1.537068451e-38
0.25478098 -0.0072380956 2.76000005 1.546250739e-38
0.25555429 -0.0072190473 2.75800002 1.564618539e-38
0.25767621 -0.0072380956 2.76000005 1.573766916e-38
0.25912383 -0.0072380956 2.76000005 1.582914452e-38
0.26057142 -0.0072380956 2.76000005 1.582950186e-38
0.26132953 -0.0072190473 2.75800002 1.592205622e-38
0.26346669 -0.0072380956 2.76000005 1.573838803e-38
0.26491427 -0.0072380956 2.76000005 1.564654553e-38
0.26636192 -0.0072380956 2.76000005 1.582985078e-38
0.26780954 -0.0072380956 2.76000005 1.601353438e-38
0.26961145 -0.0072476193 2.76100004 1.628869615e-38
0.27070478 -0.0072380956 2.76000005 1.665674579e-38
0.2725105 -0.0072476193 2.76100004 1.647234753e-38
0.27396002 -0.0072476193 2.76100004 1.628833742e-38
0.27540955 -0.0072476193 2.76100004 1.628799831e-38
0.27685907 -0.0072476193 2.76100004 1.637981979e-38
0.27830857 -0.0072476193 2.76100004 1.610394196e-38
0.2797581 -0.0072476193 2.76100004 1.592026956e-38
0.28120762 -0.0072476193 2.76100004 1.610322169e-38
0.28265715 -0.0072476193 2.76100004 1.628689548e-38
0.28485334 -0.0072666667 2.76300001 1.610358603e-38
0.28705713 -0.0072857146 2.76500005 1.601245538e-38
0.28926855 -0.007304762 2.76700002 1.564474205e-38
0.29110858 -0.0073142857 2.76800001 1.536923557e-38
0.29333335 -0.0073333336 2.77000004 1.518484851e-38
0.29556569 -0.007352381 2.77200001 1.500082719e-38
0.29742098 -0.0073619052 2.77300006 1.518486533e-38
0.29889333 -0.0073619052 2.77300006 1.546074456e-38
0.30114287 -0.0073809526 2.77500004 1.527816518e-38
0.30340001 -0.0074 2.77700001 1.518631847e-38
0.30566478 -0.0074190479 2.77900004 1.481860795e-38
0.30714858 -0.0074190479 2.77900004 1.454273852e-38
0.30902857 -0.0074285716 2.78000003 1.463564741e-38
0.3105143 -0.0074285716 2.78000003 1.482003307e-38
0.31200001 -0.0074285716 2.78000003 1.491150703e-38
0.31428954 -0.0074476195 2.78200006 1.500333832e-38
0.31577906 -0.0074476195 2.78200006 1.481966453e-38
0.31726858 -0.0074476195 2.78200006 1.47274703e-38
0.31957334 -0.0074666669 2.78400004 1.46356348e-38
0.32106668 -0.0074666669 2.78400004 1.454416364e-38
0.32420573 -0.0075047626 2.78800005 1.408571063e-38
0.32570669 -0.0075047626 2.78800005 1.362760514e-38
0.32762289 -0.0075142859 2.78900003 1.426865575e-38
0.3291257 -0.0075142859 2.78900003 1.481895267e-38
0.33146667 -0.0075333333 2.79100001 1.463492574e-38
0.33381525 -0.0075523811 2.79300004 1.445125615e-38
0.33617145 -0.0075714285 2.79500002 1.454201685e-38
0.33853528 -0.0075904764 2.79700005 1.463348941e-38
0.34048003 -0.0076000006 2.79800004 1.435797872e-38
0.3437143 -0.0076380954 2.80200005 1.408246803e-38
0.34524193 -0.0076380954 2.80200005 1.38984355e-38
0.34676954 -0.0076380954 2.80200005 1.380623987e-38
0.34829718 -0.0076380954 2.80200005 1.353001452e-38
0.34982476 -0.0076380954 2.80200005 1.334490439e-38
0.35135239 -0.0076380954 2.80200005 1.297827567e-38
0.35376 -0.0076571428 2.80400002 1.261171e-38
0.35529143 -0.0076571428 2.80400002 1.289409126e-38
0.16505145 -0.0056914287 2.74700004 9.945508458e-39
0.16647428 -0.0056914287 2.74700004 1.003662789e-38
0.16789715 -0.0056914287 2.74700004 1.003591183e-38
0.16932 -0.0056914287 2.74700004 1.003303636e-38
0.17028573 -0.0056761908 2.74500006 9.938325402e-39
0.17216572 -0.0056914287 2.74700004 9.937620549e-39
0.17358857 -0.0056914287 2.74700004 9.845438932e-39
0.17524572 -0.0056990478 2.74800003 9.752888774e-39
0.17643429 -0.0056914287 2.74700004 9.660338616e-39
0.17785716 -0.0056914287 2.74700004 9.568507323e-39
0.17952 -0.0056990478 2.74800003 9.750390259e-39
0.18094477 -0.0056990478 2.74800003 1.002841908e-38
0.18236953 -0.0056990478 2.74800003 1.067378849e-38
0.18379429 -0.0056990478 2.74800003 1.140738786e-38
0.18521905 -0.0056990478 2.74800003 1.204950906e-38
0.18664382 -0.0056990478 2.74800003 1.278526782e-38
0.18806857 -0.0056990478 2.74800003 1.306184771e-38
0.18949333 -0.0056990478 2.74800003 1.333771433e-38
0.1909181 -0.0056990478 2.74800003 1.379725054e-38
0.19285716 -0.0057142861 2.75000006 1.426073842e-38
0.19428572 -0.0057142861 2.75000006 1.444656741e-38
0.19571429 -0.0057142861 2.75000006 1.472279697e-38
0.19714287 -0.0057142861 2.75000006 1.454020778e-38
0.19910097 -0.005729524 2.75200003 1.444801355e-38
0.20053335 -0.005729524 2.75200003 1.453984904e-38
0.20196572 -0.005729524 2.75200003 1.472388017e-38
0.20366858 -0.0057371431 2.75300002 1.509158369e-38
0.20510286 -0.0057371431 2.75300002 1.555075276e-38
0.20653716 -0.0057371431 2.75300002 1.536743209e-38
0.20797144 -0.0057371431 2.75300002 1.527523086e-38
0.20996192 -0.0057523814 2.75500005 1.490788327e-38
0.21140002 -0.0057523814 2.75500005 1.462843773e-38
0.2128381 -0.0057523814 2.75500005 1.434935093e-38
0.21427621 -0.0057523814 2.75500005 1.416925885e-38
0.21571429 -0.0057523814 2.75500005 1.426216213e-38
0.21715239 -0.0057523814 2.75500005 1.444513668e-38
0.21888 -0.0057600001 2.75600004 1.462811263e-38
0.22032002 -0.0057600001 2.75600004 1.481464788e-38
0.22176 -0.0057600001 2.75600004 1.518521285e-38
0.22320001 -0.0057600001 2.75600004 1.555183597e-38
0.22464001 -0.0057600001 2.75600004 1.555147723e-38
0.22608002 -0.0057600001 2.75600004 1.564223653e-38
0.22752 -0.0057600001 2.75600004 1.591846049e-38
0.22896002 -0.0057600001 2.75600004 1.628435073e-38
0.23040001 -0.0057600001 2.75600004 1.564148544e-38
0.23184 -0.0057600001 2.75600004 1.509085081e-38
0.23328002 -0.0057600001 2.75600004 1.518342339e-38
0.23472001 -0.0057600001 2.75600004 1.536673004e-38
0.23616001 -0.0057600001 2.75600004 1.545963753e-38
0.23760001 -0.0057600001 2.75600004 1.564258826e-38
0.23904002 -0.0057600001 2.75600004 1.564366165e-38
0.24048001 -0.0057600001 2.75600004 1.564330432e-38
0.24192002 -0.0057600001 2.75600004 1.555326389e-38
0.24336001 -0.0057600001 2.75600004 1.555290656e-38
0.2448 -0.0057600001 2.75600004 1.536923837e-38
0.24624 -0.0057600001 2.75600004 1.518521705e-38
0.24768002 -0.0057600001 2.75600004 1.527706236e-38
0.24912001 -0.0057600001 2.75600004 1.536926359e-38
0.25056002 -0.0057600001 2.75600004 1.536962933e-38
0.252 -0.0057600001 2.75600004 1.546252701e-38
0.25411049 -0.0057752384 2.75800002 1.555614216e-38
0.25555429 -0.0057752384 2.75800002 1.573802509e-38
0.25699809 -0.0057752384 2.75800002 1.583022493e-38
0.25844193 -0.0057752384 2.75800002 1.592205482e-38
0.25988573 -0.0057752384 2.75800002 1.601424484e-38
0.26132953 -0.0057752384 2.75800002 1.610500414e-38
0.26346669 -0.0057904767 2.76000005 1.601281131e-38
0.26491427 -0.0057904767 2.76000005 1.592096881e-38
0.26636192 -0.0057904767 2.76000005 1.601315743e-38
0.26780954 -0.0057904767 2.76000005 1.610500134e-38
0.26925716 -0.0057904767 2.76000005 1.647235313e-38
0.27070478 -0.0057904767 2.76000005 1.693080894e-38
0.2725105 -0.0057980954 2.76100004 1.665458219e-38
0.27396002 -0.0057980954 2.76100004 1.637908691e-38
0.27540955 -0.0057980954 2.76100004 1.656277051e-38
0.27685907 -0.0057980954 2.76100004 1.67464331e-38
0.27830857 -0.0057980954 2.76100004 1.628688848e-38
0.2797581 -0.0057980954 2.76100004 1.582770819e-38
0.28120762 -0.0057980954 2.76100004 1.601137778e-38
0.28265715 -0.0057980954 2.76100004 1.628688427e-38
0.28485334 -0.0058133332 2.76300001 1.610500694e-38
0.28705713 -0.0058285715 2.76500005 1.601173231e-38
0.28851432 -0.0058285715 2.76500005 1.573478809e-38
0.29110858 -0.0058514285 2.76800001 1.54592802e-38
0.29257143 -0.0058514285 2.76800001 1.518377371e-38
0.29556569 -0.0058819046 2.77200001 1.490827283e-38
0.2970362 -0.0058819046 2.77200001 1.500047266e-38
0.29889333 -0.0058895242 2.77300006 1.518486953e-38
0.30036575 -0.0058895242 2.77300006 1.509411864e-38
0.30261904 -0.0059047621 2.77500004 1.509411023e-38
0.30487999 -0.0059199999 2.77700001 1.463492574e-38
0.30636001 -0.0059199999 2.77700001 1.426758516e-38
0.3086324 -0.0059352382 2.77900004 1.445125755e-38
0.3105143 -0.0059428574 2.78000003 1.47285577e-38
0.31200001 -0.0059428574 2.78000003 1.472784024e-38
0.31428954 -0.0059580957 2.78200006 1.481967714e-38
0.31577906 -0.0059580957 2.78200006 1.472784444e-38
0.31726858 -0.0059580957 2.78200006 1.463599353e-38
0.3187581 -0.0059580957 2.78200006 1.454450135e-38
0.32106668 -0.0059733335 2.78400004 1.445304421e-38
0.32420573 -0.0060038096 2.78800005 1.381093422e-38
0.32570669 -0.0060038096 2.78800005 1.316735567e-38
0.32720762 -0.0060038096 2.78800005 1.417717478e-38
0.32870859 -0.0060038096 2.78800005 1.52777616e-38
0.33062857 -0.0060114288 2.78900003 1.490969795e-38
0.33381525 -0.0060419049 2.79300004 1.463419987e-38
0.33617145 -0.0060571427 2.79500002 1.454237418e-38
0.33853528 -0.006072381 2.79700005 1.445017855e-38
0.34048003 -0.0060800002 2.79800004 1.435834166e-38
0.34285715 -0.006095238 2.80000001 1.426650476e-38
0.34438094 -0.006095238 2.80000001 1.408283237e-38
0.34676954 -0.0061104763 2.80200005 1.399063533e-38
0.34829718 -0.0061104763 2.80200005 1.380660421e-38
0.34982476 -0.0061104763 2.80200005 1.362256888e-38
0.35135239 -0.0061104763 2.80200005 1.325486396e-38
0.35376 -0.0061257142 2.80400002 1.29783135e-38
0.35529143 -0.0061257142 2.80400002 1.21511088e-38
0.35682285 -0.0061257142 2.80400002 1.13317822e-38
0.16647428 -0.0042685717 2.74700004 1.040468174e-38
0.16789715 -0.0042685717 2.74700004 1.031177004e-38
0.16932 -0.0042685717 2.74700004 1.021921568e-38
0.17028573 -0.004257143 2.74500006 1.012630258e-38
0.17216572 -0.0042685717 2.74700004 1.003376083e-38
0.17358857 -0.0042685717 2.74700004 9.75719076e-39
0.17524572 -0.0042742854 2.74800003 9.388768375e-39
0.17667049 -0.0042742854 2.74800003 9.570641501e-39
0.17809524 -0.0042742854 2.74800003 9.661046271e-39
0.17952 -0.0042742854 2.74800003 9.843286538e-39
0.18094477 -0.0042742854 2.74800003 9.930106787e-39
0.18236953 -0.0042742854 2.74800003 1.002374435e-38
0.18379429 -0.0042742854 2.74800003 1.002553942e-38
0.18521905 -0.0042742854 2.74800003 1.057619646e-38
0.18664382 -0.0042742854 2.74800003 1.103501381e-38
0.18806857 -0.0042742854 2.74800003 1.140558299e-38
0.18949333 -0.0042742854 2.74800003 1.178117441e-38
0.1909181 -0.0042742854 2.74800003 1.23300336e-38
0.19285716 -0.0042857146 2.75000006 1.297288347e-38
0.19428572 -0.0042857146 2.75000006 1.334381558e-38
0.19571429 -0.0042857146 2.75000006 1.371116737e-38
0.19714287 -0.0042857146 2.75000006 1.371081845e-38
0.19910097 -0.0042971428 2.75200003 1.380265395e-38
0.20053335 -0.0042971428 2.75200003 1.407923663e-38
0.20196572 -0.0042971428 2.75200003 1.435510185e-38
0.20339811 -0.0042971428 2.75200003 1.463060834e-38
0.20510286 -0.0043028574 2.75300002 1.481463526e-38
0.20653716 -0.0043028574 2.75300002 1.481678486e-38
0.20797144 -0.0043028574 2.75300002 1.481964491e-38
0.20940572 -0.0043028574 2.75300002 1.463130058e-38
0.21140002 -0.0043142857 2.75500005 1.44454772e-38
0.2128381 -0.0043142857 2.75500005 1.416961338e-38
0.21427621 -0.0043142857 2.75500005 1.380189725e-38
0.21571429 -0.0043142857 2.75500005 1.398483536e-38
0.21715239 -0.0043142857 2.75500005 1.416781691e-38
0.2185905 -0.0043142857 2.75500005 1.435187607e-38
0.22002858 -0.0043142857 2.75500005 1.444335703e-38
0.22146669 -0.0043142857 2.75500005 1.472066139e-38
0.22290477 -0.0043142857 2.75500005 1.508979563e-38
0.22434287 -0.0043142857 2.75500005 1.518198846e-38
0.22578098 -0.0043142857 2.75500005 1.536601538e-38
0.22752 -0.0043200003 2.75600004 1.545784808e-38
0.22865716 -0.0043142857 2.75500005 1.564185118e-38
0.23040001 -0.0043200003 2.75600004 1.527448257e-38
0.23184 -0.0043200003 2.75600004 1.499901111e-38
0.23297143 -0.0043142857 2.75500005 1.518271854e-38
0.23472001 -0.0043200003 2.75600004 1.527490155e-38
0.23616001 -0.0043200003 2.75600004 1.536672584e-38
0.23760001 -0.0043200003 2.75600004 1.555075557e-38
0.23872383 -0.0043142857 2.75500005 1.555183176e-38
0.24016191 -0.0043142857 2.75500005 1.564366446e-38
0.24192002 -0.0043200003 2.75600004 1.582769278e-38
0.24336001 -0.0043200003 2.75600004 1.592024854e-38
0.2448 -0.0043200003 2.75600004 1.564438612e-38
0.24624 -0.0043200003 2.75600004 1.527669522e-38
0.24768002 -0.0043200003 2.75600004 1.527706376e-38
0.24912001 -0.0043200003 2.75600004 1.527779243e-38
0.25056002 -0.0043200003 2.75600004 1.527780364e-38
0.252 -0.0043200003 2.75600004 1.537105866e-38
0.25411049 -0.004331429 2.75800002 1.546287874e-38
0.25555429 -0.004331429 2.75800002 1.555471704e-38
0.25699809 -0.004331429 2.75800002 1.573767477e-38
0.25844193 -0.004331429 2.75800002 1.582770819e-38
0.25988573 -0.004331429 2.75800002 1.601173091e-38
0.26132953 -0.004331429 2.75800002 1.619611797e-38
0.26277333 -0.004331429 2.75800002 1.601280431e-38
0.26421714 -0.004331429 2.75800002 1.582733405e-38
0.26566094 -0.004331429 2.75800002 1.582732844e-38
0.26780954 -0.0043428573 2.76000005 1.591952687e-38
0.26925716 -0.0043428573 2.76000005 1.61035622e-38
0.27070478 -0.0043428573 2.76000005 1.637943023e-38
0.2725105 -0.0043485714 2.76100004 1.628759753e-38
0.27360001 -0.0043428573 2.76000005 1.610393075e-38
0.27504763 -0.0043428573 2.76000005 1.619577185e-38
0.27685907 -0.0043485714 2.76100004 1.637943864e-38
0.27830857 -0.0043485714 2.76100004 1.619504597e-38
0.2797581 -0.0043485714 2.76100004 1.601173091e-38
0.28120762 -0.0043485714 2.76100004 1.628651713e-38
0.28265715 -0.0043485714 2.76100004 1.656058589e-38
0.28485334 -0.0043600001 2.76300001 1.628471787e-38
0.28630668 -0.0043600001 2.76300001 1.600921698e-38
0.28776002 -0.0043600001 2.76300001 1.573335737e-38
0.29110858 -0.0043885713 2.76800001 1.545677188e-38
0.29257143 -0.0043885713 2.76800001 1.509050469e-38
0.29556569 -0.0044114287 2.77200001 1.472388297e-38
0.29742098 -0.0044171433 2.77300006 1.481679887e-38
0.29889333 -0.0044171433 2.77300006 1.500083e-38
0.30114287 -0.0044285716 2.77500004 1.500226773e-38
0.30261904 -0.0044285716 2.77500004 1.509409762e-38
0.30409524 -0.0044285716 2.77500004 1.500225652e-38
0.30636001 -0.0044400003 2.77700001 1.500369705e-38
0.3086324 -0.004451429 2.77900004 1.500406279e-38
0.3101162 -0.004451429 2.77900004 1.491258883e-38
0.31200001 -0.0044571431 2.78000003 1.482075614e-38
0.31348571 -0.0044571431 2.78000003 1.482076454e-38
0.31497142 -0.0044571431 2.78000003 1.472821999e-38
0.31726858 -0.0044685719 2.78200006 1.472782903e-38
0.3187581 -0.0044685719 2.78200006 1.46359627e-38
0.32024765 -0.0044685719 2.78200006 1.454559577e-38
0.32338285 -0.0044914284 2.78600001 1.426976558e-38
0.32488 -0.0044914284 2.78600001 1.390132638e-38
0.32720762 -0.0045028571 2.78800005 1.454415523e-38
0.32870859 -0.0045028571 2.78800005 1.50940808e-38
0.33062857 -0.0045085717 2.78900003 1.49103986e-38
0.33213145 -0.0045085717 2.78900003 1.472746189e-38
0.33448002 -0.0045200004 2.79100001 1.463456701e-38
0.3376857 -0.0045428569 2.79500002 1.454237418e-38
0.34005335 -0.0045542861 2.79700005 1.445054009e-38
0.34200001 -0.0045600003 2.79800004 1.426722783e-38
0.34352002 -0.0045600003 2.79800004 1.435798853e-38
0.34504002 -0.0045600003 2.79800004 1.445017996e-38
0.34742859 -0.0045714285 2.80000001 1.40821177e-38
0.34982476 -0.0045828572 2.80200005 1.380624688e-38
0.35135239 -0.0045828572 2.80200005 1.353037745e-38
0.35288 -0.0045828572 2.80200005 1.325272417e-38
0.35529143 -0.004594286 2.80400002 1.270207554e-38
0.35682285 -0.004594286 2.80400002 1.224147293e-38
0.35835427 -0.004594286 2.80400002 1.233116725e-38
0.17667049 -0.0028495239 2.74800003 9.480962603e-39
0.17809524 -0.0028495239 2.74800003 9.846147989e-39
0.18000001 -0.0028571431 2.75000006 9.844351525e-39
0.18142858 -0.0028571431 2.75000006 9.935113626e-39
0.18285716 -0.0028571431 2.75000006 9.291550491e-39
0.18379429 -0.0028495239 2.74800003 8.740541718e-39
0.1857143 -0.0028571431 2.75000006 9.016412544e-39
0.18664382 -0.0028495239 2.74800003 9.383041268e-39
0.18857144 -0.0028571431 2.75000006 9.841505488e-39
0.18949333 -0.0028495239 2.74800003 1.030749748e-38
0.19142859 -0.0028571431 2.75000006 1.095249835e-38
0.19285716 -0.0028571431 2.75000006 1.168861725e-38
0.19428572 -0.0028571431 2.75000006 1.214958839e-38
0.19571429 -0.0028571431 2.75000006 1.270060838e-38
0.19766857 -0.002864762 2.75200003 1.288464511e-38
0.19910097 -0.002864762 2.75200003 1.315943273e-38
0.20053335 -0.002864762 2.75200003 1.362004374e-38
0.20196572 -0.002864762 2.75200003 1.407922402e-38
0.20366858 -0.0028685716 2.75300002 1.407922682e-38
0.20510286 -0.0028685716 2.75300002 1.417214833e-38
0.20653716 -0.0028685716 2.75300002 1.426650476e-38
0.20797144 -0.0028685716 2.75300002 1.435653258e-38
0.20940572 -0.0028685716 2.75300002 1.435472631e-38
0.21084 -0.0028685716 2.75300002 1.435508364e-38
0.2128381 -0.0028761907 2.75500005 1.389626349e-38
0.21427621 -0.0028761907 2.75500005 1.35278397e-38
0.21571429 -0.0028761907 2.75500005 1.370935409e-38
0.21715239 -0.0028761907 2.75500005 1.398487319e-38
0.2185905 -0.0028761907 2.75500005 1.407708144e-38
0.22002858 -0.0028761907 2.75500005 1.416820227e-38
0.22146669 -0.0028761907 2.75500005 1.435259493e-38
0.22290477 -0.0028761907 2.75500005 1.462989368e-38
0.22434287 -0.0028761907 2.75500005 1.490647496e-38
0.22578098 -0.0028761907 2.75500005 1.518270592e-38
0.22752 -0.00288 2.75600004 1.509338996e-38
0.22865716 -0.0028761907 2.75500005 1.500009852e-38
0.23009525 -0.0028761907 2.75500005 1.499936003e-38
0.23184 -0.00288 2.75600004 1.499866079e-38
0.23297143 -0.0028761907 2.75500005 1.509015577e-38
0.23472001 -0.00288 2.75600004 1.527453862e-38
0.23616001 -0.00288 2.75600004 1.536672724e-38
0.23728573 -0.0028761907 2.75500005 1.545892848e-38
0.23872383 -0.0028761907 2.75500005 1.555184718e-38
0.24016191 -0.0028761907 2.75500005 1.573551256e-38
0.24160002 -0.0028761907 2.75500005 1.601065471e-38
0.24336001 -0.00288 2.75600004 1.637835263e-38
0.2448 -0.00288 2.75600004 1.591953108e-38
0.24624 -0.00288 2.75600004 1.5460362e-38
0.24768002 -0.00288 2.75600004 1.527741829e-38
0.24912001 -0.00288 2.75600004 1.51855926e-38
0.25056002 -0.00288 2.75600004 1.527779804e-38
0.252 -0.00288 2.75600004 1.537034119e-38
0.25343999 -0.00288 2.75600004 1.537105025e-38
0.25488001 -0.00288 2.75600004 1.546289275e-38
0.25632 -0.00288 2.75600004 1.564549455e-38
0.25844193 -0.0028876192 2.75800002 1.58287984e-38
0.25988573 -0.0028876192 2.75800002 1.601246099e-38
0.26132953 -0.0028876192 2.75800002 1.62883192e-38
0.26277333 -0.0028876192 2.75800002 1.601316444e-38
0.26421714 -0.0028876192 2.75800002 1.582697812e-38
0.26566094 -0.0028876192 2.75800002 1.573513702e-38
0.26780954 -0.0028952383 2.76000005 1.573549995e-38
0.26925716 -0.0028952383 2.76000005 1.582769979e-38
0.27070478 -0.0028952383 2.76000005 1.591989682e-38
0.2725105 -0.0028990477 2.76100004 1.592133595e-38
0.27360001 -0.0028952383 2.76000005 1.592097862e-38
0.27540955 -0.0028990477 2.76100004 1.592098002e-38
0.27685907 -0.0028990477 2.76100004 1.601173792e-38
0.27830857 -0.0028990477 2.76100004 1.610321328e-38
0.2797581 -0.0028990477 2.76100004 1.619469145e-38
0.28120762 -0.0028990477 2.76100004 1.656203623e-38
0.28265715 -0.0028990477 2.76100004 1.692757475e-38
0.28485334 -0.0029066666 2.76300001 1.646766999e-38
0.28630668 -0.0029066666 2.76300001 1.610032941e-38
0.28851432 -0.0029142858 2.76500005 1.573334616e-38
0.29072955 -0.0029219049 2.76700002 1.545676347e-38
0.29257143 -0.0029257142 2.76800001 1.499830345e-38
0.29480001 -0.0029333334 2.77000004 1.463132441e-38
0.2970362 -0.0029409523 2.77200001 1.47253151e-38
0.29889333 -0.0029447621 2.77300006 1.481679467e-38
0.30036575 -0.0029447621 2.77300006 1.491042803e-38
0.30261904 -0.002952381 2.77500004 1.509409622e-38
0.30409524 -0.002952381 2.77500004 1.54614354e-38
0.30636001 -0.00296 2.77700001 1.582986479e-38
0.3086324 -0.0029676191 2.77900004 1.546396895e-38
0.3101162 -0.0029676191 2.77900004 1.518845685e-38
0.31200001 -0.0029714287 2.78000003 1.500514039e-38
0.31348571 -0.0029714287 2.78000003 1.482111627e-38
0.31497142 -0.0029714287 2.78000003 1.482183934e-38
0.31726858 -0.0029790478 2.78200006 1.48203876e-38
0.31957334 -0.0029866667 2.78400004 1.472745909e-38
0.32024765 -0.0029790478 2.78200006 1.472891083e-38
0.32338285 -0.0029942857 2.78600001 1.472856891e-38
0.32488 -0.0029942857 2.78600001 1.472820177e-38
0.32637715 -0.0029942857 2.78600001 1.481967013e-38
0.32870859 -0.0030019048 2.78800005 1.500261665e-38
0.33062857 -0.0030057144 2.78900003 1.491041682e-38
0.33213145 -0.0030057144 2.78900003 1.481858833e-38
0.33448002 -0.0030133333 2.79100001 1.472676124e-38
0.33683619 -0.0030209525 2.79300004 1.472711437e-38
0.33834666 -0.0030209525 2.79300004 1.45437965e-38
0.34157145 -0.0030361905 2.79700005 1.435941365e-38
0.34308955 -0.0030361905 2.79700005 1.463349081e-38
0.34460762 -0.0030361905 2.79700005 1.50008314e-38
0.34656003 -0.0030400001 2.79800004 1.444981562e-38
0.34895238 -0.003047619 2.80000001 1.39902738e-38
0.35135239 -0.0030552382 2.80200005 1.371440437e-38
0.35288 -0.0030552382 2.80200005 1.352966279e-38
0.35529143 -0.0030628571 2.80400002 1.334492121e-38
0.35682285 -0.0030628571 2.80400002 1.316017962e-38
0.35924575 -0.0030704765 2.80600005 1.297579677e-38
0.36167619 -0.0030780954 2.80800003 1.27899958e-38
0.36411431 -0.0030857145 2.81000006 1.251235934e-38
0.36565718 -0.0030857145 2.81000006 1.224620792e-38
0.17809524 -0.001424762 2.74800003 1.003160984e-38
0.18000001 -0.0014285715 2.75000006 1.00312399e-38
0.18142858 -0.0014285715 2.75000006 1.003087836e-38
0.18285716 -0.0014285715 2.75000006 9.662817513e-39
0.18428573 -0.0014285715 2.75000006 9.295125203e-39
0.1857143 -0.0014285715 2.75000006 9.478445871e-39
0.18714286 -0.0014285715 2.75000006 9.569931043e-39
0.18857144 -0.0014285715 2.75000006 9.752894379e-39
0.19000001 -0.0014285715 2.75000006 1.002804214e-38
0.19193906 -0.001432381 2.75200003 1.021279073e-38
0.19337143 -0.001432381 2.75200003 1.048937061e-38
0.19480382 -0.001432381 2.75200003 1.086029712e-38
0.19623619 -0.001432381 2.75200003 1.123123063e-38
0.19766857 -0.001432381 2.75200003 1.169005498e-38
0.19910097 -0.001432381 2.75200003 1.224106375e-38
0.20053335 -0.001432381 2.75200003 1.260768547e-38
0.20196572 -0.001432381 2.75200003 1.297467433e-38
0.20366858 -0.0014342858 2.75300002 1.325198149e-38
0.20510286 -0.0014342858 2.75300002 1.362149829e-38
0.20653716 -0.0014342858 2.75300002 1.380375677e-38
0.20797144 -0.0014342858 2.75300002 1.398633335e-38
0.20940572 -0.0014342858 2.75300002 1.407886949e-38
0.21084 -0.0014342858 2.75300002 1.426325515e-38
0.21227428 -0.0014342858 2.75300002 1.417177558e-38
0.21370858 -0.0014342858 2.75300002 1.398846753e-38
0.21571429 -0.0014380954 2.75500005 1.417106793e-38
0.21715239 -0.0014380954 2.75500005 1.435402005e-38
0.2185905 -0.0014380954 2.75500005 1.416891273e-38
0.22002858 -0.0014380954 2.75500005 1.398416694e-38
0.22146669 -0.0014380954 2.75500005 1.41685582e-38
0.22290477 -0.0014380954 2.75500005 1.426218596e-38
0.22434287 -0.0014380954 2.75500005 1.48139164e-38
0.22578098 -0.0014380954 2.75500005 1.536673985e-38
0.22721906 -0.0014380954 2.75500005 1.509196905e-38
0.22865716 -0.0014380954 2.75500005 1.481752334e-38
0.23009525 -0.0014380954 2.75500005 1.472352004e-38
0.23153335 -0.0014380954 2.75500005 1.47231627e-38
0.23297143 -0.0014380954 2.75500005 1.49068351e-38
0.23440954 -0.0014380954 2.75500005 1.509050609e-38
0.23616001 -0.00144 2.75600004 1.509086482e-38
0.23728573 -0.0014380954 2.75500005 1.51834318e-38
0.23872383 -0.0014380954 2.75500005 1.527599877e-38
0.23952572 -0.0014342858 2.75300002 1.536854192e-38
0.24096 -0.0014342858 2.75300002 1.555148704e-38
0.2430381 -0.0014380954 2.75500005 1.56429554e-38
0.2444762 -0.0014380954 2.75500005 1.54603522e-38
0.24591431 -0.0014380954 2.75500005 1.527668821e-38
0.24735241 -0.0014380954 2.75500005 1.518521985e-38
0.24879049 -0.0014380954 2.75500005 1.509195924e-38
0.25022858 -0.0014380954 2.75500005 1.52763575e-38
0.25166669 -0.0014380954 2.75500005 1.555293739e-38
0.25310478 -0.0014380954 2.75500005 1.546217669e-38
0.25488001 -0.00144 2.75600004 1.546290396e-38
0.25699809 -0.0014438096 2.75800002 1.555331434e-38
0.25844193 -0.0014438096 2.75800002 1.564549876e-38
0.25988573 -0.0014438096 2.75800002 1.573732584e-38
0.26132953 -0.0014438096 2.75800002 1.592134296e-38
0.26346669 -0.0014476192 2.76000005 1.573694329e-38
0.26491427 -0.0014476192 2.76000005 1.555147443e-38
0.26636192 -0.0014476192 2.76000005 1.545855853e-38
0.26780954 -0.0014476192 2.76000005 1.545784527e-38
0.26925716 -0.0014476192 2.76000005 1.555040244e-38
0.27070478 -0.0014476192 2.76000005 1.56429596e-38
0.27215239 -0.0014476192 2.76000005 1.555112831e-38
0.27396002 -0.0014495238 2.76100004 1.555148564e-38
0.27540955 -0.0014495238 2.76100004 1.564331974e-38
0.27685907 -0.0014495238 2.76100004 1.564332114e-38
0.27830857 -0.0014495238 2.76100004 1.564368127e-38
0.2797581 -0.0014495238 2.76100004 1.573516364e-38
0.28120762 -0.0014495238 2.76100004 1.582736488e-38
0.28265715 -0.0014495238 2.76100004 1.600922539e-38
0.28485334 -0.0014533333 2.76300001 1.582518025e-38
0.28630668 -0.0014533333 2.76300001 1.573226435e-38
0.28851432 -0.0014571429 2.76500005 1.545675366e-38
0.29072955 -0.0014609525 2.76700002 1.518124857e-38
0.29257143 -0.0014628571 2.76800001 1.481355066e-38
0.29480001 -0.0014666667 2.77000004 1.453768824e-38
0.2970362 -0.0014704762 2.77200001 1.453912738e-38
0.29850668 -0.0014704762 2.77200001 1.463276074e-38
0.30036575 -0.0014723811 2.77300006 1.481787086e-38
0.3018381 -0.0014723811 2.77300006 1.509445355e-38
0.30409524 -0.0014761905 2.77500004 1.536960271e-38
0.30636001 -0.00148 2.77700001 1.564584207e-38
0.30783999 -0.00148 2.77700001 1.537071113e-38
0.30932 -0.00148 2.77700001 1.518953725e-38
0.31200001 -0.0014857143 2.78000003 1.509697168e-38
0.31348571 -0.0014857143 2.78000003 1.500478026e-38
0.31497142 -0.0014857143 2.78000003 1.491294896e-38
0.31645715 -0.0014857143 2.78000003 1.491294616e-38
0.3187581 -0.0014895239 2.78200006 1.491258463e-38
0.32024765 -0.0014895239 2.78200006 1.491258463e-38
0.32256001 -0.0014933334 2.78400004 1.491222589e-38
0.32405335 -0.0014933334 2.78400004 1.49122287e-38
0.32554668 -0.0014933334 2.78400004 1.491151403e-38
0.32787427 -0.0014971428 2.78600001 1.50029894e-38
0.33020955 -0.0015009524 2.78800005 1.49100777e-38
0.33213145 -0.0015028572 2.78900003 1.491043363e-38
0.33363429 -0.0015028572 2.78900003 1.481895547e-38
0.33513716 -0.0015028572 2.78900003 1.481930159e-38
0.33749333 -0.0015066667 2.79100001 1.463561939e-38
0.34071428 -0.0015142857 2.79500002 1.454343497e-38
0.34222856 -0.0015142857 2.79500002 1.454201125e-38
0.34460762 -0.0015180953 2.79700005 1.463348661e-38
0.34612575 -0.0015180953 2.79700005 1.435833745e-38
0.34895238 -0.0015238095 2.80000001 1.399134859e-38
0.35047618 -0.0015238095 2.80000001 1.380731327e-38
0.352 -0.0015238095 2.80000001 1.371548337e-38
0.35440764 -0.0015276191 2.80200005 1.353074319e-38
0.35682285 -0.0015314285 2.80400002 1.343819023e-38
0.35835427 -0.0015314285 2.80400002 1.325380177e-38
0.36078098 -0.0015352382 2.80600005 1.316159073e-38
0.36231622 -0.0015352382 2.80600005 1.27917222e-38
0.36385146 -0.0015352382 2.80600005 1.251375363e-38
0.36901334 -0.0015504762 2.81400001 1.279540762e-38
0.37056381 -0.0015504762 2.81400001 1.298556522e-38
0.37211427 -0.0015504762 2.81400001 1.336083015e-38
0.18285716 0 2.75000006 1.003231329e-38
0.18428573 0 2.75000006 9.940126071e-39
0.1857143 0 2.75000006 9.84794025e-39
0.18714286 0 2.75000006 9.846866856e-39
0.18857144 0 2.75000006 9.754318098e-39
0.19000001 0 2.75000006 9.753960767e-39
0.19193906 0 2.75200003 9.567421317e-39
0.19337143 0 2.75200003 9.383390191e-39
0.19480382 0 2.75200003 9.56670105e-39
0.19623619 0 2.75200003 9.751451042e-39
0.19766857 0 2.75200003 1.057905091e-38
