# .PCD v0.7 - Point Cloud Data file format
VERSION 0.7
FIELDS x y z rgb
SIZE 4 4 4 4
TYPE F F F F
COUNT 1 1 1 1
WIDTH 965
HEIGHT 1
VIEWPOINT 0 0 0 1 0 0 0
POINTS 965
DATA ascii
2.22605334 0.041813336 0.68600005 1.380550979e-38
2.22769144 0.041874286 0.68700004 1.380479513e-38
2.22966668 0.041996192 0.68900001 1.389662923e-38
2.23097904 0.041996192 0.68900001 1.389662923e-38
2.23229143 0.041996192 0.68900001 1.398774025e-38
2.23360381 0.041996192 0.68900001 1.426252367e-38
2.2349162 0.041996192 0.68900001 1.453838469e-38
2.23622857 0.041996192 0.68900001 1.407956314e-38
2.23788573 0.042057145 0.69000006 1.362038005e-38
2.23920001 0.042057145 0.69000006 1.371185121e-38
2.24051431 0.042057145 0.69000006 1.389589775e-38
2.24182858 0.042057145 0.69000006 1.417213852e-38
2.24314287 0.042057145 0.69000006 1.444691633e-38
2.24410287 0.041996192 0.68900001 1.42628754e-38
2.24541524 0.041996192 0.68900001 1.407848974e-38
2.24601144 0.041874286 0.68700004 1.417032804e-38
2.24732 0.041874286 0.68700004 1.426252787e-38
2.2486286 0.041874286 0.68700004 1.435436898e-38
2.25066477 0.041996192 0.68900001 1.453840711e-38
2.25124574 0.041874286 0.68700004 1.454020918e-38
2.25328952 0.041996192 0.68900001 1.45394819e-38
2.2546019 0.041996192 0.68900001 1.453552604e-38
2.25591427 0.041996192 0.68900001 1.453874622e-38
2.25722668 0.041996192 0.68900001 1.444725965e-38
2.25853905 0.041996192 0.68900001 1.444618625e-38
2.25985143 0.041996192 0.68900001 1.398772764e-38
2.26154289 0.042057145 0.69000006 1.361859199e-38
2.26285717 0.042057145 0.69000006 1.380333918e-38
2.26532 0.042240001 0.69300002 1.407884007e-38
2.26702476 0.042300951 0.69400001 1.398699756e-38
2.26834667 0.042300951 0.69400001 1.398699056e-38
2.26966858 0.042300951 0.69400001 1.398734368e-38
2.27099049 0.042300951 0.69400001 1.398556964e-38
2.27231237 0.042300951 0.69400001 1.398594799e-38
2.27402857 0.042361908 0.69500005 1.407705621e-38
2.27535239 0.042361908 0.69500005 1.426071599e-38
2.27667621 0.042361908 0.69500005 1.453586235e-38
2.27919999 0.042544764 0.69800001 1.425999713e-38
2.28052953 0.042544764 0.69800001 1.398233544e-38
2.28185904 0.042544764 0.69800001 1.343239586e-38
2.28400001 0.04266667 0.70000005 1.288353668e-38
2.28533334 0.04266667 0.70000005 1.334307429e-38
2.28666669 0.04266667 0.70000005 1.38015287e-38
2.28841144 0.042727619 0.70100003 1.370933027e-38
2.29057333 0.042849522 0.70300001 1.361642979e-38
2.29232764 0.042910479 0.70400006 1.398127326e-38
2.2936686 0.042910479 0.70400006 1.434827052e-38
2.29500952 0.042910479 0.70400006 1.407277945e-38
2.29635051 0.042910479 0.70400006 1.379797361e-38
2.2981143 0.042971432 0.70500004 1.352316917e-38
2.29945716 0.042971432 0.70500004 1.324765428e-38
2.30080003 0.042971432 0.70500004 1.306397628e-38
2.303 0.043093335 0.70700002 1.287887456e-38
2.30434665 0.043093335 0.70700002 1.269341551e-38
2.30569333 0.043093335 0.70700002 1.25094012e-38
2.30747429 0.043154284 0.708 1.250905788e-38
2.30969524 0.043276191 0.71000004 1.250867953e-38
2.31104761 0.043276191 0.71000004 1.232283653e-38
2.31284001 0.043337144 0.71100003 1.223135276e-38
2.31507811 0.04345905 0.71300006 1.195584066e-38
2.31688002 0.043520004 0.71400005 1.177180814e-38
2.31824002 0.043520004 0.71400005 1.158813574e-38
2.32049525 0.043641906 0.71600002 1.149594151e-38
2.32230857 0.043702856 0.71700001 1.122007629e-38
2.32457718 0.043824762 0.71900004 1.10364095e-38
2.32730669 0.044007622 0.72200006 1.11282492e-38
2.32913718 0.044068575 0.72300005 1.121937424e-38
2.33051431 0.044068575 0.72300005 1.08513204e-38
2.33280954 0.044190478 0.72500002 1.048468747e-38
2.33419049 0.044190478 0.72500002 1.011841187e-38
2.33696002 0.044373337 0.72800004 9.842194926e-39
2.33834666 0.044373337 0.72800004 9.749288838e-39
2.34113333 0.044556189 0.73100001 9.750017514e-39
2.34393144 0.044739049 0.73400003 9.658912094e-39
2.3462705 0.044860955 0.73600006 9.565980782e-39
2.3481448 0.044921909 0.73700005 9.291173542e-39
2.34954861 0.044921909 0.73700005 9.013518863e-39
2.35190475 0.045043811 0.73900002 8.737299113e-39
2.35379049 0.045104761 0.74000001 8.550040797e-39
2.35616001 0.045226667 0.74200004 7.63383823e-39
2.35805523 0.04528762 0.74300003 6.806253778e-39
2.35947052 0.04528762 0.74300003 6.889130773e-39
2.36185718 0.045409527 0.74500006 6.984581619e-39
2.36425143 0.045531429 0.74700004 9.192247475e-39
2.36812192 0.045836192 0.75200003 1.14193045e-38
2.37152001 0.046080001 0.75600004 1.383003252e-38
2.37296003 0.046080001 0.75600004 1.622101344e-38
2.37390479 0.046019051 0.75500005 1.695895542e-38
2.3778286 0.046323813 0.76000005 1.769328206e-38
2.37927622 0.046323813 0.76000005 1.705043499e-38
2.38122478 0.046384763 0.76100004 1.640758652e-38
2.081798092 0.042177141 0.671 1.215493715e-38
2.083076194 0.042177141 0.671 1.197091303e-38
2.084228575 0.042114288 0.67000002 1.205629835e-38
2.085632384 0.042177141 0.671 1.214166825e-38
2.08678095 0.042114288 0.67000002 1.204659716e-38
2.088188574 0.042177141 0.671 1.186006612e-38
2.089466669 0.042177141 0.671 1.177111029e-38
2.090879999 0.042240005 0.67200005 1.168214185e-38
2.092434287 0.042365715 0.67400002 1.159138115e-38
2.093718104 0.042365715 0.67400002 1.158815116e-38
2.095001914 0.042365715 0.67400002 1.103749691e-38
2.096285716 0.042365715 0.67400002 1.048719579e-38
2.097714283 0.042428572 0.67500001 1.09467264e-38
2.099000007 0.042428572 0.67500001 1.131443272e-38
2.1004343 0.042491432 0.67600006 1.13140796e-38
2.10202286 0.042617142 0.67800003 1.131372507e-38
2.10331429 0.042617142 0.67800003 1.140628223e-38
2.10491429 0.042742856 0.68000001 1.140663676e-38
2.10620952 0.042742856 0.68000001 1.159030495e-38
2.10750476 0.042742856 0.68000001 1.177434589e-38
2.10879999 0.042742856 0.68000001 1.214277528e-38
2.11009523 0.042742856 0.68000001 1.251119626e-38
2.11139047 0.042742856 0.68000001 1.251084033e-38
2.11268571 0.042742856 0.68000001 1.251084314e-38
2.11398095 0.042742856 0.68000001 1.288105918e-38
2.11527619 0.042742856 0.68000001 1.334524911e-38
2.11657143 0.042742856 0.68000001 1.334452184e-38
2.11821334 0.042868573 0.68200004 1.334343723e-38
2.11951239 0.042868573 0.68200004 1.306828107e-38
2.12081143 0.042868573 0.68200004 1.288784147e-38
2.12228953 0.04293143 0.68300003 1.260875046e-38
2.12359048 0.04293143 0.68300003 1.242435079e-38
2.12507428 0.042994287 0.68400002 1.223995112e-38
2.12637714 0.042994287 0.68400002 1.214597164e-38
2.12767999 0.042994287 0.68400002 1.159460974e-38
2.12898286 0.042994287 0.68400002 1.11336372e-38
2.13028571 0.042994287 0.68400002 1.131766552e-38
2.13158856 0.042994287 0.68400002 1.150169945e-38
2.13289143 0.042994287 0.68400002 1.150170365e-38
2.13419428 0.042994287 0.68400002 1.159356017e-38
2.13589333 0.043120004 0.68600005 1.177832838e-38
2.13720001 0.043120004 0.68600005 1.19634343e-38
2.13870858 0.043182861 0.68700004 1.223894079e-38
2.13981335 0.043120004 0.68600005 1.251446129e-38
2.14112 0.043120004 0.68600005 1.279105939e-38
2.14263429 0.043182861 0.68700004 1.297578696e-38
2.14394286 0.043182861 0.68700004 1.343387003e-38
2.14504001 0.043120004 0.68600005 1.389196711e-38
2.14634669 0.043120004 0.68600005 1.361861021e-38
2.14765334 0.043120004 0.68600005 1.343566789e-38
2.14896001 0.043120004 0.68600005 1.361899276e-38
2.15026668 0.043120004 0.68600005 1.389448804e-38
2.15157335 0.043120004 0.68600005 1.37115233e-38
2.15288001 0.043120004 0.68600005 1.352894533e-38
2.15373716 0.042994287 0.68400002 1.334529255e-38
2.15617335 0.043308571 0.68900001 1.316088868e-38
2.15748571 0.043308571 0.68900001 1.297791974e-38
2.15833716 0.043182861 0.68700004 1.279497742e-38
2.15964572 0.043182861 0.68700004 1.261131904e-38
2.1609543 0.043182861 0.68700004 1.242798296e-38
2.16202667 0.043120004 0.68600005 1.251871843e-38
2.16333334 0.043120004 0.68600005 1.260984347e-38
2.16464001 0.043120004 0.68600005 1.260985188e-38
2.16594668 0.043120004 0.68600005 1.270168457e-38
2.16652191 0.04293143 0.68300003 1.288535416e-38
2.16782285 0.04293143 0.68300003 1.316122639e-38
2.16912381 0.04293143 0.68300003 1.334454566e-38
2.17017524 0.042868573 0.68200004 1.36196822e-38
2.17147429 0.042868573 0.68200004 1.371186522e-38
2.17277335 0.042868573 0.68200004 1.380406646e-38
2.1740724 0.042868573 0.68200004 1.380299727e-38
2.17537144 0.042868573 0.68200004 1.380334899e-38
2.17667049 0.042868573 0.68200004 1.389517748e-38
2.17744762 0.042742856 0.68000001 1.398737732e-38
2.17874286 0.042742856 0.68000001 1.398810179e-38
2.18003809 0.042742856 0.68000001 1.389698796e-38
2.18133333 0.042742856 0.68000001 1.407922823e-38
2.18262856 0.042742856 0.68000001 1.435509765e-38
2.1839238 0.042742856 0.68000001 1.417178959e-38
2.18521903 0.042742856 0.68000001 1.398846753e-38
2.18706287 0.042868573 0.68200004 1.417177138e-38
2.18836191 0.042868573 0.68200004 1.435544517e-38
2.18966097 0.042868573 0.68200004 1.426325515e-38
2.19096 0.042868573 0.68200004 1.407922682e-38
2.19254096 0.04293143 0.68300003 1.389555863e-38
2.1935581 0.042868573 0.68200004 1.371225058e-38
2.19514287 0.04293143 0.68300003 1.334527293e-38
2.1961562 0.042868573 0.68200004 1.307046709e-38
2.19774476 0.04293143 0.68300003 1.32534038e-38
2.19904572 0.04293143 0.68300003 1.352853895e-38
2.20005335 0.042868573 0.68200004 1.361928704e-38
2.20164762 0.04293143 0.68300003 1.371148967e-38
2.20265144 0.042868573 0.68200004 1.380333498e-38
2.20424953 0.04293143 0.68300003 1.389552781e-38
2.20555048 0.04293143 0.68300003 1.39884395e-38
2.20685144 0.04293143 0.68300003 1.417355943e-38
2.20815238 0.04293143 0.68300003 1.398775146e-38
2.20945334 0.04293143 0.68300003 1.380372454e-38
2.21075429 0.04293143 0.68300003 1.352929845e-38
2.21205524 0.04293143 0.68300003 1.334559803e-38
2.2133562 0.04293143 0.68300003 1.343776283e-38
2.21465716 0.04293143 0.68300003 1.343813978e-38
2.2159581 0.04293143 0.68300003 1.352963476e-38
2.21725905 0.04293143 0.68300003 1.362147867e-38
2.21888 0.042994287 0.68400002 1.362112834e-38
2.22018285 0.042994287 0.68400002 1.362183039e-38
2.2214857 0.042994287 0.68400002 1.352998088e-38
2.22278857 0.042994287 0.68400002 1.343815099e-38
2.22409143 0.042994287 0.68400002 1.3438158e-38
2.22605334 0.043120004 0.68600005 1.343850832e-38
2.22736001 0.043120004 0.68600005 1.362073738e-38
2.229 0.043182861 0.68700004 1.380370632e-38
2.23030858 0.043182861 0.68700004 1.389663483e-38
2.23161715 0.043182861 0.68700004 1.398775567e-38
2.23292571 0.043182861 0.68700004 1.40799527e-38
2.2349162 0.043308571 0.68900001 1.417213151e-38
2.23622857 0.043308571 0.68900001 1.380441538e-38
2.23754095 0.043308571 0.68900001 1.343671887e-38
2.23885334 0.043308571 0.68900001 1.362003673e-38
2.24016573 0.043308571 0.68900001 1.380372454e-38
2.2414781 0.043308571 0.68900001 1.407888911e-38
2.24279048 0.043308571 0.68900001 1.426253908e-38
2.24410287 0.043308571 0.68900001 1.407884847e-38
2.24541524 0.043308571 0.68900001 1.389518028e-38
2.24601144 0.043182861 0.68700004 1.407885548e-38
2.24732 0.043182861 0.68700004 1.426253208e-38
2.2486286 0.043182861 0.68700004 1.435437318e-38
2.24993716 0.043182861 0.68700004 1.444693595e-38
2.25124574 0.043182861 0.68700004 1.463133562e-38
2.2525543 0.043182861 0.68700004 1.481570726e-38
2.25386286 0.043182861 0.68700004 1.453982522e-38
2.25591427 0.043308571 0.68900001 1.435578289e-38
2.25722668 0.043308571 0.68900001 1.435469408e-38
2.25853905 0.043308571 0.68900001 1.435434375e-38
2.25985143 0.043308571 0.68900001 1.407812821e-38
2.26154289 0.043371432 0.69000006 1.389409708e-38
2.2632381 0.043434288 0.69100004 1.407776807e-38
2.26532 0.043560002 0.69300002 1.426179499e-38
2.26664001 0.043560002 0.69300002 1.41699567e-38
2.26834667 0.043622859 0.69400001 1.407847293e-38
2.26966858 0.043622859 0.69400001 1.389479633e-38
2.27099049 0.043622859 0.69400001 1.371041348e-38
2.27231237 0.043622859 0.69400001 1.380225458e-38
2.27402857 0.043685716 0.69500005 1.398556684e-38
2.27535239 0.043685716 0.69500005 1.435290882e-38
2.27667621 0.043685716 0.69500005 1.472060674e-38
2.27919999 0.043874286 0.69800001 1.435111096e-38
2.28052953 0.043874286 0.69800001 1.407452407e-38
2.28185904 0.043874286 0.69800001 1.370861281e-38
2.28318855 0.043874286 0.69800001 1.334378335e-38
2.28533334 0.044000003 0.70000005 1.371041067e-38
2.28666669 0.044000003 0.70000005 1.407810719e-38
2.28800002 0.044000003 0.70000005 1.380188043e-38
2.29057333 0.04418857 0.70300001 1.361713885e-38
2.29191238 0.04418857 0.70300001 1.370682895e-38
2.2936686 0.044251431 0.70400006 1.388908323e-38
2.29500952 0.044251431 0.70400006 1.370578919e-38
2.29635051 0.044251431 0.70400006 1.352031052e-38
2.2981143 0.044314288 0.70500004 1.333913665e-38
2.29945716 0.044314288 0.70500004 1.306291269e-38
2.30080003 0.044314288 0.70500004 1.287852564e-38
2.303 0.044440001 0.70700002 1.278633421e-38
2.30434665 0.044440001 0.70700002 1.260194856e-38
2.30569333 0.044440001 0.70700002 1.241758532e-38
2.30704001 0.044440001 0.70700002 1.241761195e-38
2.30882287 0.044502858 0.708 1.232574142e-38
2.31104761 0.044628572 0.71000004 1.223279469e-38
2.31284001 0.044691432 0.71100003 1.204839783e-38
2.31507811 0.044817146 0.71300006 1.18643611e-38
2.3164362 0.044817146 0.71300006 1.158741968e-38
2.31824002 0.044880003 0.71400005 1.140267389e-38
2.32049525 0.045005713 0.71600002 1.121828403e-38
2.32230857 0.045068569 0.71700001 1.094170135e-38
2.32457718 0.045194287 0.71900004 1.075695836e-38
2.32730669 0.045382861 0.72200006 1.084951552e-38
2.32913718 0.045445714 0.72300005 1.094206849e-38
2.33142856 0.045571432 0.72500002 1.057544397e-38
2.33326858 0.045634285 0.72600001 1.020881524e-38
2.33419049 0.045571432 0.72500002 9.934023416e-39
2.33696002 0.045760002 0.72800004 9.658526737e-39
2.33834666 0.045760002 0.72800004 9.47271456e-39
2.33973336 0.045760002 0.72800004 9.376937212e-39
2.34393144 0.046137143 0.73400003 9.287259715e-39
2.3462705 0.04626286 0.73600006 9.289755428e-39
2.3481448 0.046325717 0.73700005 8.830562533e-39
2.35049716 0.046451431 0.73900002 8.371752192e-39
2.35238096 0.046514284 0.74000001 7.634208173e-39
2.35474667 0.046640005 0.74200004 6.988837362e-39
2.35664001 0.046702858 0.74300003 7.997941814e-39
2.35901907 0.046828575 0.74500006 8.915590521e-39
2.36043811 0.046828575 0.74500006 1.002767219e-38
2.36282861 0.046954285 0.74700004 1.123201255e-38
2.36473906 0.047017142 0.74800003 1.24428101e-38
2.36861145 0.04733143 0.75300002 1.36535656e-38
2.37004572 0.04733143 0.75300002 1.475742025e-38
2.37296003 0.047520004 0.75600004 1.595343129e-38
2.3778286 0.047771432 0.76000005 1.68656836e-38
2.37927622 0.047771432 0.76000005 1.640686205e-38
2.081798092 0.043455236 0.671 1.233897808e-38
2.08295238 0.043390475 0.67000002 1.233897808e-38
2.084228575 0.043390475 0.67000002 1.279923316e-38
2.085632384 0.043455236 0.671 1.325625124e-38
2.08678095 0.043390475 0.67000002 1.2703439e-38
2.088188574 0.043455236 0.671 1.214956177e-38
2.089600012 0.043520004 0.67200005 1.187119102e-38
2.091150478 0.043649524 0.67400002 1.168572497e-38
2.092434287 0.043649524 0.67400002 1.140842342e-38
2.093857147 0.043714285 0.67500001 1.122080777e-38
2.095142856 0.043714285 0.67500001 1.029886548e-38
2.096428573 0.043714285 0.67500001 9.38552577e-39
2.097714283 0.043714285 0.67500001 1.011805174e-38
2.099000007 0.043714285 0.67500001 1.094493554e-38
2.1004343 0.043779049 0.67600006 1.094529988e-38
2.10202286 0.043908574 0.67800003 1.094637888e-38
2.10346667 0.043973334 0.67900002 1.103857451e-38
2.10491429 0.044038095 0.68000001 1.113077014e-38
2.10620952 0.044038095 0.68000001 1.131516e-38
2.10750476 0.044038095 0.68000001 1.159066929e-38
2.10879999 0.044038095 0.68000001 1.195944901e-38
2.11009523 0.044038095 0.68000001 1.241863349e-38
2.11139047 0.044038095 0.68000001 1.232716374e-38
2.11268571 0.044038095 0.68000001 1.223497231e-38
2.11398095 0.044038095 0.68000001 1.26023171e-38
2.11527619 0.044038095 0.68000001 1.306650983e-38
2.11657143 0.044038095 0.68000001 1.297646098e-38
2.11821334 0.044167623 0.68200004 1.288390382e-38
2.11951239 0.044167623 0.68200004 1.269987129e-38
2.12081143 0.044167623 0.68200004 1.260660087e-38
2.12228953 0.04423238 0.68300003 1.242185368e-38
2.12359048 0.04423238 0.68300003 1.23303671e-38
2.12507428 0.044297144 0.68400002 1.214704644e-38
2.12619238 0.04423238 0.68300003 1.196159159e-38
2.12767999 0.044297144 0.68400002 1.122691883e-38
2.12898286 0.044297144 0.68400002 1.058298856e-38
2.13028571 0.044297144 0.68400002 1.094925014e-38
2.13139619 0.04423238 0.68300003 1.140843183e-38
2.13269714 0.04423238 0.68300003 1.150063166e-38
2.13399811 0.04423238 0.68300003 1.159427763e-38
2.13529906 0.04423238 0.68300003 1.168720754e-38
2.1366 0.04423238 0.68300003 1.187087433e-38
2.13790095 0.04423238 0.68300003 1.214637802e-38
2.13940571 0.044297144 0.68400002 1.251372841e-38
2.14070857 0.044297144 0.68400002 1.278960344e-38
2.14201143 0.044297144 0.68400002 1.315693281e-38
2.1433143 0.044297144 0.68400002 1.324911583e-38
2.14461716 0.044297144 0.68400002 1.343242809e-38
2.14570667 0.04423238 0.68300003 1.334202752e-38
2.14700761 0.04423238 0.68300003 1.334203313e-38
2.14830858 0.04423238 0.68300003 1.325020324e-38
2.14960954 0.04423238 0.68300003 1.3159081e-38
2.15091048 0.04423238 0.68300003 1.306796017e-38
2.15221143 0.04423238 0.68300003 1.297720928e-38
2.15351239 0.04423238 0.68300003 1.288645839e-38
2.15458667 0.044167623 0.68200004 1.288501645e-38
2.1561143 0.04423238 0.68300003 1.279353408e-38
2.15741524 0.04423238 0.68300003 1.279354109e-38
2.1587162 0.04423238 0.68300003 1.270207133e-38
2.16001715 0.04423238 0.68300003 1.260950436e-38
2.16131809 0.04423238 0.68300003 1.270096851e-38
2.16261904 0.04423238 0.68300003 1.288464511e-38
2.16392002 0.04423238 0.68300003 1.288465071e-38
2.16497906 0.044167623 0.68200004 1.288500524e-38
2.16627811 0.044167623 0.68200004 1.316122639e-38
2.16757715 0.044167623 0.68200004 1.352821525e-38
2.1688762 0.044167623 0.68200004 1.371189185e-38
2.17017524 0.044167623 0.68200004 1.389554742e-38
2.17147429 0.044167623 0.68200004 1.398772624e-38
2.17277335 0.044167623 0.68200004 1.407921842e-38
2.1740724 0.044167623 0.68200004 1.40788751e-38
2.17537144 0.044167623 0.68200004 1.407885548e-38
2.17615238 0.044038095 0.68000001 1.417138882e-38
2.17744762 0.044038095 0.68000001 1.435542976e-38
2.17874286 0.044038095 0.68000001 1.42639628e-38
2.18003809 0.044038095 0.68000001 1.417177418e-38
2.18133333 0.044038095 0.68000001 1.435509064e-38
2.18262856 0.044038095 0.68000001 1.46302426e-38
2.1839238 0.044038095 0.68000001 1.444657582e-38
2.18521903 0.044038095 0.68000001 1.426289501e-38
2.18706287 0.044167623 0.68200004 1.44465576e-38
2.18836191 0.044167623 0.68200004 1.472206969e-38
2.18966097 0.044167623 0.68200004 1.444585134e-38
2.19096 0.044167623 0.68200004 1.417034345e-38
2.19225906 0.044167623 0.68200004 1.38951943e-38
2.1935581 0.044167623 0.68200004 1.362040107e-38
2.19485715 0.044167623 0.68200004 1.334489178e-38
2.1961562 0.044167623 0.68200004 1.316049912e-38
2.19745526 0.044167623 0.68200004 1.343564267e-38
2.1987543 0.044167623 0.68200004 1.371114075e-38
2.20005335 0.044167623 0.68200004 1.371113374e-38
2.20135239 0.044167623 0.68200004 1.380297484e-38
2.20265144 0.044167623 0.68200004 1.389625088e-38
2.20395048 0.044167623 0.68200004 1.398700037e-38
2.20524953 0.044167623 0.68200004 1.389838365e-38
2.20654857 0.044167623 0.68200004 1.389696694e-38
2.20784764 0.044167623 0.68200004 1.380371333e-38
2.20914668 0.044167623 0.68200004 1.380372594e-38
2.21044573 0.044167623 0.68200004 1.371297925e-38
2.21174477 0.044167623 0.68200004 1.37125981e-38
2.21304382 0.044167623 0.68200004 1.352890609e-38
2.21434286 0.044167623 0.68200004 1.343779787e-38
2.21564192 0.044167623 0.68200004 1.352964317e-38
2.21725905 0.04423238 0.68300003 1.371295823e-38
2.21856001 0.04423238 0.68300003 1.37126023e-38
2.21986096 0.04423238 0.68300003 1.37125925e-38
2.22116192 0.04423238 0.68300003 1.352927043e-38
2.22246286 0.04423238 0.68300003 1.3437079e-38
2.22376382 0.04423238 0.68300003 1.325340941e-38
2.22539428 0.044297144 0.68400002 1.316157531e-38
2.22669715 0.044297144 0.68400002 1.34370832e-38
2.22866668 0.044426668 0.68600005 1.37125953e-38
2.22997335 0.044426668 0.68600005 1.380479513e-38
2.23128001 0.044426668 0.68600005 1.398845631e-38
2.23258668 0.044426668 0.68600005 1.389697114e-38
2.2342343 0.044491433 0.68700004 1.380477411e-38
2.23554286 0.044491433 0.68700004 1.352962215e-38
2.23754095 0.044620954 0.68900001 1.334452464e-38
2.23885334 0.044620954 0.68900001 1.352784671e-38
2.24016573 0.044620954 0.68900001 1.3803363e-38
2.2414781 0.044620954 0.68900001 1.398704381e-38
2.24279048 0.044620954 0.68900001 1.417105952e-38
2.24410287 0.044620954 0.68900001 1.398773465e-38
2.24470288 0.044491433 0.68700004 1.380406646e-38
2.24601144 0.044491433 0.68700004 1.407957575e-38
2.24732 0.044491433 0.68700004 1.435472911e-38
2.2486286 0.044491433 0.68700004 1.435473331e-38
2.24993716 0.044491433 0.68700004 1.435474032e-38
2.25124574 0.044491433 0.68700004 1.472244664e-38
2.2525543 0.044491433 0.68700004 1.508977882e-38
2.25386286 0.044491433 0.68700004 1.463094886e-38
2.25517145 0.044491433 0.68700004 1.426323973e-38
2.25722668 0.044620954 0.68900001 1.426251386e-38
2.25853905 0.044620954 0.68900001 1.435471229e-38
2.25985143 0.044620954 0.68900001 1.426037128e-38
2.26154289 0.044685718 0.69000006 1.416853298e-38
2.2632381 0.044750478 0.69100004 1.435220257e-38
2.26455429 0.044750478 0.69100004 1.453730569e-38
2.26664001 0.044879999 0.69300002 1.435327316e-38
2.26796001 0.044879999 0.69300002 1.41699567e-38
2.26966858 0.044944763 0.69400001 1.380296924e-38
2.27099049 0.044944763 0.69400001 1.343526432e-38
2.27231237 0.044944763 0.69400001 1.37107666e-38
2.27363428 0.044944763 0.69400001 1.398629131e-38
2.27535239 0.045009524 0.69500005 1.444548701e-38
2.27667621 0.045009524 0.69500005 1.490285821e-38
2.27800003 0.045009524 0.69500005 1.453442742e-38
2.28012761 0.045139052 0.69700003 1.4259637e-38
2.28185904 0.045203809 0.69800001 1.398484517e-38
2.28318855 0.045203809 0.69800001 1.380153711e-38
2.28533334 0.045333333 0.70000005 1.407740654e-38
2.28666669 0.045333333 0.70000005 1.444509464e-38
2.28800002 0.045333333 0.70000005 1.398626468e-38
2.28933334 0.045333333 0.70000005 1.361606125e-38
2.29191238 0.045527618 0.70300001 1.352423556e-38
2.29325143 0.045527618 0.70300001 1.352209438e-38
2.29500952 0.045592386 0.70400006 1.343062882e-38
2.29635051 0.045592386 0.70400006 1.333878352e-38
2.2981143 0.045657143 0.70500004 1.315546145e-38
2.29945716 0.045657143 0.70500004 1.297071006e-38
2.30080003 0.045657143 0.70500004 1.278667613e-38
2.303 0.045786668 0.70700002 1.269413017e-38
2.30434665 0.045786668 0.70700002 1.251046479e-38
2.30569333 0.045786668 0.70700002 1.241756851e-38
2.30704001 0.045786668 0.70700002 1.232610856e-38
2.30882287 0.045851428 0.708 1.223352897e-38
2.31104761 0.045980953 0.71000004 1.205126769e-38
2.31284001 0.046045717 0.71100003 1.195799586e-38
2.31507811 0.046175241 0.71300006 1.168105304e-38
2.31688002 0.046240002 0.71400005 1.149451079e-38
2.31824002 0.046240002 0.71400005 1.121864557e-38
2.32049525 0.046369523 0.71600002 1.094170415e-38
2.32230857 0.046434287 0.71700001 1.066512146e-38
2.32457718 0.046563812 0.71900004 1.048145888e-38
2.32730669 0.0467581 0.72200006 1.057366151e-38
2.32913718 0.046822857 0.72300005 1.066585014e-38
2.33142856 0.046952382 0.72500002 1.029958015e-38
2.33326858 0.047017142 0.72600001 9.932951423e-39
2.33419049 0.046952382 0.72500002 9.658516928e-39
2.33696002 0.047146667 0.72800004 9.473775343e-39
2.33881143 0.047211431 0.72900003 9.196120664e-39
2.34020001 0.047211431 0.72900003 9.009941348e-39
2.34393144 0.047535241 0.73400003 9.008509221e-39
2.34674099 0.047729529 0.73700005 9.008499412e-39
2.3481448 0.047729529 0.73700005 8.365642531e-39
2.35097143 0.047923807 0.74000001 7.719230556e-39
2.35333335 0.048053335 0.74200004 6.613639698e-39
2.35522479 0.048118096 0.74300003 5.514500419e-39
2.35760003 0.04824762 0.74500006 8.27245338e-39
2.35998288 0.048377145 0.74700004 1.113981973e-38
2.36140573 0.048377145 0.74700004 1.327286083e-38
2.36282861 0.048377145 0.74700004 1.54837763e-38
2.36473906 0.048441906 0.74800003 1.567466818e-38
2.36616382 0.048441906 0.74800003 1.595090895e-38
2.37004572 0.048765715 0.75300002 1.576797224e-38
2.08295238 0.044666667 0.67000002 1.224750692e-38
2.084228575 0.044666667 0.67000002 1.224750272e-38
2.085632384 0.044733334 0.671 1.233969134e-38
2.086910471 0.044733334 0.671 1.224498179e-38
2.088188574 0.044733334 0.671 1.215135403e-38
2.089600012 0.044800006 0.67200005 1.196660964e-38
2.091150478 0.044933334 0.67400002 1.187405528e-38
2.092434287 0.044933334 0.67400002 1.159711386e-38
2.093857147 0.044999998 0.67500001 1.141236807e-38
2.095142856 0.044999998 0.67500001 1.085848804e-38
2.096571438 0.04506667 0.67600006 1.039643229e-38
2.097859055 0.04506667 0.67600006 1.067013811e-38
2.099146679 0.04506667 0.67600006 1.103605077e-38
2.10073143 0.045200001 0.67800003 1.094529848e-38
2.10202286 0.045200001 0.67800003 1.085489791e-38
2.10346667 0.045266669 0.67900002 1.03953617e-38
2.10491429 0.045333333 0.68000001 1.002766659e-38
2.10620952 0.045333333 0.68000001 1.039501558e-38
2.10750476 0.045333333 0.68000001 1.085454619e-38
2.10879999 0.045333333 0.68000001 1.10396465e-38
2.11009523 0.045333333 0.68000001 1.113292674e-38
2.11139047 0.045333333 0.68000001 1.131481528e-38
2.11268571 0.045333333 0.68000001 1.149669541e-38
2.11398095 0.045333333 0.68000001 1.168180414e-38
2.11527619 0.045333333 0.68000001 1.196125108e-38
2.11657143 0.045333333 0.68000001 1.205272364e-38
2.11786667 0.045333333 0.68000001 1.214456053e-38
2.11951239 0.045466669 0.68200004 1.214456334e-38
2.12081143 0.045466669 0.68200004 1.214491786e-38
2.12211048 0.045466669 0.68200004 1.205307957e-38
2.12359048 0.045533333 0.68300003 1.205343129e-38
2.12489143 0.045533333 0.68300003 1.186939596e-38
2.12619238 0.045533333 0.68300003 1.177757168e-38
2.12749334 0.045533333 0.68300003 1.131804667e-38
2.1287943 0.045533333 0.68300003 1.085886078e-38
2.13009524 0.045533333 0.68300003 1.10428821e-38
2.13139619 0.045533333 0.68300003 1.122727616e-38
2.13250287 0.045466669 0.68200004 1.131911727e-38
2.13399811 0.045533333 0.68300003 1.141132551e-38
2.13529906 0.045533333 0.68300003 1.159465178e-38
2.1366 0.045533333 0.68300003 1.177580464e-38
2.13769907 0.045466669 0.68200004 1.196018609e-38
2.13899811 0.045466669 0.68200004 1.223677158e-38
2.14029716 0.045466669 0.68200004 1.2512641e-38
2.1415962 0.045466669 0.68200004 1.288033752e-38
2.14289525 0.045466669 0.68200004 1.297252754e-38
2.14419429 0.045466669 0.68200004 1.315656007e-38
2.14549334 0.045466669 0.68200004 1.315656287e-38
2.14679238 0.045466669 0.68200004 1.31569216e-38
2.14809144 0.045466669 0.68200004 1.297360934e-38
2.14939049 0.045466669 0.68200004 1.288249411e-38
2.15068954 0.045466669 0.68200004 1.279138029e-38
2.15198858 0.045466669 0.68200004 1.279317395e-38
2.15328763 0.045466669 0.68200004 1.270097972e-38
2.15458667 0.045466669 0.68200004 1.260914562e-38
2.15588573 0.045466669 0.68200004 1.260878969e-38
2.15718476 0.045466669 0.68200004 1.26087925e-38
2.15848382 0.045466669 0.68200004 1.26087953e-38
2.15978286 0.045466669 0.68200004 1.26087911e-38
2.16108193 0.045466669 0.68200004 1.260914703e-38
2.16238096 0.045466669 0.68200004 1.270134406e-38
2.16368002 0.045466669 0.68200004 1.279246629e-38
2.16497906 0.045466669 0.68200004 1.279174322e-38
2.16579048 0.045333333 0.68000001 1.306796297e-38
2.16708572 0.045333333 0.68000001 1.343602663e-38
2.16838096 0.045333333 0.68000001 1.352750759e-38
2.1696762 0.045333333 0.68000001 1.37104415e-38
2.17097142 0.045333333 0.68000001 1.398592977e-38
2.17226666 0.045333333 0.68000001 1.435365431e-38
2.1735619 0.045333333 0.68000001 1.417036588e-38
2.17485714 0.045333333 0.68000001 1.398702139e-38
2.17615238 0.045333333 0.68000001 1.398663042e-38
2.17744762 0.045333333 0.68000001 1.40781212e-38
2.17874286 0.045333333 0.68000001 1.407813661e-38
2.18003809 0.045333333 0.68000001 1.417033645e-38
2.18133333 0.045333333 0.68000001 1.426325375e-38
2.18262856 0.045333333 0.68000001 1.435437598e-38
2.1839238 0.045333333 0.68000001 1.426290342e-38
2.18521903 0.045333333 0.68000001 1.417141685e-38
2.18651427 0.045333333 0.68000001 1.407921281e-38
2.18836191 0.045466669 0.68200004 1.407921982e-38
2.18966097 0.045466669 0.68200004 1.407958696e-38
2.19096 0.045466669 0.68200004 1.417213572e-38
2.19225906 0.045466669 0.68200004 1.398846052e-38
2.1935581 0.045466669 0.68200004 1.380477691e-38
2.19485715 0.045466669 0.68200004 1.362073458e-38
2.1961562 0.045466669 0.68200004 1.343563706e-38
2.19745526 0.045466669 0.68200004 1.361931646e-38
2.1987543 0.045466669 0.68200004 1.371150789e-38
2.20005335 0.045466669 0.68200004 1.380298185e-38
2.20135239 0.045466669 0.68200004 1.380262452e-38
2.20265144 0.045466669 0.68200004 1.371079183e-38
2.20395048 0.045466669 0.68200004 1.371113094e-38
2.20524953 0.045466669 0.68200004 1.35281592e-38
2.20654857 0.045466669 0.68200004 1.334522529e-38
2.20784764 0.045466669 0.68200004 1.352855857e-38
2.20914668 0.045466669 0.68200004 1.371225058e-38
2.21044573 0.045466669 0.68200004 1.371298906e-38
2.21174477 0.045466669 0.68200004 1.362257448e-38
2.21304382 0.045466669 0.68200004 1.334562045e-38
2.21434286 0.045466669 0.68200004 1.29786372e-38
2.21564192 0.045466669 0.68200004 1.334598059e-38
2.21694095 0.045466669 0.68200004 1.380407907e-38
2.21824001 0.045466669 0.68200004 1.38044364e-38
2.21953905 0.045466669 0.68200004 1.380443079e-38
2.22083811 0.045466669 0.68200004 1.362039687e-38
2.22213715 0.045466669 0.68200004 1.352855857e-38
2.22343621 0.045466669 0.68200004 1.34370804e-38
2.22539428 0.045600001 0.68400002 1.334633091e-38
2.2260343 0.045466669 0.68200004 1.353001311e-38
2.228 0.045600001 0.68400002 1.380587273e-38
2.22997335 0.045733336 0.68600005 1.389734389e-38
2.23128001 0.045733336 0.68600005 1.398879963e-38
2.23258668 0.045733336 0.68600005 1.398842128e-38
2.23389335 0.045733336 0.68600005 1.398842969e-38
2.23554286 0.045800004 0.68700004 1.380404964e-38
2.23685144 0.045800004 0.68700004 1.371150929e-38
2.23816 0.045800004 0.68700004 1.380371613e-38
2.24016573 0.045933332 0.68900001 1.389591316e-38
2.24077715 0.045800004 0.68700004 1.398775286e-38
2.24208573 0.045800004 0.68700004 1.407994009e-38
2.2433943 0.045800004 0.68700004 1.398773885e-38
2.24470288 0.045800004 0.68700004 1.389590616e-38
2.24601144 0.045800004 0.68700004 1.407993868e-38
2.24732 0.045800004 0.68700004 1.417285458e-38
2.2486286 0.045800004 0.68700004 1.407994709e-38
2.24993716 0.045800004 0.68700004 1.389556004e-38
2.25124574 0.045800004 0.68700004 1.435474032e-38
2.2525543 0.045800004 0.68700004 1.481427233e-38
2.25386286 0.045800004 0.68700004 1.453912037e-38
2.25517145 0.045800004 0.68700004 1.435472771e-38
2.25648001 0.045800004 0.68700004 1.43547235e-38
2.25853905 0.045933332 0.68900001 1.444691773e-38
2.25909713 0.045800004 0.68700004 1.435436617e-38
2.26154289 0.046000004 0.69000006 1.417033224e-38
2.2632381 0.046066668 0.69100004 1.407813521e-38
2.26455429 0.046066668 0.69100004 1.398629691e-38
2.26664001 0.0462 0.69300002 1.398593538e-38
2.26796001 0.0462 0.69300002 1.407776807e-38
2.26928002 0.0462 0.69300002 1.398593118e-38
2.27099049 0.046266668 0.69400001 1.38944404e-38
2.27231237 0.046266668 0.69400001 1.398590315e-38
2.27363428 0.046266668 0.69400001 1.407777508e-38
2.2749562 0.046266668 0.69400001 1.426184264e-38
2.27627811 0.046266668 0.69400001 1.453409671e-38
2.27800003 0.046333339 0.69500005 1.425928527e-38
2.27932382 0.046333339 0.69500005 1.398449625e-38
2.28185904 0.046533335 0.69800001 1.380082525e-38
2.28318855 0.046533335 0.69800001 1.36175186e-38
2.28451812 0.046533335 0.69800001 1.38011952e-38
2.28584763 0.046533335 0.69800001 1.4074887e-38
2.28800002 0.046666671 0.70000005 1.361533117e-38
2.28933334 0.046666671 0.70000005 1.324764166e-38
2.29108191 0.046733335 0.70100003 1.324801301e-38
2.29241717 0.046733335 0.70100003 1.333913524e-38
2.29459047 0.046866667 0.70300001 1.324694522e-38
2.29635051 0.046933334 0.70400006 1.315474539e-38
2.29769143 0.046933334 0.70400006 1.306254555e-38
2.29945716 0.047000002 0.70500004 1.297034292e-38
2.30080003 0.047000002 0.70500004 1.278594605e-38
2.30214289 0.047000002 0.70500004 1.260192614e-38
2.30434665 0.047133334 0.70700002 1.241790622e-38
2.30569333 0.047133334 0.70700002 1.223424083e-38
2.30704001 0.047133334 0.70700002 1.214241094e-38
2.30882287 0.047200002 0.708 1.204984116e-38
2.31104761 0.047333337 0.71000004 1.177431926e-38
2.31284001 0.047400001 0.71100003 1.159603346e-38
2.31507811 0.047533337 0.71300006 1.131299779e-38
2.31688002 0.047600001 0.71400005 1.112609541e-38
2.31913143 0.047733337 0.71600002 1.094278175e-38
2.32049525 0.047733337 0.71600002 1.075695836e-38
2.32230857 0.047800001 0.71700001 1.048109454e-38
2.32502857 0.048 0.72000003 1.020524193e-38
2.32776001 0.048200004 0.72300005 1.020633214e-38
2.32913718 0.048200004 0.72300005 1.02059622e-38
2.33142856 0.048333332 0.72500002 9.929728436e-39
2.33326858 0.0484 0.72600001 9.745694508e-39
2.33465144 0.0484 0.72600001 9.471260013e-39
2.33696002 0.048533335 0.72800004 9.289022549e-39
2.33881143 0.048600003 0.72900003 8.644739146e-39
2.34253332 0.048933335 0.73400003 8.000455743e-39
2.3448686 0.04906667 0.73600006 8.181615609e-39
2.34674099 0.049133338 0.73700005 8.270937175e-39
2.3481448 0.049133338 0.73700005 8.181252672e-39
2.35097143 0.04933333 0.74000001 8.082996427e-39
2.35333335 0.04946667 0.74200004 9.289810078e-39
2.35522479 0.049533334 0.74300003 1.049663074e-38
2.35664001 0.049533334 0.74300003 1.225625803e-38
2.35998288 0.049800001 0.74700004 1.410805994e-38
2.36188954 0.049866665 0.74800003 1.503038758e-38
2.3633143 0.049866665 0.74800003 1.604490105e-38
2.36571431 0.050000004 0.75000006 1.594877898e-38
2.36714289 0.050000004 0.75000006 1.585550715e-38
2.086910471 0.046011429 0.671 1.178689592e-38
2.088188574 0.046011429 0.671 1.215245124e-38
2.089600012 0.046080001 0.67200005 1.205918642e-38
2.091150478 0.046217144 0.67400002 1.205881788e-38
2.09257143 0.046285715 0.67500001 1.187513848e-38
2.093857147 0.046285715 0.67500001 1.168895496e-38
2.095283821 0.04635429 0.67600006 1.150313017e-38
2.096428573 0.046285715 0.67500001 1.141128907e-38
2.098148577 0.046491429 0.67800003 1.131944937e-38
2.099146679 0.04635429 0.67600006 1.122547129e-38
2.10073143 0.046491429 0.67800003 1.094818095e-38
2.10217334 0.046560001 0.67900002 1.076306802e-38
2.10361905 0.046628568 0.68000001 9.843269722e-39
2.10491429 0.046628568 0.68000001 8.924558831e-39
2.10620952 0.046628568 0.68000001 9.567411508e-39
2.10750476 0.046628568 0.68000001 1.021205084e-38
2.10879999 0.046628568 0.68000001 1.002837845e-38
2.11009523 0.046628568 0.68000001 9.936194027e-39
2.11139047 0.046628568 0.68000001 1.039502118e-38
2.11268571 0.046628568 0.68000001 1.085384414e-38
2.11398095 0.046628568 0.68000001 1.085349101e-38
2.11527619 0.046628568 0.68000001 1.085528047e-38
2.11657143 0.046628568 0.68000001 1.113293515e-38
2.11786667 0.046628568 0.68000001 1.150063446e-38
2.1191619 0.046628568 0.68000001 1.159282869e-38
2.12081143 0.046765719 0.68200004 1.168466279e-38
2.12211048 0.046765719 0.68200004 1.168466279e-38
2.12340952 0.046765719 0.68200004 1.177577241e-38
2.12489143 0.046834286 0.68300003 1.168356977e-38
2.12619238 0.046834286 0.68300003 1.159245735e-38
2.12749334 0.046834286 0.68300003 1.140986675e-38
2.1287943 0.046834286 0.68300003 1.122655169e-38
2.13009524 0.046834286 0.68300003 1.113542946e-38
2.13139619 0.046834286 0.68300003 1.113507493e-38
2.13269714 0.046834286 0.68300003 1.122691603e-38
2.13399811 0.046834286 0.68300003 1.13184012e-38
2.13529906 0.046834286 0.68300003 1.15020806e-38
2.1366 0.046834286 0.68300003 1.1684674e-38
2.13769907 0.046765719 0.68200004 1.186690866e-38
2.13899811 0.046765719 0.68200004 1.205309498e-38
2.14029716 0.046765719 0.68200004 1.233147553e-38
2.1415962 0.046765719 0.68200004 1.260375343e-38
2.14289525 0.046765719 0.68200004 1.269594766e-38
2.14419429 0.046765719 0.68200004 1.287962005e-38
2.14549334 0.046765719 0.68200004 1.287962145e-38
2.14679238 0.046765719 0.68200004 1.297181008e-38
2.14809144 0.046765719 0.68200004 1.278885234e-38
2.14939049 0.046765719 0.68200004 1.269773712e-38
2.15068954 0.046765719 0.68200004 1.260662189e-38
2.15198858 0.046765719 0.68200004 1.260769808e-38
2.15328763 0.046765719 0.68200004 1.242510329e-38
2.15458667 0.046765719 0.68200004 1.233327059e-38
2.15588573 0.046765719 0.68200004 1.23332748e-38
2.15718476 0.046765719 0.68200004 1.242475296e-38
2.15848382 0.046765719 0.68200004 1.251623253e-38
2.15931429 0.046628568 0.68000001 1.260842396e-38
2.16060953 0.046628568 0.68000001 1.260914002e-38
2.16190477 0.046628568 0.68000001 1.260770509e-38
2.16320001 0.046628568 0.68000001 1.269846439e-38
2.16449524 0.046628568 0.68000001 1.279065862e-38
2.16554667 0.046560001 0.67900002 1.306688397e-38
2.16684 0.046560001 0.67900002 1.334274919e-38
2.16813333 0.046560001 0.67900002 1.343530215e-38
2.16942668 0.046560001 0.67900002 1.361824447e-38
2.17072001 0.046560001 0.67900002 1.407705341e-38
2.17201333 0.046560001 0.67900002 1.462844194e-38
2.1735619 0.046628568 0.68000001 1.426183563e-38
2.17485714 0.046628568 0.68000001 1.398631233e-38
2.17615238 0.046628568 0.68000001 1.389446142e-38
2.17744762 0.046628568 0.68000001 1.380298465e-38
2.17874286 0.046628568 0.68000001 1.398522212e-38
2.18003809 0.046628568 0.68000001 1.42628838e-38
2.18133333 0.046628568 0.68000001 1.417141124e-38
2.18262856 0.046628568 0.68000001 1.408029882e-38
2.1839238 0.046628568 0.68000001 1.408102189e-38
2.18521903 0.046628568 0.68000001 1.408102189e-38
2.18651427 0.046628568 0.68000001 1.371403864e-38
2.18780951 0.046628568 0.68000001 1.343816921e-38
2.18910475 0.046628568 0.68000001 1.380550839e-38
2.19096 0.046765719 0.68200004 1.417213291e-38
2.19225906 0.046765719 0.68200004 1.408029742e-38
2.1935581 0.046765719 0.68200004 1.398845351e-38
2.19485715 0.046765719 0.68200004 1.389660821e-38
2.1961562 0.046765719 0.68200004 1.380513425e-38
2.19745526 0.046765719 0.68200004 1.380549578e-38
2.1987543 0.046765719 0.68200004 1.380334619e-38
2.20005335 0.046765719 0.68200004 1.380334759e-38
2.20135239 0.046765719 0.68200004 1.389519009e-38
2.20265144 0.046765719 0.68200004 1.362005074e-38
2.20395048 0.046765719 0.68200004 1.34360028e-38
2.20524953 0.046765719 0.68200004 1.3068644e-38
2.20654857 0.046765719 0.68200004 1.279422772e-38
2.20784764 0.046765719 0.68200004 1.325342062e-38
2.20914668 0.046765719 0.68200004 1.371296804e-38
2.21044573 0.046765719 0.68200004 1.362150389e-38
2.21174477 0.046765719 0.68200004 1.362149829e-38
2.21304382 0.046765719 0.68200004 1.307048111e-38
2.21434286 0.046765719 0.68200004 1.261130222e-38
2.21564192 0.046765719 0.68200004 1.325450943e-38
2.21694095 0.046765719 0.68200004 1.389699637e-38
2.21824001 0.046765719 0.68200004 1.389663623e-38
2.21953905 0.046765719 0.68200004 1.389627049e-38
2.22083811 0.046765719 0.68200004 1.371367009e-38
2.22213715 0.046765719 0.68200004 1.362146465e-38
2.22278094 0.046628568 0.68000001 1.352926062e-38
2.22473525 0.046765719 0.68200004 1.352964457e-38
2.2260343 0.046765719 0.68200004 1.371369812e-38
2.22766666 0.046834286 0.68300003 1.38973551e-38
2.22930285 0.046902858 0.68400002 1.389770122e-38
2.23060571 0.046902858 0.68400002 1.398881084e-38
2.23190856 0.046902858 0.68400002 1.407956173e-38
2.23321143 0.046902858 0.68400002 1.426251526e-38
2.23451428 0.046902858 0.68400002 1.417032243e-38
2.23581715 0.046902858 0.68400002 1.407956874e-38
2.23712002 0.046902858 0.68400002 1.408029321e-38
2.23946859 0.047108576 0.68700004 1.408065335e-38
2.24042667 0.047040001 0.68600005 1.398917938e-38
2.24208573 0.047108576 0.68700004 1.398810179e-38
2.2433943 0.047108576 0.68700004 1.398738432e-38
2.24434669 0.047040001 0.68600005 1.407958556e-38
2.24565333 0.047040001 0.68600005 1.408031003e-38
2.24696001 0.047040001 0.68600005 1.408066596e-38
2.2486286 0.047108576 0.68700004 1.380587553e-38
2.24993716 0.047108576 0.68700004 1.352857258e-38
2.25088 0.047040001 0.68600005 1.398631233e-38
2.2525543 0.047108576 0.68700004 1.453875603e-38
2.25386286 0.047108576 0.68700004 1.444727506e-38
2.25517145 0.047108576 0.68700004 1.444691633e-38
2.25648001 0.047108576 0.68700004 1.453875183e-38
2.25778857 0.047108576 0.68700004 1.463022999e-38
2.25909713 0.047108576 0.68700004 1.444620307e-38
2.26116383 0.047245715 0.68900001 1.426217475e-38
2.26285717 0.04731429 0.69000006 1.380407486e-38
2.26455429 0.047382858 0.69100004 1.343672868e-38
2.26587051 0.047382858 0.69100004 1.371223096e-38
2.26796001 0.04752 0.69300002 1.407850095e-38
2.26928002 0.04752 0.69300002 1.416962319e-38
2.27059999 0.04752 0.69300002 1.43536389e-38
2.27192003 0.04752 0.69300002 1.426035586e-38
2.27363428 0.047588572 0.69400001 1.416925465e-38
2.2749562 0.047588572 0.69400001 1.417034766e-38
2.27627811 0.047588572 0.69400001 1.416925324e-38
2.27760002 0.047588572 0.69400001 1.398448924e-38
2.27932382 0.047657147 0.69500005 1.380045951e-38
2.28145525 0.047794286 0.69700003 1.361822345e-38
2.28318855 0.047862858 0.69800001 1.343347906e-38
2.28451812 0.047862858 0.69800001 1.352495863e-38
2.28584763 0.047862858 0.69800001 1.370790235e-38
2.28800002 0.048 0.70000005 1.325050872e-38
2.28933334 0.048 0.70000005 1.288102836e-38
2.29108191 0.048068576 0.70100003 1.306471336e-38
2.29241717 0.048068576 0.70100003 1.324730675e-38
2.29459047 0.048205715 0.70300001 1.315403633e-38
2.29592952 0.048205715 0.70300001 1.306219523e-38
2.29769143 0.04827429 0.70400006 1.296963666e-38
2.29945716 0.048342858 0.70500004 1.296891499e-38
2.30080003 0.048342858 0.70500004 1.278488106e-38
2.30214289 0.048342858 0.70500004 1.260122549e-38
2.30434665 0.04848 0.70700002 1.232752807e-38
2.30569333 0.04848 0.70700002 1.214241234e-38
2.30704001 0.04848 0.70700002 1.195873154e-38
2.30838665 0.04848 0.70700002 1.186580864e-38
2.31104761 0.048685715 0.71000004 1.149773938e-38
2.31372002 0.048891433 0.71300006 1.122151683e-38
2.31552002 0.048960004 0.71400005 1.103713117e-38
2.31688002 0.048960004 0.71400005 1.085058892e-38
2.31957713 0.049165715 0.71700001 1.066691653e-38
2.32094285 0.049165715 0.71700001 1.05747223e-38
2.32365716 0.049371433 0.72000003 1.029921721e-38
2.32593146 0.049508575 0.72200006 1.002335619e-38
2.32776001 0.049577147 0.72300005 9.839330672e-39
2.32913718 0.049577147 0.72300005 9.747490972e-39
2.33142856 0.049714286 0.72500002 9.652781413e-39
2.3341867 0.049920004 0.72800004 9.560585783e-39
2.33557335 0.049920004 0.72800004 9.285076492e-39
2.33834857 0.050125714 0.73100001 9.100327901e-39
2.34113526 0.050331432 0.73400003 8.089418577e-39
2.34253332 0.050331432 0.73400003 7.075668822e-39
2.3448686 0.050468575 0.73600006 7.347616012e-39
2.34674099 0.050537147 0.73700005 7.626356697e-39
2.34908953 0.050674286 0.73900002 8.088766974e-39
2.35097143 0.050742857 0.74000001 8.567719578e-39
2.35333335 0.050880004 0.74200004 1.207760229e-38
2.35522479 0.050948571 0.74300003 1.557418528e-38
2.35760003 0.051085718 0.74500006 1.631570338e-38
2.35901907 0.051085718 0.74500006 1.705003982e-38
2.36188954 0.051291432 0.74800003 1.677418581e-38
2.3633143 0.051291432 0.74800003 1.65901687e-38
2.36571431 0.051428575 0.75000006 1.622283933e-38
2.36714289 0.051428575 0.75000006 1.585478128e-38
2.088188574 0.047289524 0.671 1.233721805e-38
2.089600012 0.047360003 0.67200005 1.224395884e-38
2.091150478 0.047500957 0.67400002 1.224322316e-38
2.092434287 0.047500957 0.67400002 1.205989268e-38
2.093857147 0.047571428 0.67500001 1.196876904e-38
2.095142856 0.047571428 0.67500001 1.187621188e-38
2.096428573 0.047571428 0.67500001 1.178365752e-38
2.098148577 0.047782857 0.67800003 1.178329738e-38
2.099146679 0.047641911 0.67600006 1.187478676e-38
2.10073143 0.047782857 0.67800003 1.169005358e-38
2.10232381 0.047923807 0.68000001 1.150529098e-38
2.10361905 0.047923807 0.68000001 1.095175146e-38
2.10491429 0.047923807 0.68000001 1.030639186e-38
2.10620952 0.047923807 0.68000001 1.039715116e-38
2.10750476 0.047923807 0.68000001 1.057974735e-38
2.10879999 0.047923807 0.68000001 1.021240817e-38
2.11009523 0.047923807 0.68000001 9.93690869e-39
2.11139047 0.047923807 0.68000001 9.935123435e-39
2.11268571 0.047923807 0.68000001 1.002552961e-38
2.11398095 0.047923807 0.68000001 1.020992507e-38
2.11527619 0.047923807 0.68000001 1.048578749e-38
2.11657143 0.047923807 0.68000001 1.058120751e-38
2.11786667 0.047923807 0.68000001 1.067375626e-38
2.11951239 0.048064765 0.68200004 1.085598812e-38
2.12081143 0.048064765 0.68200004 1.094675022e-38
2.12211048 0.048064765 0.68200004 1.113078275e-38
2.12340952 0.048064765 0.68200004 1.131480127e-38
2.12470857 0.048064765 0.68200004 1.131443272e-38
2.12619238 0.04813524 0.68300003 1.131407259e-38
2.12749334 0.04813524 0.68300003 1.113075893e-38
2.1287943 0.04813524 0.68300003 1.09478068e-38
2.13009524 0.04813524 0.68300003 1.09488844e-38
2.13139619 0.04813524 0.68300003 1.095032213e-38
2.13250287 0.048064765 0.68200004 1.09510438e-38
2.13380191 0.048064765 0.68200004 1.104539323e-38
2.13510096 0.048064765 0.68200004 1.12265573e-38
2.1364 0.048064765 0.68200004 1.141023249e-38
2.13769907 0.048064765 0.68200004 1.159390769e-38
2.13899811 0.048064765 0.68200004 1.177794162e-38
2.14029716 0.048064765 0.68200004 1.196090075e-38
2.1415962 0.048064765 0.68200004 1.223569258e-38
2.14289525 0.048064765 0.68200004 1.232645608e-38
2.14419429 0.048064765 0.68200004 1.250905088e-38
2.14549334 0.048064765 0.68200004 1.250976834e-38
2.14679238 0.048064765 0.68200004 1.2510476e-38
2.14809144 0.048064765 0.68200004 1.242078449e-38
2.14939049 0.048064765 0.68200004 1.232823293e-38
2.15068954 0.048064765 0.68200004 1.223747643e-38
2.15198858 0.048064765 0.68200004 1.214671573e-38
2.15328763 0.048064765 0.68200004 1.205416277e-38
2.15458667 0.048064765 0.68200004 1.196197274e-38
2.15542857 0.047923807 0.68000001 1.196305455e-38
2.15672381 0.047923807 0.68000001 1.205596764e-38
2.15801905 0.047923807 0.68000001 1.214708707e-38
2.15931429 0.047923807 0.68000001 1.233039793e-38
2.16060953 0.047923807 0.68000001 1.23300392e-38
2.16190477 0.047923807 0.68000001 1.232967767e-38
2.16295999 0.047853336 0.67900002 1.242115163e-38
2.16425334 0.047853336 0.67900002 1.260446949e-38
2.16554667 0.047853336 0.67900002 1.269702806e-38
2.16684 0.047853336 0.67900002 1.288177104e-38
2.16813333 0.047853336 0.67900002 1.306723149e-38
2.16942668 0.047853336 0.67900002 1.325269475e-38
2.17072001 0.047853336 0.67900002 1.361716547e-38
2.17176001 0.047782857 0.67800003 1.40734829e-38
2.17330666 0.047853336 0.67900002 1.388982312e-38
2.17460001 0.047853336 0.67900002 1.379798762e-38
2.17589334 0.047853336 0.67900002 1.380014142e-38
2.17718667 0.047853336 0.67900002 1.3803356e-38
2.17848 0.047853336 0.67900002 1.41710427e-38
2.17977335 0.047853336 0.67900002 1.463093905e-38
2.18106668 0.047853336 0.67900002 1.42639572e-38
2.18236001 0.047853336 0.67900002 1.399025138e-38
2.18365332 0.047853336 0.67900002 1.399025979e-38
2.18494667 0.047853336 0.67900002 1.408210369e-38
2.18624 0.047853336 0.67900002 1.408247223e-38
2.18780951 0.047923807 0.68000001 1.417501118e-38
2.18910475 0.047923807 0.68000001 1.417356224e-38
2.19096 0.048064765 0.68200004 1.426396701e-38
2.19225906 0.048064765 0.68200004 1.408030022e-38
2.1935581 0.048064765 0.68200004 1.389662362e-38
2.19485715 0.048064765 0.68200004 1.371330576e-38
2.19558094 0.047923807 0.68000001 1.362469605e-38
2.19687618 0.047923807 0.68000001 1.371222395e-38
2.1987543 0.048064765 0.68200004 1.389554322e-38
2.19946666 0.047923807 0.68000001 1.407886249e-38
2.2007619 0.047923807 0.68000001 1.426398102e-38
2.20205714 0.047923807 0.68000001 1.389665165e-38
2.20335238 0.047923807 0.68000001 1.362256327e-38
2.20464762 0.047923807 0.68000001 1.334668264e-38
2.20594285 0.047923807 0.68000001 1.316266272e-38
2.20723809 0.047923807 0.68000001 1.343746155e-38
2.20853333 0.047923807 0.68000001 1.371332818e-38
2.20982857 0.047923807 0.68000001 1.371333098e-38
2.21112381 0.047923807 0.68000001 1.371333378e-38
2.21241905 0.047923807 0.68000001 1.352966699e-38
2.21371429 0.047923807 0.68000001 1.334563447e-38
2.21500953 0.047923807 0.68000001 1.362185702e-38
