# .PCD v0.7 - Point Cloud Data file format
VERSION 0.7
FIELDS x y z rgb
SIZE 4 4 4 4
TYPE F F F F
COUNT 1 1 1 1
WIDTH 960
HEIGHT 1
VIEWPOINT 0 0 0 1 0 0 0
POINTS 960
DATA ascii
2.31700572 -0.016845714 0.80400002 1.472460464e-38
2.31932953 -0.01688762 0.80600005 1.426543277e-38
2.32166097 -0.016929524 0.80800003 1.380660561e-38
2.324 -0.01697143 0.81000006 1.38984341e-38
2.32634667 -0.017013334 0.81200004 1.398990946e-38
2.32789335 -0.017013334 0.81200004 1.39891906e-38
2.33025143 -0.01705524 0.81400001 1.389592437e-38
2.33220956 -0.017076191 0.81500006 1.34367525e-38
2.3337619 -0.017076191 0.81500006 1.288610526e-38
2.3353143 -0.017076191 0.81500006 1.261275817e-38
2.24137142 -0.014628571 0.76800001 9.024276631e-39
2.24346668 -0.014666667 0.77000004 9.026789159e-39
2.24652381 -0.014761905 0.77500004 9.113962535e-39
2.24800003 -0.014761905 0.77500004 8.833795328e-39
2.24883239 -0.01472381 0.77300006 8.556492375e-39
2.25095239 -0.014761905 0.77500004 7.726742917e-39
2.25242859 -0.014761905 0.77500004 6.993137947e-39
2.25390476 -0.014761905 0.77500004 7.635630491e-39
2.25538096 -0.014761905 0.77500004 8.369596995e-39
2.25586286 -0.014704762 0.77200001 8.552910656e-39
2.25766668 -0.01472381 0.77300006 8.828418546e-39
2.25913906 -0.01472381 0.77300006 9.103926436e-39
2.26061144 -0.01472381 0.77300006 9.381963669e-39
2.26174477 -0.014704762 0.77200001 9.751477667e-39
2.26321524 -0.014704762 0.77200001 1.011916437e-38
2.26468572 -0.014704762 0.77200001 1.048684967e-38
2.26650098 -0.01472381 0.77300006 1.085420567e-38
2.26797333 -0.01472381 0.77300006 1.094641531e-38
2.26944575 -0.01472381 0.77300006 1.11300765e-38
2.2709181 -0.01472381 0.77300006 1.09463971e-38
2.27239048 -0.01472381 0.77300006 1.085383573e-38
2.27457145 -0.014761905 0.77500004 1.067015493e-38
2.27604762 -0.014761905 0.77500004 1.05779663e-38
2.27752382 -0.014761905 0.77500004 1.057797051e-38
2.27900001 -0.014761905 0.77500004 1.066944587e-38
2.28047618 -0.014761905 0.77500004 1.103642772e-38
2.28195238 -0.014761905 0.77500004 1.140556617e-38
2.28416002 -0.0148 0.77700001 1.140521024e-38
2.28564 -0.0148 0.77700001 1.149633388e-38
2.28712001 -0.0148 0.77700001 1.186332273e-38
2.28971431 -0.014857143 0.78000003 1.223317585e-38
2.29120001 -0.014857143 0.78000003 1.24186419e-38
2.29268572 -0.014857143 0.78000003 1.260266322e-38
2.29492575 -0.014895239 0.78200006 1.27895558e-38
2.29717335 -0.014933334 0.78400004 1.306577134e-38
2.29942855 -0.014971429 0.78600001 1.30664818e-38
2.30169144 -0.015009525 0.78800005 1.306541962e-38
2.30319241 -0.015009525 0.78800005 1.269737418e-38
2.30662668 -0.015104762 0.79300004 1.233147273e-38
2.31008002 -0.015200001 0.79800004 1.325342202e-38
2.31316191 -0.015276191 0.80200005 1.417286019e-38
2.31468952 -0.015276191 0.80200005 1.454020918e-38
2.31700572 -0.015314286 0.80400002 1.500046566e-38
2.31932953 -0.015352381 0.80600005 1.463492014e-38
2.32166097 -0.015390476 0.80800003 1.426577889e-38
2.324 -0.015428572 0.81000006 1.417429792e-38
2.32634667 -0.015466668 0.81200004 1.417286019e-38
2.32870096 -0.015504763 0.81400001 1.389663343e-38
2.33065718 -0.015523811 0.81500006 1.371296664e-38
2.33302477 -0.015561905 0.81700003 1.343746436e-38
2.33540002 -0.015600001 0.81900007 1.316267814e-38
2.33778289 -0.015638094 0.82100004 1.270458106e-38
2.33934668 -0.015638094 0.82100004 1.224796375e-38
2.24652381 -0.013285715 0.77500004 9.853674364e-39
2.24800003 -0.013285715 0.77500004 9.478801801e-39
2.24947619 -0.013285715 0.77500004 9.110739549e-39
2.25095239 -0.013285715 0.77500004 8.649408272e-39
2.25308001 -0.01332 0.77700001 8.188434327e-39
2.25455999 -0.01332 0.77700001 8.278833492e-39
2.25604001 -0.01332 0.77700001 8.461429689e-39
2.25685716 -0.013285715 0.77500004 8.369238263e-39
2.25833333 -0.013285715 0.77500004 8.368876728e-39
2.25980952 -0.013285715 0.77500004 8.645456611e-39
2.26128572 -0.013285715 0.77500004 9.013527271e-39
2.26208383 -0.013251429 0.77300006 9.291198765e-39
2.26355618 -0.013251429 0.77300006 9.566696846e-39
2.2650286 -0.013251429 0.77300006 9.93510662e-39
2.26719049 -0.013285715 0.77500004 1.030317588e-38
2.26866665 -0.013285715 0.77500004 1.048649935e-38
2.27014288 -0.013285715 0.77500004 1.07616471e-38
2.27161905 -0.013285715 0.77500004 1.066945428e-38
2.27379999 -0.01332 0.77700001 1.057760757e-38
2.27528 -0.01332 0.77700001 1.057759776e-38
2.27675998 -0.01332 0.77700001 1.057759776e-38
2.27824 -0.01332 0.77700001 1.04861224e-38
2.27971998 -0.01332 0.77700001 1.03921275e-38
2.28119999 -0.01332 0.77700001 1.057830261e-38
2.28268 -0.01332 0.77700001 1.085452797e-38
2.28416002 -0.01332 0.77700001 1.085345457e-38
2.28564 -0.01332 0.77700001 1.085203086e-38
2.28785905 -0.013354287 0.77900004 1.112934362e-38
2.28971431 -0.013371429 0.78000003 1.149704994e-38
2.29120001 -0.013371429 0.78000003 1.177507456e-38
2.29343623 -0.013405715 0.78200006 1.205164183e-38
2.29568002 -0.01344 0.78400004 1.241968587e-38
2.29793143 -0.013474287 0.78600001 1.269626295e-38
2.30019048 -0.013508572 0.78800005 1.288136467e-38
2.30207428 -0.013525715 0.78900003 1.306649021e-38
2.30434665 -0.01356 0.79100001 1.2974317e-38
2.30817336 -0.013662858 0.79700005 1.288213258e-38
2.31008002 -0.01368 0.79800004 1.352929565e-38
2.31316191 -0.013748572 0.80200005 1.417322172e-38
2.31468952 -0.013748572 0.80200005 1.444908834e-38
2.31700572 -0.013782857 0.80400002 1.47253123e-38
2.31932953 -0.013817144 0.80600005 1.454164271e-38
2.32166097 -0.013851429 0.80800003 1.435797031e-38
2.324 -0.013885715 0.81000006 1.454092244e-38
2.32634667 -0.013920001 0.81200004 1.481534712e-38
2.32870096 -0.013954286 0.81400001 1.426432994e-38
2.33065718 -0.013971429 0.81500006 1.380515527e-38
2.33302477 -0.014005714 0.81700003 1.353037045e-38
2.33540002 -0.014040002 0.81900007 1.325629889e-38
2.33696002 -0.014040002 0.81900007 1.288823944e-38
2.33934668 -0.014074286 0.82100004 1.25177137e-38
2.34091049 -0.014074286 0.82100004 1.26135415e-38
2.24947619 -0.011809524 0.77500004 9.755028557e-39
2.2516 -0.01184 0.77700001 9.569911424e-39
2.25308001 -0.01184 0.77700001 9.384805503e-39
2.25455999 -0.01184 0.77700001 9.016028588e-39
2.25604001 -0.01184 0.77700001 8.646894343e-39
2.25751999 -0.01184 0.77700001 8.27811883e-39
2.25833333 -0.011809524 0.77500004 7.910056578e-39
2.25980952 -0.011809524 0.77500004 8.279188021e-39
2.26128572 -0.011809524 0.77500004 8.646905553e-39
2.26276192 -0.011809524 0.77500004 8.831310826e-39
2.26423809 -0.011809524 0.77500004 9.106806104e-39
2.26571429 -0.011809524 0.77500004 9.475573209e-39
2.26788002 -0.01184 0.77700001 9.842563468e-39
2.26936001 -0.01184 0.77700001 1.011771823e-38
2.27083999 -0.01184 0.77700001 1.039322192e-38
2.27232 -0.01184 0.77700001 1.039357785e-38
2.27450478 -0.011870476 0.77900004 1.039464704e-38
2.27598858 -0.011870476 0.77900004 1.048755313e-38
2.27675998 -0.01184 0.77700001 1.057867256e-38
2.27824 -0.01184 0.77700001 1.039464283e-38
2.28044 -0.011870476 0.77900004 1.021132637e-38
2.28228572 -0.011885715 0.78000003 1.021203823e-38
2.28377146 -0.011885715 0.78000003 1.03035192e-38
2.28489146 -0.011870476 0.77900004 1.030208847e-38
2.28637525 -0.011870476 0.77900004 1.030281154e-38
2.28822857 -0.011885715 0.78000003 1.04872056e-38
2.29045716 -0.011916191 0.78200006 1.076343656e-38
2.29194671 -0.011916191 0.78200006 1.113150162e-38
2.29418668 -0.011946667 0.78400004 1.159246575e-38
2.29643428 -0.011977143 0.78600001 1.196015806e-38
2.29868954 -0.012007619 0.78800005 1.241897541e-38
2.30057144 -0.012022858 0.78900003 1.278595726e-38
2.30283999 -0.012053333 0.79100001 1.315689778e-38
2.30511621 -0.01208381 0.79300004 1.325233181e-38
2.30817336 -0.012144762 0.79700005 1.343673848e-38
2.31008002 -0.01216 0.79800004 1.380517628e-38
2.31238094 -0.012190476 0.80000001 1.417287e-38
2.31468952 -0.012220953 0.80200005 1.435796891e-38
2.31700572 -0.012251428 0.80400002 1.454128537e-38
2.31932953 -0.012281906 0.80600005 1.454021338e-38
2.32166097 -0.012312382 0.80800003 1.454021618e-38
2.324 -0.012342858 0.81000006 1.499939787e-38
2.32634667 -0.012373334 0.81200004 1.545820681e-38
2.32870096 -0.012403809 0.81400001 1.463096147e-38
2.33065718 -0.012419049 0.81500006 1.38973537e-38
2.33302477 -0.012449524 0.81700003 1.362328214e-38
2.33540002 -0.012480001 0.81900007 1.343996287e-38
2.33696002 -0.012480001 0.81900007 1.316373331e-38
2.33934668 -0.012510477 0.82100004 1.288609965e-38
2.34091049 -0.012510477 0.82100004 1.279285445e-38
2.2516 -0.01036 0.77700001 9.84828497e-39
2.25308001 -0.01036 0.77700001 9.756450875e-39
2.25455999 -0.01036 0.77700001 9.47986959e-39
2.25604001 -0.01036 0.77700001 9.11145281e-39
2.25751999 -0.01036 0.77700001 8.740524902e-39
2.259 -0.01036 0.77700001 8.461426886e-39
2.26047999 -0.01036 0.77700001 8.55505184e-39
2.26196 -0.01036 0.77700001 8.740178782e-39
2.26343998 -0.01036 0.77700001 8.831317833e-39
2.26560193 -0.010386666 0.77900004 8.922781985e-39
2.2670857 -0.010386666 0.77900004 9.106799098e-39
2.26856953 -0.010386666 0.77900004 9.382667121e-39
2.27005336 -0.010386666 0.77900004 9.56670105e-39
2.27153715 -0.010386666 0.77900004 9.842200532e-39
2.27337143 -0.0104 0.78000003 9.93510662e-39
2.27485713 -0.0104 0.78000003 1.002801691e-38
2.27634287 -0.0104 0.78000003 1.03953575e-38
2.27782857 -0.0104 0.78000003 1.076305821e-38
2.27931428 -0.0104 0.78000003 1.039500016e-38
2.28152004 -0.010426668 0.78200006 1.002729664e-38
2.28300956 -0.010426668 0.78200006 1.002801131e-38
2.28449908 -0.010426668 0.78200006 1.002837564e-38
2.28525716 -0.0104 0.78000003 1.002802392e-38
2.28674287 -0.0104 0.78000003 1.011949928e-38
2.28822857 -0.0104 0.78000003 1.030352901e-38
2.29045716 -0.010426668 0.78200006 1.058047603e-38
2.29269335 -0.010453334 0.78400004 1.085563079e-38
2.29493713 -0.01048 0.78600001 1.122512517e-38
2.29718858 -0.010506667 0.78800005 1.159246716e-38
2.29906857 -0.01052 0.78900003 1.196016927e-38
2.30133334 -0.010546667 0.79100001 1.241791463e-38
2.30360574 -0.010573333 0.79300004 1.287386492e-38
2.3058857 -0.0106 0.79500002 1.316013478e-38
2.30817336 -0.010626667 0.79700005 1.343746296e-38
2.31008002 -0.010640001 0.79800004 1.380483437e-38
2.31238094 -0.010666667 0.80000001 1.417251967e-38
2.31468952 -0.010693334 0.80200005 1.435689271e-38
2.31700572 -0.010720001 0.80400002 1.454128818e-38
2.31932953 -0.010746667 0.80600005 1.454057772e-38
2.32086477 -0.010746667 0.80600005 1.454022739e-38
2.32320002 -0.010773334 0.80800003 1.472354806e-38
2.3255429 -0.010800001 0.81000006 1.490828124e-38
2.32789335 -0.010826667 0.81200004 1.444873241e-38
2.33025143 -0.010853333 0.81400001 1.398955213e-38
2.33302477 -0.010893334 0.81700003 1.38065958e-38
2.33540002 -0.01092 0.81900007 1.362362826e-38
2.33696002 -0.01092 0.81900007 1.334739169e-38
2.33934668 -0.010946667 0.82100004 1.307117195e-38
2.34091049 -0.010946667 0.82100004 1.288643036e-38
2.25455999 -0.0088800006 0.77700001 9.942274262e-39
2.25604001 -0.0088800006 0.77700001 9.664620984e-39
2.25818285 -0.008902858 0.77900004 9.295490942e-39
2.25966668 -0.008902858 0.77900004 9.017467722e-39
2.26115048 -0.008902858 0.77900004 8.923115494e-39
2.26263431 -0.008902858 0.77900004 8.922053309e-39
2.26411811 -0.008902858 0.77900004 8.829514361e-39
2.26594287 -0.0089142863 0.78000003 8.738389324e-39
2.26742858 -0.0089142863 0.78000003 8.830216412e-39
2.26856953 -0.008902858 0.77900004 8.922770774e-39
2.27005336 -0.008902858 0.77900004 9.107878097e-39
2.27188572 -0.0089142863 0.78000003 9.291902217e-39
2.27337143 -0.0089142863 0.78000003 9.478078731e-39
2.27556193 -0.0089371437 0.78200006 9.661749723e-39
2.27776 -0.0089600012 0.78400004 1.03045982e-38
2.27925333 -0.0089600012 0.78400004 1.103892483e-38
2.2807467 -0.0089600012 0.78400004 1.039572043e-38
2.28296 -0.0089828568 0.78600001 9.84434592e-39
2.28445715 -0.0089828568 0.78600001 9.844343117e-39
2.2859543 -0.0089828568 0.78600001 9.844350124e-39
2.28672004 -0.0089600012 0.78400004 9.84435713e-39
2.28747812 -0.0089371437 0.78200006 9.936187021e-39
2.28970668 -0.0089600012 0.78400004 1.012021114e-38
2.29120001 -0.0089600012 0.78400004 1.039572183e-38
2.29418668 -0.0090057142 0.78800005 1.067159266e-38
2.29568762 -0.0090057142 0.78800005 1.094710195e-38
2.2975657 -0.0090171434 0.78900003 1.122297137e-38
2.29982665 -0.0090400008 0.79100001 1.159246435e-38
2.30285713 -0.0090857139 0.79500002 1.20502055e-38
2.30437142 -0.0090857139 0.79500002 1.260516874e-38
2.30665523 -0.0091085723 0.79700005 1.306829508e-38
2.30856001 -0.0091200005 0.79800004 1.352893131e-38
2.31085715 -0.009142857 0.80000001 1.389557825e-38
2.31238094 -0.009142857 0.80000001 1.426399223e-38
2.31468952 -0.0091657145 0.80200005 1.444801775e-38
2.31700572 -0.0091885719 0.80400002 1.463240901e-38
2.31853715 -0.0091885719 0.80400002 1.463276914e-38
2.32086477 -0.0092114294 0.80600005 1.463169995e-38
2.32320002 -0.0092342859 0.80800003 1.453987146e-38
2.32473907 -0.0092342859 0.80800003 1.444874362e-38
2.32789335 -0.0092799999 0.81200004 1.426578029e-38
2.33025143 -0.0093028564 0.81400001 1.408210509e-38
2.33220956 -0.0093142865 0.81500006 1.399026399e-38
2.33458099 -0.009337144 0.81700003 1.389842289e-38
2.33696002 -0.0093600005 0.81900007 1.362290939e-38
2.33852002 -0.0093600005 0.81900007 1.334669105e-38
2.34091049 -0.009382857 0.82100004 1.307083143e-38
2.34247431 -0.009382857 0.82100004 1.279426136e-38
2.25751999 -0.0074 0.77700001 9.755035563e-39
2.25966668 -0.0074190479 0.77900004 9.47844447e-39
2.26115048 -0.0074190479 0.77900004 9.385884502e-39
2.26297146 -0.0074285716 0.78000003 9.201503052e-39
2.26513526 -0.0074476195 0.78200006 9.015688073e-39
2.26662478 -0.0074476195 0.78200006 8.73838512e-39
2.2681143 -0.0074476195 0.78200006 8.554711325e-39
2.26891431 -0.0074285716 0.78000003 8.462874427e-39
2.27040002 -0.0074285716 0.78000003 8.372472459e-39
2.27258289 -0.0074476195 0.78200006 8.374261918e-39
2.27407241 -0.0074476195 0.78200006 8.649764202e-39
2.27556193 -0.0074476195 0.78200006 8.833793927e-39
2.27776 -0.0074666669 0.78400004 9.291537879e-39
2.27925333 -0.0074666669 0.78400004 9.749641966e-39
2.28146288 -0.0074857143 0.78600001 9.474857146e-39
2.28368002 -0.0075047626 0.78800005 9.291900816e-39
2.28518099 -0.0075047626 0.78800005 9.383734911e-39
2.28704572 -0.0075142859 0.78900003 9.567771642e-39
2.28854859 -0.0075142859 0.78900003 9.659614144e-39
2.29005143 -0.0075142859 0.78900003 9.749286036e-39
2.2915543 -0.0075142859 0.78900003 1.002550018e-38
2.2938 -0.0075333333 0.79100001 1.039392116e-38
2.29456002 -0.0075142859 0.78900003 1.066979059e-38
2.29681331 -0.0075333333 0.79100001 1.094566282e-38
2.29832 -0.0075333333 0.79100001 1.140628363e-38
2.30134284 -0.0075714285 0.79500002 1.177613114e-38
2.30361906 -0.0075904764 0.79700005 1.223673935e-38
2.30513716 -0.0075904764 0.79700005 1.270094469e-38
2.30665523 -0.0075904764 0.79700005 1.316048651e-38
2.30856001 -0.0076000006 0.79800004 1.3620757e-38
2.31085715 -0.0076190475 0.80000001 1.38962817e-38
2.31238094 -0.0076190475 0.80000001 1.42636307e-38
2.31468952 -0.0076380954 0.80200005 1.435619066e-38
2.31700572 -0.0076571428 0.80400002 1.454021759e-38
2.31853715 -0.0076571428 0.80400002 1.472352704e-38
2.32086477 -0.0076761907 0.80600005 1.481500801e-38
2.3224 -0.0076761907 0.80600005 1.472353685e-38
2.32473907 -0.0076952381 0.80800003 1.463205448e-38
2.32708573 -0.007714286 0.81000006 1.435797732e-38
2.32944003 -0.0077333339 0.81200004 1.417394059e-38
2.33220956 -0.0077619054 0.81500006 1.408209808e-38
2.3337619 -0.0077619054 0.81500006 1.399026259e-38
2.33613715 -0.0077809524 0.81700003 1.3806593e-38
2.33769333 -0.0077809524 0.81700003 1.362256888e-38
2.34008002 -0.0078000003 0.81900007 1.334706799e-38
2.34247431 -0.0078190472 0.82100004 1.307189782e-38
2.3440381 -0.0078190472 0.82100004 1.251799256e-38
2.25751999 -0.0059199999 0.77700001 1.02145942e-38
2.25966668 -0.0059352382 0.77900004 1.003270566e-38
2.26215622 -0.0059580957 0.78200006 9.759338951e-39
2.26364574 -0.0059580957 0.78200006 9.572084838e-39
2.26513526 -0.0059580957 0.78200006 9.203312128e-39
2.26730669 -0.0059733335 0.78400004 8.834172277e-39
2.26880002 -0.0059733335 0.78400004 8.366739747e-39
2.26960382 -0.0059580957 0.78200006 8.001547355e-39
2.27109334 -0.0059580957 0.78200006 7.729266655e-39
2.27258289 -0.0059580957 0.78200006 7.546307523e-39
2.27407241 -0.0059580957 0.78200006 7.822525871e-39
2.27626669 -0.0059733335 0.78400004 8.097313493e-39
2.27846858 -0.0059885713 0.78600001 8.280267021e-39
2.28067809 -0.0060038096 0.78800005 8.462518497e-39
2.28217906 -0.0060038096 0.78800005 8.644053911e-39
2.28404 -0.0060114288 0.78900003 8.82986889e-39
2.28626668 -0.0060266666 0.79100001 9.01568527e-39
2.28777334 -0.0060266666 0.79100001 9.291198765e-39
2.28928003 -0.0060266666 0.79100001 9.475235496e-39
2.29078665 -0.0060266666 0.79100001 9.657816278e-39
2.29229331 -0.0060266666 0.79100001 1.002335199e-38
2.29454288 -0.0060419049 0.79300004 1.039321071e-38
2.29530665 -0.0060266666 0.79100001 1.066908153e-38
2.29756382 -0.0060419049 0.79300004 1.103750672e-38
2.29982859 -0.0060571427 0.79500002 1.149812614e-38
2.30134284 -0.0060571427 0.79500002 1.20534411e-38
2.30361906 -0.006072381 0.79700005 1.242329281e-38
2.30513716 -0.006072381 0.79700005 1.27927942e-38
2.30704004 -0.0060800002 0.79800004 1.325269615e-38
2.30856001 -0.0060800002 0.79800004 1.37126023e-38
2.31008002 -0.0060800002 0.79800004 1.398883747e-38
2.31238094 -0.006095238 0.80000001 1.426435096e-38
2.31468952 -0.0061104763 0.80200005 1.435619206e-38
2.31621715 -0.0061104763 0.80200005 1.453949732e-38
2.31853715 -0.0061257142 0.80400002 1.48149982e-38
2.3200686 -0.0061257142 0.80400002 1.509051029e-38
2.3224 -0.0061409529 0.80600005 1.490720364e-38
2.32393524 -0.0061409529 0.80600005 1.481573108e-38
2.32627809 -0.0061561908 0.80800003 1.454202246e-38
2.32944003 -0.0061866669 0.81200004 1.435725985e-38
2.33180189 -0.0062019047 0.81400001 1.417393358e-38
2.3337619 -0.0062095243 0.81500006 1.408209528e-38
2.3353143 -0.0062095243 0.81500006 1.399025698e-38
2.33686668 -0.0062095243 0.81500006 1.38984341e-38
2.33924952 -0.0062247622 0.81700003 1.362294022e-38
2.34247431 -0.0062552383 0.82100004 1.343853775e-38
2.3457143 -0.0062857145 0.82500005 1.297791133e-38
2.34560192 -0.0062552383 0.82100004 1.251912621e-38
2.34716573 -0.0062552383 0.82100004 1.252023604e-38
2.26215622 -0.0044685719 0.78200006 9.849754932e-39
2.26364574 -0.0044685719 0.78200006 9.665725207e-39
2.26581332 -0.0044800006 0.78400004 9.297665758e-39
2.26730669 -0.0044800006 0.78400004 9.021794931e-39
2.26880002 -0.0044800006 0.78400004 8.556514796e-39
2.26960382 -0.0044685719 0.78200006 8.183427488e-39
2.27109334 -0.0044685719 0.78200006 7.266861984e-39
2.27258289 -0.0044685719 0.78200006 6.442487907e-39
2.27477336 -0.0044800006 0.78400004 6.992776412e-39
2.27626669 -0.0044800006 0.78400004 7.543427854e-39
2.28024 -0.0045200004 0.79100001 7.818574209e-39
2.28174669 -0.0045200004 0.79100001 8.002274629e-39
2.28325334 -0.0045200004 0.79100001 8.185616316e-39
2.28548002 -0.0045314287 0.79300004 8.459673862e-39
2.28699049 -0.0045314287 0.79300004 8.647276897e-39
2.28850096 -0.0045314287 0.79300004 8.923507857e-39
2.29001144 -0.0045314287 0.79300004 9.199021352e-39
2.29152194 -0.0045314287 0.79300004 9.566706655e-39
2.29303241 -0.0045314287 0.79300004 1.002550999e-38
2.29454288 -0.0045314287 0.79300004 1.057617124e-38
2.29605335 -0.0045314287 0.79300004 1.085276093e-38
2.2983143 -0.0045428569 0.79500002 1.122154345e-38
2.30058289 -0.0045542861 0.79700005 1.168431526e-38
2.30248001 -0.0045600003 0.79800004 1.214708147e-38
2.30400002 -0.0045600003 0.79800004 1.260805401e-38
2.30552003 -0.0045600003 0.79800004 1.297683934e-38
2.30780953 -0.0045714285 0.80000001 1.343674269e-38
2.30933335 -0.0045714285 0.80000001 1.389628311e-38
2.31085715 -0.0045714285 0.80000001 1.408031844e-38
2.31316191 -0.0045828572 0.80200005 1.435654799e-38
2.31468952 -0.0045828572 0.80200005 1.444874783e-38
2.31700572 -0.004594286 0.80400002 1.454093085e-38
2.31853715 -0.004594286 0.80400002 1.472495076e-38
2.3200686 -0.004594286 0.80400002 1.490898609e-38
2.3224 -0.0046057147 0.80600005 1.472460464e-38
2.32393524 -0.0046057147 0.80600005 1.463242443e-38
2.32627809 -0.004617143 0.80800003 1.454060294e-38
2.3286286 -0.0046285721 0.81000006 1.435726826e-38
2.33180189 -0.0046514282 0.81400001 1.417393358e-38
2.33335239 -0.0046514282 0.81400001 1.408316728e-38
2.33490285 -0.0046514282 0.81400001 1.399060871e-38
2.33686668 -0.0046571433 0.81500006 1.39902696e-38
2.33841908 -0.0046571433 0.81500006 1.380590216e-38
2.34164003 -0.0046800002 0.81900007 1.371334219e-38
2.3457143 -0.004714286 0.82500005 1.32541591e-38
2.34728575 -0.004714286 0.82500005 1.288716464e-38
2.34885716 -0.004714286 0.82500005 1.270276638e-38
2.35042858 -0.004714286 0.82500005 1.251809205e-38
2.26215622 -0.0029790478 0.78200006 9.94087016e-39
2.26196 -0.00296 0.77700001 9.849393397e-39
2.26343998 -0.00296 0.77700001 9.482767476e-39
2.26492003 -0.00296 0.77700001 9.205821854e-39
2.26640001 -0.00296 0.77700001 8.745922704e-39
2.26788002 -0.00296 0.77700001 8.370683001e-39
2.27178666 -0.0029866667 0.78400004 6.805169173e-39
2.27327999 -0.0029866667 0.78400004 5.340100418e-39
2.28178287 -0.0030628571 0.80400002 6.164819215e-39
2.28331429 -0.0030628571 0.80400002 7.082816845e-39
2.28413716 -0.0030552382 0.80200005 7.358324735e-39
2.2856648 -0.0030552382 0.80200005 7.634924236e-39
2.28719237 -0.0030552382 0.80200005 7.818970776e-39
2.28872001 -0.0030552382 0.80200005 8.094824787e-39
2.28952381 -0.003047619 0.80000001 8.371038931e-39
2.29032004 -0.0030400001 0.79800004 8.647624419e-39
2.29184002 -0.0030400001 0.79800004 9.014611876e-39
2.29299241 -0.0030361905 0.79700005 9.474501216e-39
2.29488003 -0.0030400001 0.79800004 1.011806295e-38
2.29602858 -0.0030361905 0.79700005 1.076270649e-38
2.29792002 -0.0030400001 0.79800004 1.114081325e-38
2.29944003 -0.0030400001 0.79800004 1.150744197e-38
2.30096003 -0.0030400001 0.79800004 1.187407069e-38
2.30248001 -0.0030400001 0.79800004 1.233396844e-38
2.30476189 -0.003047619 0.80000001 1.279386759e-38
2.30628571 -0.003047619 0.80000001 1.325234022e-38
2.30780953 -0.003047619 0.80000001 1.362077101e-38
2.30933335 -0.003047619 0.80000001 1.40799527e-38
2.31163427 -0.0030552382 0.80200005 1.426398663e-38
2.31316191 -0.0030552382 0.80200005 1.454021198e-38
2.31468952 -0.0030552382 0.80200005 1.454093085e-38
2.31700572 -0.0030628571 0.80400002 1.4632402e-38
2.31853715 -0.0030628571 0.80400002 1.463383273e-38
2.3200686 -0.0030628571 0.80400002 1.472567383e-38
2.3224 -0.0030704765 0.80600005 1.463384394e-38
2.32393524 -0.0030704765 0.80600005 1.454129799e-38
2.32627809 -0.0030780954 0.80800003 1.44494709e-38
2.3286286 -0.0030857145 0.81000006 1.444945689e-38
2.33098668 -0.0030933334 0.81200004 1.426612921e-38
2.33335239 -0.0031009524 0.81400001 1.408244561e-38
2.33490285 -0.0031009524 0.81400001 1.408279173e-38
2.33645332 -0.0031009524 0.81400001 1.417357064e-38
2.33841908 -0.0031047622 0.81500006 1.40810373e-38
2.34080571 -0.0031123811 0.81700003 1.398955774e-38
2.3440381 -0.0031276192 0.82100004 1.362257168e-38
2.34728575 -0.0031428572 0.82500005 1.334634072e-38
2.34970286 -0.0031504761 0.82700002 1.29775582e-38
2.35212764 -0.0031580955 0.82900006 1.261025405e-38
2.35370669 -0.0031580955 0.82900006 1.2334784e-38
2.25980952 -0.0014761905 0.77500004 9.85010946e-39
2.26128572 -0.0014761905 0.77500004 9.943737217e-39
2.26343998 -0.00148 0.77700001 9.757912429e-39
2.26492003 -0.00148 0.77700001 9.665355264e-39
2.26640001 -0.00148 0.77700001 9.297291611e-39
2.26788002 -0.00148 0.77700001 8.9252805e-39
2.28218666 -0.0015504762 0.81400001 7.72926105e-39
2.28373715 -0.0015504762 0.81400001 6.625435829e-39
2.28458667 -0.0015466667 0.81200004 6.809101216e-39
2.28472382 -0.0015390477 0.80800003 7.084970641e-39
2.28626287 -0.0015390477 0.80800003 7.267928372e-39
2.28708956 -0.0015352382 0.80600005 7.451244836e-39
2.28862479 -0.0015352382 0.80600005 7.727474395e-39
2.28944001 -0.0015314285 0.80400002 8.004048672e-39
2.29024762 -0.0015276191 0.80200005 8.27883069e-39
2.29104763 -0.0015238095 0.80000001 8.555772108e-39
2.29257143 -0.0015238095 0.80000001 9.015308321e-39
2.29336002 -0.00152 0.79800004 9.478078731e-39
2.29488003 -0.00152 0.79800004 1.021348577e-38
2.29640001 -0.00152 0.79800004 1.085740764e-38
2.29792002 -0.00152 0.79800004 1.122654048e-38
2.30019048 -0.0015238095 0.80000001 1.168787316e-38
2.3017143 -0.0015238095 0.80000001 1.205772907e-38
2.30323809 -0.0015238095 0.80000001 1.251870442e-38
2.30552381 -0.0015276191 0.80200005 1.288533455e-38
2.30628571 -0.0015238095 0.80000001 1.334417011e-38
2.30780953 -0.0015238095 0.80000001 1.371188764e-38
2.30933335 -0.0015238095 0.80000001 1.407959116e-38
2.31085715 -0.0015238095 0.80000001 1.444765482e-38
2.31316191 -0.0015276191 0.80200005 1.481607019e-38
2.31468952 -0.0015276191 0.80200005 1.46323978e-38
2.31700572 -0.0015314285 0.80400002 1.45405623e-38
2.31853715 -0.0015314285 0.80400002 1.454092104e-38
2.3200686 -0.0015314285 0.80400002 1.463311947e-38
2.3224 -0.0015352382 0.80600005 1.454128958e-38
2.32393524 -0.0015352382 0.80600005 1.454129098e-38
2.32627809 -0.0015390477 0.80800003 1.444945829e-38
2.3286286 -0.0015428573 0.81000006 1.435761578e-38
2.33098668 -0.0015466667 0.81200004 1.408246102e-38
2.33253333 -0.0015466667 0.81200004 1.389733548e-38
2.33490285 -0.0015504762 0.81400001 1.408134559e-38
2.33645332 -0.0015504762 0.81400001 1.417355943e-38
2.33800378 -0.0015504762 0.81400001 1.417357905e-38
2.34080571 -0.0015561905 0.81700003 1.408174356e-38
2.3432 -0.0015600001 0.81900007 1.389771383e-38
2.34560192 -0.0015638096 0.82100004 1.362184721e-38
2.34716573 -0.0015638096 0.82100004 1.325378636e-38
2.35212764 -0.0015790478 0.82900006 1.297792254e-38
2.35370669 -0.0015790478 0.82900006 1.260950576e-38
2.35528573 -0.0015790478 0.82900006 1.233838533e-38
2.25980952 0 0.77500004 9.759344556e-39
2.26128572 0 0.77500004 1.003485104e-38
2.26343998 0 0.77700001 1.003305878e-38
2.26423809 0 0.77500004 1.012454255e-38
2.26571429 0 0.77500004 9.756848844e-39
2.26788002 0 0.77700001 9.477736814e-39
2.28218666 0 0.81400001 8.647611808e-39
2.28373715 0 0.81400001 7.91220617e-39
2.28458667 0 0.81200004 7.54450265e-39
2.28472382 0 0.80800003 7.177164869e-39
2.28697145 0 0.81000006 7.177169073e-39
2.28780192 0 0.80800003 7.268652844e-39
2.28934097 0 0.80800003 7.544166338e-39
2.29016003 0 0.80600005 7.911505521e-39
2.29097146 0 0.80400002 8.187007805e-39
2.29177526 0 0.80200005 8.46323316e-39
2.29330286 0 0.80200005 9.016399932e-39
2.29409525 0 0.80000001 9.569563902e-39
2.29635811 0 0.80200005 1.030639886e-38
2.29714286 0 0.80000001 1.104144857e-38
2.29866666 0 0.80000001 1.141059263e-38
2.30019048 0 0.80000001 1.18719169e-38
2.3017143 0 0.80000001 1.233324257e-38
2.30399621 0 0.80200005 1.279278719e-38
2.30552381 0 0.80200005 1.306865942e-38
2.30705145 0 0.80200005 1.343600981e-38
2.30857906 0 0.80200005 1.38033588e-38
2.31010669 0 0.80200005 1.417106933e-38
2.31163427 0 0.80200005 1.463133281e-38
2.31316191 0 0.80200005 1.509193962e-38
2.31468952 0 0.80200005 1.481606739e-38
2.31621715 0 0.80200005 1.454056511e-38
2.31853715 0 0.80400002 1.453949311e-38
2.3200686 0 0.80400002 1.454056931e-38
2.3224 0 0.80600005 1.454128678e-38
2.32393524 0 0.80600005 1.463312367e-38
2.32627809 0 0.80800003 1.445017295e-38
2.3286286 0 0.81000006 1.426613762e-38
2.33098668 0 0.81200004 1.399062552e-38
2.33253333 0 0.81200004 1.380622726e-38
2.33490285 0 0.81400001 1.398952971e-38
2.33645332 0 0.81400001 1.426504741e-38
2.33800378 0 0.81400001 1.426506002e-38
2.34080571 0 0.81700003 1.426469849e-38
2.3432 0 0.81900007 1.408102609e-38
2.34476 0 0.81900007 1.398917798e-38
2.34716573 0 0.82100004 1.362182479e-38
2.34957907 0 0.82300001 1.334526032e-38
2.35285333 0 0.82700002 1.297614429e-38
2.35442859 0 0.82700002 1.261099113e-38
2.35600382 0 0.82700002 1.26135387e-38
2.25980952 0.0014761905 0.77500004 9.758621486e-39
2.26128572 0.0014761905 0.77500004 1.003448951e-38
2.26276192 0.0014761905 0.77500004 1.012489288e-38
2.26423809 0.0014761905 0.77500004 1.01249111e-38
2.26571429 0.0014761905 0.77500004 1.012421185e-38
2.28373715 0.0015504762 0.81400001 8.924906353e-39
2.28458667 0.0015466667 0.81200004 8.005473793e-39
2.28542858 0.0015428573 0.81000006 7.08640557e-39
2.28697145 0.0015428573 0.81000006 6.993498081e-39
2.28851432 0.0015428573 0.81000006 6.900954929e-39
2.29005715 0.0015428573 0.81000006 7.267230526e-39
2.29087999 0.0015390477 0.80800003 7.725331809e-39
2.29241905 0.0015390477 0.80800003 8.094110125e-39
2.29250288 0.0015314285 0.80400002 8.371054345e-39
2.2940343 0.0015314285 0.80400002 8.921711393e-39
2.2948305 0.0015276191 0.80200005 9.472357229e-39
2.29635811 0.0015276191 0.80200005 1.021313124e-38
2.29788575 0.0015276191 0.80200005 1.085814892e-38
2.29941335 0.0015276191 0.80200005 1.131698589e-38
2.30094096 0.0015276191 0.80200005 1.168862005e-38
2.30246857 0.0015276191 0.80200005 1.205738576e-38
2.30399621 0.0015276191 0.80200005 1.251729051e-38
2.30552381 0.0015276191 0.80200005 1.29764792e-38
2.30705145 0.0015276191 0.80200005 1.343601401e-38
2.30857906 0.0015276191 0.80200005 1.37115191e-38
2.31010669 0.0015276191 0.80200005 1.398739974e-38
2.31163427 0.0015276191 0.80200005 1.426399924e-38
2.31316191 0.0015276191 0.80200005 1.454128818e-38
2.3154743 0.0015314285 0.80400002 1.435724864e-38
2.31700572 0.0015314285 0.80400002 1.426542156e-38
2.31853715 0.0015314285 0.80400002 1.435690673e-38
2.3200686 0.0015314285 0.80400002 1.444837789e-38
2.3224 0.0015352382 0.80600005 1.463276074e-38
2.32393524 0.0015352382 0.80600005 1.481679186e-38
2.32627809 0.0015390477 0.80800003 1.454164691e-38
2.3286286 0.0015428573 0.81000006 1.426757115e-38
2.33017144 0.0015428573 0.81000006 1.408210229e-38
2.33253333 0.0015466667 0.81200004 1.399134299e-38
2.33408001 0.0015466667 0.81200004 1.426541595e-38
2.33645332 0.0015504762 0.81400001 1.453984904e-38
2.33800378 0.0015504762 0.81400001 1.435618226e-38
2.33955428 0.0015504762 0.81400001 1.426398382e-38
2.3423619 0.0015561905 0.81700003 1.408030863e-38
2.34476 0.0015600001 0.81900007 1.398845071e-38
2.34632 0.0015600001 0.81900007 1.371256447e-38
2.34872952 0.0015638096 0.82100004 1.334525752e-38
2.35370669 0.0015790478 0.82900006 1.29761583e-38
2.35528573 0.0015790478 0.82900006 1.269992594e-38
2.35686478 0.0015790478 0.82900006 1.233508668e-38
2.25980952 0.002952381 0.77500004 9.851891912e-39
2.26128572 0.002952381 0.77500004 1.012560614e-38
2.26276192 0.002952381 0.77500004 1.012489008e-38
2.26423809 0.002952381 0.77500004 1.021637805e-38
2.26571429 0.002952381 0.77500004 1.058337251e-38
2.28373715 0.0031009524 0.81400001 9.937259014e-39
2.28528762 0.0031009524 0.81400001 8.465375745e-39
2.28613332 0.0030933334 0.81200004 7.087125838e-39
2.28697145 0.0030857145 0.81000006 6.810185821e-39
2.28851432 0.0030857145 0.81000006 6.532176614e-39
2.29005715 0.0030857145 0.81000006 7.082121801e-39
2.29160002 0.0030857145 0.81000006 7.633137581e-39
2.29241905 0.0030780954 0.80800003 8.001201234e-39
2.2932305 0.0030704765 0.80600005 8.369257881e-39
2.29476574 0.0030704765 0.80600005 8.920986921e-39
2.29556569 0.0030628571 0.80400002 9.473789356e-39
2.29709715 0.0030628571 0.80400002 1.012022095e-38
2.29862857 0.0030628571 0.80400002 1.07638009e-38
2.29941335 0.0030552382 0.80200005 1.113187436e-38
2.30094096 0.0030552382 0.80200005 1.159463356e-38
2.30246857 0.0030552382 0.80200005 1.187372037e-38
2.30399621 0.0030552382 0.80200005 1.224071203e-38
2.30552381 0.0030552382 0.80200005 1.279173341e-38
2.30705145 0.0030552382 0.80200005 1.343565528e-38
2.30857906 0.0030552382 0.80200005 1.362039967e-38
2.31010669 0.0030552382 0.80200005 1.380372174e-38
2.31163427 0.0030552382 0.80200005 1.389700197e-38
2.31316191 0.0030552382 0.80200005 1.39891948e-38
2.3154743 0.0030628571 0.80400002 1.398991086e-38
2.31700572 0.0030628571 0.80400002 1.398956474e-38
2.31853715 0.0030628571 0.80400002 1.417324835e-38
2.3200686 0.0030628571 0.80400002 1.435690813e-38
2.3224 0.0030704765 0.80600005 1.472459763e-38
2.32393524 0.0030704765 0.80600005 1.509229695e-38
2.32627809 0.0030780954 0.80800003 1.47253123e-38
2.3286286 0.0030857145 0.81000006 1.435760878e-38
2.33017144 0.0030857145 0.81000006 1.426577188e-38
2.33253333 0.0030933334 0.81200004 1.417393919e-38
2.33408001 0.0030933334 0.81200004 1.444980721e-38
2.33562669 0.0030933334 0.81200004 1.481535833e-38
2.33800378 0.0031009524 0.81400001 1.454021478e-38
2.33955428 0.0031009524 0.81400001 1.426398663e-38
2.3423619 0.0031123811 0.81700003 1.417214833e-38
2.34476 0.0031200002 0.81900007 1.408029882e-38
2.34632 0.0031200002 0.81900007 1.371294422e-38
2.34872952 0.0031276192 0.82100004 1.343709582e-38
2.35285333 0.0031504761 0.82700002 1.306833712e-38
2.35528573 0.0031580955 0.82900006 1.279283343e-38
2.35772571 0.0031657144 0.83100003 1.214676057e-38
2.35930857 0.0031657144 0.83100003 1.150789599e-38
2.28528762 0.0046514282 0.81400001 8.834878532e-39
2.28613332 0.0046399999 0.81200004 7.822531476e-39
2.28768003 0.0046399999 0.81200004 7.361198798e-39
2.28851432 0.0046285721 0.81000006 6.989917763e-39
2.29077333 0.0046399999 0.81200004 7.173595762e-39
2.29160002 0.0046285721 0.81000006 7.449466588e-39
2.29314288 0.0046285721 0.81000006 7.633503319e-39
2.2939581 0.004617143 0.80800003 7.910078999e-39
2.29476574 0.0046057147 0.80600005 8.461445103e-39
2.29630098 0.0046057147 0.80600005 9.016404136e-39
2.29783621 0.0046057147 0.80600005 9.567058381e-39
2.29937145 0.0046057147 0.80600005 1.020955793e-38
2.30015999 0.004594286 0.80400002 1.067233395e-38
2.30169141 0.004594286 0.80400002 1.113366242e-38
2.30322286 0.004594286 0.80400002 1.150172187e-38
2.30475429 0.004594286 0.80400002 1.186978692e-38
2.30628571 0.004594286 0.80400002 1.242331803e-38
2.30781716 0.004594286 0.80400002 1.29764792e-38
2.30934858 0.004594286 0.80400002 1.325269895e-38
2.31088001 0.004594286 0.80400002 1.352856697e-38
2.31241143 0.004594286 0.80400002 1.362040667e-38
2.31316191 0.0045828572 0.80200005 1.362077241e-38
2.3154743 0.004594286 0.80400002 1.371333238e-38
2.31700572 0.004594286 0.80400002 1.371406666e-38
2.31853715 0.004594286 0.80400002 1.389775447e-38
2.3200686 0.004594286 0.80400002 1.408140865e-38
2.32160002 0.004594286 0.80400002 1.435654099e-38
2.32393524 0.0046057147 0.80600005 1.453913018e-38
2.32627809 0.004617143 0.80800003 1.435617245e-38
2.32781714 0.004617143 0.80800003 1.417357625e-38
2.33017144 0.0046285721 0.81000006 1.417357625e-38
2.3317143 0.0046285721 0.81000006 1.408102749e-38
2.33408001 0.0046399999 0.81200004 1.426470409e-38
2.33562669 0.0046399999 0.81200004 1.444837929e-38
2.33800378 0.0046514282 0.81400001 1.435654799e-38
2.33955428 0.0046514282 0.81400001 1.426434956e-38
2.3423619 0.004668572 0.81700003 1.417251126e-38
2.34476 0.0046800002 0.81900007 1.417286579e-38
2.34632 0.0046800002 0.81900007 1.389699637e-38
2.34788001 0.0046800002 0.81900007 1.362112974e-38
2.35200003 0.004714286 0.82500005 1.334526312e-38
2.35442859 0.0047257142 0.82700002 1.306941332e-38
2.35858667 0.0047599999 0.83300006 1.251626336e-38
2.36017337 0.0047599999 0.83300006 1.205493909e-38
2.28768003 0.0061866669 0.81200004 8.004043067e-39
2.28993905 0.0062019047 0.81400001 7.450168639e-39
2.29148951 0.0062019047 0.81400001 7.356906621e-39
2.29232001 0.0061866669 0.81200004 7.265429857e-39
2.29386669 0.0061866669 0.81200004 7.357625487e-39
2.29468572 0.0061714291 0.81000006 7.543085937e-39
2.29622862 0.0061714291 0.81000006 8.002260616e-39
2.2970362 0.0061561908 0.80800003 8.554352592e-39
2.29783621 0.0061409529 0.80600005 9.106804703e-39
2.29937145 0.0061409529 0.80600005 9.658900883e-39
2.30090669 0.0061409529 0.80600005 1.021315086e-38
2.30169141 0.0061257142 0.80400002 1.076667496e-38
2.30322286 0.0061257142 0.80400002 1.113473441e-38
2.30475429 0.0061257142 0.80400002 1.1502082e-38
2.30628571 0.0061257142 0.80400002 1.205525158e-38
2.30781716 0.0061257142 0.80400002 1.260805541e-38
2.30934858 0.0061257142 0.80400002 1.297682953e-38
2.31088001 0.0061257142 0.80400002 1.334453445e-38
2.31241143 0.0061257142 0.80400002 1.334525612e-38
2.31394288 0.0061257142 0.80400002 1.334526312e-38
2.3154743 0.0061257142 0.80400002 1.343746576e-38
2.31700572 0.0061257142 0.80400002 1.35296712e-38
2.31853715 0.0061257142 0.80400002 1.37144296e-38
2.3200686 0.0061257142 0.80400002 1.389737191e-38
2.32160002 0.0061257142 0.80400002 1.398883607e-38
2.32393524 0.0061409529 0.80600005 1.408030582e-38
2.32547048 0.0061409529 0.80600005 1.407993868e-38
2.32781714 0.0061561908 0.80800003 1.408137221e-38
2.33017144 0.0061714291 0.81000006 1.408172814e-38
2.3317143 0.0061714291 0.81000006 1.408137642e-38
2.33408001 0.0061866669 0.81200004 1.407994989e-38
2.33645332 0.0062019047 0.81400001 1.408139744e-38
2.33800378 0.0062019047 0.81400001 1.417288681e-38
2.33955428 0.0062019047 0.81400001 1.42647153e-38
2.34152383 0.0062095243 0.81500006 1.42647097e-38
2.34391811 0.0062247622 0.81700003 1.426470269e-38
2.3454743 0.0062247622 0.81700003 1.408138342e-38
2.34788001 0.0062400005 0.81900007 1.389771243e-38
2.34944001 0.0062400005 0.81900007 1.362220594e-38
2.35185716 0.0062552383 0.82100004 1.334598759e-38
2.35772571 0.0063314289 0.83100003 1.297829388e-38
2.36017337 0.0063466672 0.83300006 1.260737158e-38
2.36176002 0.0063466672 0.83300006 1.23307959e-38
2.29029527 0.0077619054 0.81500006 8.002613743e-39
2.29184765 0.0077619054 0.81500006 7.726758331e-39
2.29304001 0.0077523813 0.81400001 7.450888906e-39
2.29459047 0.0077523813 0.81400001 7.543078931e-39
2.29541335 0.0077333339 0.81200004 7.635271758e-39
2.29696 0.0077333339 0.81200004 7.910418113e-39
2.29777145 0.007714286 0.81000006 8.185931608e-39
2.29931432 0.007714286 0.81000006 8.739464119e-39
2.30085716 0.007714286 0.81000006 9.200080734e-39
2.30165336 0.0076952381 0.80800003 9.66249101e-39
2.30244192 0.0076761907 0.80600005 1.012418102e-38
2.30397716 0.0076761907 0.80600005 1.058300117e-38
2.3055124 0.0076761907 0.80600005 1.113294075e-38
2.30628571 0.0076571428 0.80400002 1.159463356e-38
2.30781716 0.0076571428 0.80400002 1.205631937e-38
2.30934858 0.0076571428 0.80400002 1.242437742e-38
2.31088001 0.0076571428 0.80400002 1.28846353e-38
2.31241143 0.0076571428 0.80400002 1.297719386e-38
2.31394288 0.0076571428 0.80400002 1.307011397e-38
2.3154743 0.0076571428 0.80400002 1.316195927e-38
2.31700572 0.0076571428 0.80400002 1.334563587e-38
2.31853715 0.0076571428 0.80400002 1.352895373e-38
2.3200686 0.0076571428 0.80400002 1.371261632e-38
2.32160002 0.0076571428 0.80400002 1.389699777e-38
2.32393524 0.0076761907 0.80600005 1.398882205e-38
2.32547048 0.0076761907 0.80600005 1.398917098e-38
2.32781714 0.0076952381 0.80800003 1.389769001e-38
2.33017144 0.007714286 0.81000006 1.389768721e-38
2.3317143 0.007714286 0.81000006 1.398989124e-38
2.33408001 0.0077333339 0.81200004 1.398990105e-38
2.33645332 0.0077523813 0.81400001 1.398992207e-38
2.33800378 0.0077523813 0.81400001 1.417361549e-38
2.33955428 0.0077523813 0.81400001 1.43576354e-38
2.34110478 0.0077523813 0.81400001 1.426543136e-38
2.3430762 0.0077619054 0.81500006 1.417430352e-38
2.34462857 0.0077619054 0.81500006 1.398990666e-38
2.34703049 0.0077809524 0.81700003 1.38984299e-38
2.34858668 0.0077809524 0.81700003 1.362184861e-38
2.35100001 0.0078000003 0.81900007 1.334669805e-38
2.35342097 0.0078190472 0.82100004 1.306975523e-38
2.36017337 0.0079333344 0.83300006 1.279282222e-38
2.36349714 0.0079714283 0.83700001 1.251553048e-38
2.36509144 0.0079714283 0.83700001 1.214498793e-38
2.36756194 0.0079904767 0.83900005 1.169444805e-38
2.36916 0.0079904767 0.83900005 1.11520993e-38
2.29172003 0.0093600005 0.81900007 8.556140649e-39
2.29328004 0.0093600005 0.81900007 8.09481778e-39
2.29339999 0.0093142865 0.81500006 7.634557096e-39
2.29495239 0.0093142865 0.81500006 7.635267554e-39
2.29614094 0.0093028564 0.81400001 7.727463184e-39
2.2976914 0.0093028564 0.81400001 7.820018948e-39
2.29850668 0.0092799999 0.81200004 7.912577514e-39
2.30005333 0.0092799999 0.81200004 8.372478065e-39
2.30160001 0.0092799999 0.81200004 8.832733144e-39
2.30165336 0.0092342859 0.80800003 9.203665255e-39
2.30319241 0.0092342859 0.80800003 9.571726106e-39
2.30397716 0.0092114294 0.80600005 1.012345935e-38
2.3055124 0.0092114294 0.80600005 1.076415823e-38
2.30704764 0.0092114294 0.80600005 1.112970936e-38
2.30781716 0.0091885719 0.80400002 1.159426782e-38
2.30934858 0.0091885719 0.80400002 1.196232867e-38
2.31088001 0.0091885719 0.80400002 1.242438302e-38
2.31241143 0.0091885719 0.80400002 1.260949455e-38
2.31394288 0.0091885719 0.80400002 1.279317395e-38
2.3154743 0.0091885719 0.80400002 1.297721208e-38
2.31700572 0.0091885719 0.80400002 1.325271717e-38
2.31853715 0.0091885719 0.80400002 1.343638816e-38
2.3200686 0.0091885719 0.80400002 1.362112834e-38
2.3224 0.0092114294 0.80600005 1.380515106e-38
2.32393524 0.0092114294 0.80600005 1.398916958e-38
2.32547048 0.0092114294 0.80600005 1.389839907e-38
2.32700571 0.0092114294 0.80600005 1.380620624e-38
2.32935619 0.0092342859 0.80800003 1.380584891e-38
2.3317143 0.0092571443 0.81000006 1.389841028e-38
2.33325714 0.0092571443 0.81000006 1.389877882e-38
2.33562669 0.0092799999 0.81200004 1.399063113e-38
2.33800378 0.0093028564 0.81400001 1.42668733e-38
2.33955428 0.0093028564 0.81400001 1.454093785e-38
2.34110478 0.0093028564 0.81400001 1.435690112e-38
2.34265524 0.0093028564 0.81400001 1.417321892e-38
2.34462857 0.0093142865 0.81500006 1.398989685e-38
2.34703049 0.009337144 0.81700003 1.389771523e-38
2.34944001 0.0093600005 0.81900007 1.362186402e-38
2.35100001 0.0093600005 0.81900007 1.343782589e-38
2.35342097 0.009382857 0.82100004 1.325306889e-38
2.35930857 0.0094971433 0.83100003 1.306868604e-38
2.36262858 0.0095428573 0.83500004 1.27006308e-38
2.36509144 0.0095657147 0.83700001 1.233114763e-38
2.36668572 0.0095657147 0.83700001 1.150284711e-38
2.36827999 0.0095657147 0.83700001 1.077467077e-38
2.29299429 0.011026666 0.82700002 9.20437151e-39
2.29314476 0.010973333 0.82300001 8.742685705e-39
2.29399621 0.010946667 0.82100004 8.005134679e-39
2.29484004 0.01092 0.81900007 7.267212309e-39
2.2956762 0.010893334 0.81700003 7.359037996e-39
2.29614094 0.010853333 0.81400001 7.539844734e-39
2.2976914 0.010853333 0.81400001 7.544156529e-39
2.2992419 0.010853333 0.81400001 7.546311726e-39
2.30005333 0.010826667 0.81200004 8.004774545e-39
2.30160001 0.010826667 0.81200004 8.465386955e-39
2.30240002 0.010800001 0.81000006 8.925640633e-39
2.30394286 0.010800001 0.81000006 9.294061618e-39
2.30473143 0.010773334 0.80800003 9.844718665e-39
2.30627048 0.010773334 0.80800003 1.039573304e-38
2.30780953 0.010773334 0.80800003 1.085598952e-38
2.30858287 0.010746667 0.80600005 1.131624741e-38
2.31011811 0.010746667 0.80600005 1.168682219e-38
2.31165335 0.010746667 0.80600005 1.205596484e-38
2.31318858 0.010746667 0.80600005 1.23332734e-38
2.31472382 0.010746667 0.80600005 1.270026366e-38
2.31625906 0.010746667 0.80600005 1.288430179e-38
2.31779429 0.010746667 0.80600005 1.306868184e-38
2.31932953 0.010746667 0.80600005 1.325234582e-38
2.32086477 0.010746667 0.80600005 1.35299977e-38
2.3224 0.010746667 0.80600005 1.371330435e-38
2.32393524 0.010746667 0.80600005 1.38976802e-38
2.32547048 0.010746667 0.80600005 1.380619223e-38
2.32700571 0.010746667 0.80600005 1.380655656e-38
2.32935619 0.010773334 0.80800003 1.380656357e-38
2.3317143 0.010800001 0.81000006 1.371545395e-38
2.33408001 0.010826667 0.81200004 1.380694052e-38
2.33562669 0.010826667 0.81200004 1.389878863e-38
2.33800378 0.010853333 0.81400001 1.40821135e-38
2.33955428 0.010853333 0.81400001 1.426542156e-38
2.34110478 0.010853333 0.81400001 1.417322312e-38
2.34265524 0.010853333 0.81400001 1.408137501e-38
2.34420574 0.010853333 0.81400001 1.40813638e-38
2.34703049 0.010893334 0.81700003 1.417322593e-38
2.34944001 0.01092 0.81900007 1.38051931e-38
2.35185716 0.010946667 0.82100004 1.352931106e-38
2.35342097 0.010946667 0.82100004 1.343710142e-38
2.35844383 0.011053334 0.82900006 1.32530731e-38
2.36176002 0.011106667 0.83300006 1.297756801e-38
2.3633467 0.011106667 0.83300006 1.261057915e-38
2.36668572 0.01116 0.83700001 1.205525718e-38
2.36827999 0.01116 0.83700001 1.140779283e-38
2.3698743 0.01116 0.83700001 1.215902614e-38
2.29228574 0.012571429 0.82500005 9.482747857e-39
2.29314476 0.012540952 0.82300001 8.927434295e-39
2.29471236 0.012540952 0.82300001 7.91545438e-39
2.29556 0.012510477 0.82100004 6.901666789e-39
2.2956762 0.012449524 0.81700003 7.175012475e-39
2.29650477 0.012419049 0.81500006 7.451243435e-39
2.2976914 0.012403809 0.81400001 7.360489741e-39
2.2992419 0.012403809 0.81400001 7.269374512e-39
2.30079237 0.012403809 0.81400001 7.729273662e-39
2.30160001 0.012373334 0.81200004 8.188808474e-39
2.30314669 0.012373334 0.81200004 8.648343286e-39
2.30394286 0.012342858 0.81000006 9.108957097e-39
2.30548573 0.012342858 0.81000006 9.569212177e-39
2.30702859 0.012342858 0.81000006 1.011986782e-38
2.30857146 0.012342858 0.81000006 1.058263403e-38
2.30934858 0.012312382 0.80800003 1.104289191e-38
2.31088763 0.012312382 0.80800003 1.14113143e-38
2.31165335 0.012281906 0.80600005 1.178081428e-38
2.31318858 0.012281906 0.80600005 1.214923807e-38
2.31472382 0.012281906 0.80600005 1.260842396e-38
2.31625906 0.012281906 0.80600005 1.279210336e-38
2.31779429 0.012281906 0.80600005 1.297648481e-38
2.31932953 0.012281906 0.80600005 1.316050753e-38
2.32086477 0.012281906 0.80600005 1.343673568e-38
2.3224 0.012281906 0.80600005 1.362112834e-38
2.32393524 0.012281906 0.80600005 1.380550559e-38
2.32547048 0.012281906 0.80600005 1.380621044e-38
2.32700571 0.012281906 0.80600005 1.389805014e-38
2.32935619 0.012312382 0.80800003 1.371474209e-38
2.3317143 0.012342858 0.81000006 1.362255206e-38
2.33408001 0.012373334 0.81200004 1.371439316e-38
2.33562669 0.012373334 0.81200004 1.389879143e-38
2.33800378 0.012403809 0.81400001 1.39902794e-38
2.33955428 0.012403809 0.81400001 1.40821107e-38
2.34110478 0.012403809 0.81400001 1.3990271e-38
2.34265524 0.012403809 0.81400001 1.399026119e-38
2.34420574 0.012403809 0.81400001 1.417392377e-38
2.34703049 0.012449524 0.81700003 1.444872681e-38
2.34944001 0.012480001 0.81900007 1.408068277e-38
2.35100001 0.012480001 0.81900007 1.371331837e-38
2.35342097 0.012510477 0.82100004 1.362181918e-38
2.35671431 0.012571429 0.82500005 1.352855997e-38
2.36002287 0.012632382 0.82900006 1.325342482e-38
2.36160195 0.012632382 0.82900006 1.297719807e-38
2.36493334 0.012693334 0.83300006 1.251622552e-38
2.36740002 0.01272381 0.83500004 1.214961642e-38
2.36899048 0.01272381 0.83500004 1.150750223e-38
2.29157713 0.014108571 0.82300001 9.573149825e-39
2.29314476 0.014108571 0.82300001 9.112541619e-39
2.29614475 0.014177144 0.82700002 8.468263821e-39
2.29556 0.014074286 0.82100004 7.730342852e-39
2.29712382 0.014074286 0.82100004 7.637782885e-39
2.29796001 0.014040002 0.81900007 7.545594262e-39
2.29878861 0.014005714 0.81700003 7.266866188e-39
2.2992419 0.013954286 0.81400001 6.98956884e-39
2.30116194 0.013971429 0.81500006 7.541662218e-39
2.30234283 0.013954286 0.81400001 8.002271826e-39
2.30314669 0.013920001 0.81200004 8.371763402e-39
2.30469334 0.013920001 0.81200004 8.740540317e-39
2.30623999 0.013920001 0.81200004 9.200435262e-39
2.30702859 0.013885715 0.81000006 9.752165704e-39
2.30857146 0.013885715 0.81000006 1.021206205e-38
2.31011429 0.013885715 0.81000006 1.067698345e-38
2.31088763 0.013851429 0.80800003 1.113616654e-38
2.31242666 0.013851429 0.80800003 1.159749922e-38
2.31396571 0.013851429 0.80800003 1.19659216e-38
2.31472382 0.013817144 0.80600005 1.233470693e-38
2.31625906 0.013817144 0.80600005 1.260806943e-38
2.31779429 0.013817144 0.80600005 1.288428778e-38
2.31932953 0.013817144 0.80600005 1.306795316e-38
2.32086477 0.013817144 0.80600005 1.33438324e-38
2.3224 0.013817144 0.80600005 1.352787754e-38
2.32393524 0.013817144 0.80600005 1.371189465e-38
2.32547048 0.013817144 0.80600005 1.38962719e-38
2.32700571 0.013817144 0.80600005 1.408066175e-38
2.32935619 0.013851429 0.80800003 1.37136799e-38
2.3317143 0.013885715 0.81000006 1.334705538e-38
2.33408001 0.013920001 0.81200004 1.362220454e-38
2.33562669 0.013920001 0.81200004 1.380696014e-38
2.33800378 0.013954286 0.81400001 1.389880404e-38
2.33955428 0.013954286 0.81400001 1.408354703e-38
