# .PCD v0.7 - Point Cloud Data file format
VERSION 0.7
FIELDS x y z rgb
SIZE 4 4 4 4
TYPE F F F F
COUNT 1 1 1 1
WIDTH 965
HEIGHT 1
VIEWPOINT 0 0 0 1 0 0 0
POINTS 965
DATA ascii
0.33960953 1.975857142 0.84500003 1.279172641e-38
0.3424305 1.975771427 0.84800005 1.288428778e-38
0.34485716 1.975714287 0.85000002 1.306867483e-38
0.34729147 1.975657143 0.85200006 1.288500244e-38
0.34973332 1.975599999 0.85400003 1.279317535e-38
0.35218287 1.975542855 0.85600007 1.279282643e-38
0.35464001 1.975485712 0.85800004 1.288464511e-38
0.35627431 1.975485712 0.85800004 1.251800377e-38
0.35874283 1.97542857 0.86000001 1.214785078e-38
0.36038095 1.97542857 0.86000001 1.242808105e-38
0.36201903 1.97542857 0.86000001 1.281302194e-38
0.2381162 1.977626666 0.83900005 1.556486384e-38
0.23857144 1.977733333 0.83500004 1.446246934e-38
0.23958668 1.977786666 0.83300006 1.344143143e-38
0.24117336 1.977786666 0.83300006 1.076305121e-38
0.24217714 1.977839999 0.83100003 8.184484067e-39
0.24317335 1.977893332 0.82900006 8.272735041e-39
0.24475239 1.977893332 0.82900006 8.370315861e-39
0.24573715 1.977946667 0.82700002 7.6345613e-39
0.24671429 1.977999998 0.82500005 6.990999566e-39
0.24828573 1.977999998 0.82500005 7.816807172e-39
0.24925141 1.978053333 0.82300001 8.736587254e-39
0.25081906 1.978053333 0.82300001 8.9220435e-39
0.25238669 1.978053333 0.82300001 9.198273059e-39
0.25395429 1.978053333 0.82300001 9.474859948e-39
0.25490096 1.978106666 0.82100004 9.750367838e-39
0.25646478 1.978106666 0.82100004 9.934398964e-39
0.2580286 1.978106666 0.82100004 1.011915736e-38
0.25959238 1.978106666 0.82100004 1.030463463e-38
0.2611562 1.978106666 0.82100004 1.048865735e-38
0.26272002 1.978106666 0.82100004 1.048865034e-38
0.26428384 1.978106666 0.82100004 1.04882846e-38
0.26584762 1.978106666 0.82100004 1.0488279e-38
0.26676002 1.978159999 0.81900007 1.048863493e-38
0.26832002 1.978159999 0.81900007 1.030532127e-38
0.26988003 1.978159999 0.81900007 1.011913775e-38
0.27210286 1.978106666 0.82100004 9.841120131e-39
0.27500004 1.977999998 0.82500005 9.562023515e-39
0.28059429 1.97768 0.83700001 9.379427319e-39
0.28218856 1.97768 0.83700001 9.194319996e-39
0.28446096 1.977626666 0.83900005 9.010647602e-39
0.28605908 1.977626666 0.83900005 8.917379979e-39
0.28697142 1.97768 0.83700001 8.457487836e-39
0.28856573 1.97768 0.83700001 8.090143049e-39
0.28946668 1.977733333 0.83500004 7.629529237e-39
0.28966284 1.977839999 0.83100003 7.263978112e-39
0.29124573 1.977839999 0.83100003 6.896633325e-39
0.29212382 1.977893332 0.82900006 6.621126836e-39
0.29299429 1.977946667 0.82700002 6.988470222e-39
0.29385716 1.977999998 0.82500005 7.449089639e-39
0.29399621 1.978106666 0.82100004 7.721734676e-39
0.29484004 1.978159999 0.81900007 8.00047396e-39
0.29640004 1.978159999 0.81900007 8.457145919e-39
0.29723239 1.978213333 0.81700003 9.012100749e-39
0.29805717 1.978266666 0.81500006 9.564903184e-39
0.29960954 1.978266666 0.81500006 1.020919079e-38
0.30116194 1.978266666 0.81500006 1.048613501e-38
0.30271432 1.978266666 0.81500006 1.07627219e-38
0.30426666 1.978266666 0.81500006 1.08556392e-38
0.30544382 1.978293333 0.81400001 1.094783203e-38
0.30699429 1.978293333 0.81400001 1.113186035e-38
0.30854478 1.978293333 0.81400001 1.131553134e-38
0.31047621 1.978266666 0.81500006 1.150207079e-38
0.3127943 1.978213333 0.81700003 1.177829194e-38
0.31512004 1.978159999 0.81900007 1.18708407e-38
0.31668004 1.978159999 0.81900007 1.196304194e-38
0.31901714 1.978106666 0.82100004 1.178009401e-38
0.32058096 1.978106666 0.82100004 1.159535523e-38
0.32371432 1.977999998 0.82500005 1.159464617e-38
0.32922858 1.977733333 0.83500004 1.168612154e-38
0.33240381 1.977626666 0.83900005 1.177795563e-38
0.3355943 1.977519998 0.84300005 1.196484681e-38
0.33800003 1.977466667 0.84500003 1.242509348e-38
0.33960953 1.977466667 0.84500003 1.288391643e-38
0.3424305 1.977386666 0.84800005 1.297467993e-38
0.34485716 1.977333333 0.85000002 1.315942853e-38
0.34729147 1.97728 0.85200006 1.316086626e-38
0.34973332 1.977226667 0.85400003 1.325198989e-38
0.35218287 1.977173332 0.85600007 1.325163677e-38
0.35464001 1.977119999 0.85800004 1.325163116e-38
0.35627431 1.977119999 0.85800004 1.306938949e-38
0.35874283 1.977066668 0.86000001 1.288287807e-38
0.36038095 1.977066668 0.86000001 1.260417242e-38
0.36201903 1.977066668 0.86000001 1.233587421e-38
0.23820953 1.97907619 0.84500003 1.409511895e-38
0.2381162 1.979224762 0.83900005 1.427984092e-38
0.23857144 1.979323808 0.83500004 1.289080381e-38
0.24016191 1.979323808 0.83500004 1.150101842e-38
0.24175239 1.979323808 0.83500004 1.021096203e-38
0.24276002 1.979373332 0.83300006 8.92311129e-39
0.24376 1.979422856 0.83100003 8.830199596e-39
0.24475239 1.97947238 0.82900006 8.82913461e-39
0.24633144 1.97947238 0.82900006 8.369968339e-39
0.24731238 1.979521904 0.82700002 8.002989291e-39
0.24828573 1.979571428 0.82500005 8.553289007e-39
0.24985714 1.979571428 0.82500005 9.103929238e-39
0.25081906 1.979620952 0.82300001 9.289738612e-39
0.25238669 1.979620952 0.82300001 9.381938446e-39
0.25395429 1.979620952 0.82300001 9.564897579e-39
0.25552189 1.979620952 0.82300001 9.656372941e-39
0.25646478 1.979670476 0.82100004 9.932954225e-39
0.2580286 1.979670476 0.82100004 1.011807136e-38
0.25959238 1.979670476 0.82100004 1.01195175e-38
0.2611562 1.979670476 0.82100004 1.012131116e-38
0.26272002 1.979670476 0.82100004 1.02113544e-38
0.26428384 1.979670476 0.82100004 1.030138782e-38
0.26584762 1.979670476 0.82100004 1.011878602e-38
0.26741144 1.979670476 0.82100004 9.936547155e-39
0.26832002 1.979719998 0.81900007 1.011949788e-38
0.27053905 1.979670476 0.82100004 1.039284917e-38
0.27210286 1.979670476 0.82100004 1.011698255e-38
0.28100002 1.979125714 0.84300005 9.930080162e-39
0.28193524 1.979175238 0.84100002 9.7467651e-39
0.28286287 1.979224762 0.83900005 9.653494674e-39
0.28513905 1.979175238 0.84100002 9.469823682e-39
0.28605908 1.979224762 0.83900005 9.376553256e-39
0.28765714 1.979224762 0.83900005 8.825540279e-39
0.28856573 1.979274284 0.83700001 8.367081664e-39
0.28946668 1.979323808 0.83500004 7.907189521e-39
0.29036 1.979373332 0.83300006 7.539486002e-39
0.29194671 1.979373332 0.83300006 7.172141214e-39
0.29282856 1.979422856 0.83100003 6.805156561e-39
0.29370287 1.97947238 0.82900006 7.081021782e-39
0.29456952 1.979521904 0.82700002 7.265058513e-39
0.29542857 1.979571428 0.82500005 7.540932142e-39
0.29556 1.979670476 0.82100004 7.817160299e-39
0.29712382 1.979670476 0.82100004 8.276702117e-39
0.29868764 1.979670476 0.82100004 8.736235528e-39
0.29952002 1.979719998 0.81900007 9.286888371e-39
0.30108002 1.979719998 0.81900007 9.837905552e-39
0.30264002 1.979719998 0.81900007 1.011700497e-38
0.30345714 1.979769524 0.81700003 1.039323032e-38
0.30501333 1.979769524 0.81700003 1.048542595e-38
0.30581906 1.979819046 0.81500006 1.048614342e-38
0.30737144 1.979819046 0.81500006 1.08556392e-38
0.30892384 1.979819046 0.81500006 1.113150302e-38
0.31123811 1.979769524 0.81700003 1.131553274e-38
0.31356004 1.979719998 0.81900007 1.149991139e-38
0.31512004 1.979719998 0.81900007 1.150062045e-38
0.31745335 1.979670476 0.82100004 1.159354055e-38
0.31901714 1.979670476 0.82100004 1.150135473e-38
0.3213619 1.979620952 0.82300001 1.15010016e-38
0.32371432 1.979571428 0.82500005 1.159356157e-38
0.33001715 1.979274284 0.83700001 1.168611173e-38
0.33398858 1.979125714 0.84300005 1.187157498e-38
0.3363905 1.97907619 0.84500003 1.214922966e-38
0.33800003 1.97907619 0.84500003 1.251692757e-38
0.34081525 1.979001904 0.84800005 1.297646519e-38
0.3424305 1.979001904 0.84800005 1.315870265e-38
0.34485716 1.97895238 0.85000002 1.334237785e-38
0.34729147 1.978902856 0.85200006 1.334274219e-38
0.34973332 1.978853334 0.85400003 1.334346245e-38
0.35218287 1.978803808 0.85600007 1.334346526e-38
0.35464001 1.978754286 0.85800004 1.334346946e-38
0.35627431 1.978754286 0.85800004 1.34345931e-38
0.35874283 1.978704762 0.86000001 1.343423296e-38
0.36038095 1.978704762 0.86000001 1.297397929e-38
0.36201903 1.978704762 0.86000001 1.251377325e-38
0.36365715 1.978704762 0.86000001 1.224333666e-38
0.36529523 1.978704762 0.86000001 1.207261226e-38
0.23856002 1.980525713 0.85200006 1.33575399e-38
0.23820953 1.980685715 0.84500003 1.317459338e-38
0.2381162 1.980822856 0.83900005 1.298513782e-38
0.23914286 1.980868571 0.83700001 1.122730559e-38
0.24016191 1.980914285 0.83500004 9.570659718e-39
0.24175239 1.980914285 0.83500004 9.567412909e-39
0.24276002 1.98096 0.83300006 9.659961666e-39
0.24376 1.981005713 0.83100003 9.477002534e-39
0.24534287 1.981005713 0.83100003 9.292622484e-39
0.24633144 1.981051426 0.82900006 9.200077931e-39
0.2479105 1.981051426 0.82900006 9.107886505e-39
0.24888761 1.981097143 0.82700002 9.2915603e-39
0.24985714 1.981142856 0.82500005 9.567058381e-39
0.25081906 1.981188571 0.82300001 9.567408705e-39
0.25238669 1.981188571 0.82300001 9.658168004e-39
0.25395429 1.981188571 0.82300001 9.657091807e-39
0.25552189 1.981188571 0.82300001 9.65601561e-39
0.25708953 1.981188571 0.82300001 9.930803232e-39
0.25865713 1.981188571 0.82300001 1.021098025e-38
0.26022476 1.981188571 0.82300001 9.934403168e-39
0.26179239 1.981188571 0.82300001 9.750369239e-39
0.26336002 1.981188571 0.82300001 9.934036028e-39
0.26428384 1.981234286 0.82100004 1.011770842e-38
0.26584762 1.981234286 0.82100004 9.74929024e-39
0.26741144 1.981234286 0.82100004 9.474865554e-39
0.26897526 1.981234286 0.82100004 1.002696033e-38
0.27053905 1.981234286 0.82100004 1.066908293e-38
0.2727657 1.981188571 0.82300001 1.048468747e-38
0.28166667 1.980685715 0.84500003 1.039105271e-38
0.28260574 1.980731426 0.84300005 1.020594258e-38
0.28421146 1.980731426 0.84300005 1.011338962e-38
0.28581718 1.980731426 0.84300005 9.929002564e-39
0.28674096 1.980777143 0.84100002 9.836448201e-39
0.28765714 1.980822856 0.83900005 9.28471776e-39
0.28925526 1.980822856 0.83900005 8.73478098e-39
0.29016 1.980868571 0.83700001 8.276679696e-39
0.29105717 1.980914285 0.83500004 7.817142082e-39
0.29264763 1.980914285 0.83500004 7.449441365e-39
0.29353335 1.98096 0.83300006 7.081739247e-39
0.29441145 1.981005713 0.83100003 7.081737845e-39
0.29528192 1.981051426 0.82900006 7.173220214e-39
0.29686096 1.981051426 0.82900006 7.358333143e-39
0.29772002 1.981097143 0.82700002 7.63312637e-39
0.2978476 1.981188571 0.82300001 8.001907488e-39
0.29868764 1.981234286 0.82100004 8.460723434e-39
0.30025142 1.981234286 0.82100004 8.920975711e-39
0.30108002 1.981279999 0.81900007 9.471990089e-39
0.30264002 1.981279999 0.81900007 9.747858113e-39
0.30420002 1.981279999 0.81900007 1.011592036e-38
0.30576003 1.981279999 0.81900007 1.011699936e-38
0.30656952 1.981325712 0.81700003 1.011807696e-38
0.30812573 1.981325712 0.81700003 1.057940824e-38
0.30968192 1.981325712 0.81700003 1.103858852e-38
0.31123811 1.981325712 0.81700003 1.113042682e-38
0.31356004 1.981279999 0.81900007 1.122332871e-38
0.31588954 1.981234286 0.82100004 1.122475383e-38
0.31745335 1.981234286 0.82100004 1.12244035e-38
0.31901714 1.981234286 0.82100004 1.131589007e-38
0.32058096 1.981234286 0.82100004 1.140808851e-38
0.32371432 1.981142856 0.82500005 1.150064707e-38
0.32528573 1.981142856 0.82500005 1.168575159e-38
0.33398858 1.980731426 0.84300005 1.196628034e-38
0.3363905 1.980685715 0.84500003 1.233218459e-38
0.33920002 1.980617141 0.84800005 1.269916644e-38
0.34081525 1.980617141 0.84800005 1.315870125e-38
0.3424305 1.980617141 0.84800005 1.334272957e-38
0.34404573 1.980617141 0.84800005 1.352605024e-38
0.34729147 1.980525713 0.85200006 1.352641738e-38
0.34973332 1.98048 0.85400003 1.352641318e-38
0.35218287 1.980434284 0.85600007 1.352640897e-38
0.35464001 1.980388571 0.85800004 1.352641038e-38
0.35627431 1.980388571 0.85800004 1.380191967e-38
0.35874283 1.980342858 0.86000001 1.407707163e-38
0.36038095 1.980342858 0.86000001 1.33416744e-38
0.36201903 1.980342858 0.86000001 1.269848541e-38
0.36365715 1.980342858 0.86000001 1.11329954e-38
0.36741909 1.980228569 0.86500007 9.580093259e-39
0.36906669 1.980228569 0.86500007 1.216014718e-38
0.23548001 1.982379047 0.84100002 1.24377388e-38
0.2370819 1.982379047 0.84100002 1.188027004e-38
0.2381162 1.982420953 0.83900005 1.141492965e-38
0.23914286 1.982462857 0.83700001 1.048897825e-38
0.24016191 1.982504761 0.83500004 9.655302349e-39
0.24175239 1.982504761 0.83500004 9.474878165e-39
0.24276002 1.982546665 0.83300006 9.292632293e-39
0.24376 1.982588571 0.83100003 9.292265153e-39
0.24534287 1.982588571 0.83100003 9.384104853e-39
0.24692571 1.982588571 0.83100003 9.384469191e-39
0.2479105 1.982630476 0.82900006 9.477741018e-39
0.24948955 1.982630476 0.82900006 9.661414813e-39
0.25046286 1.98267238 0.82700002 9.937277231e-39
0.25142857 1.982714284 0.82500005 1.002910992e-38
0.25238669 1.98275619 0.82300001 1.021313404e-38
0.25395429 1.98275619 0.82300001 1.030424647e-38
0.25552189 1.98275619 0.82300001 1.048755873e-38
0.25708953 1.98275619 0.82300001 1.067122972e-38
0.25865713 1.98275619 0.82300001 1.094673761e-38
0.26022476 1.98275619 0.82300001 1.094638028e-38
0.26179239 1.98275619 0.82300001 1.094601174e-38
0.26336002 1.98275619 0.82300001 1.076161487e-38
0.26492763 1.98275619 0.82300001 1.066907032e-38
0.26649523 1.98275619 0.82300001 1.030137941e-38
0.26936573 1.98267238 0.82700002 1.00255268e-38
0.26963046 1.98275619 0.82300001 1.067054169e-38
0.27383429 1.982588571 0.83100003 1.131373488e-38
0.2793943 1.982337141 0.84300005 1.103749831e-38
0.28100002 1.982337141 0.84300005 1.076162609e-38
0.2832762 1.982295237 0.84500003 1.057651316e-38
0.2848857 1.982295237 0.84500003 1.048324413e-38
0.28649524 1.982295237 0.84500003 1.020738031e-38
0.28810477 1.982295237 0.84500003 1.002334919e-38
0.28902858 1.982337141 0.84300005 9.656723266e-39
0.28994477 1.982379047 0.84100002 9.290456077e-39
0.29085335 1.982420953 0.83900005 8.829483533e-39
0.29175431 1.982462857 0.83700001 8.370306052e-39
0.29334855 1.982462857 0.83700001 7.908260113e-39
0.29423809 1.982504761 0.83500004 7.450874893e-39
0.29512003 1.982546665 0.83300006 7.264691373e-39
0.29599428 1.982588571 0.83100003 7.172142616e-39
0.29686096 1.982630476 0.82900006 7.448729505e-39
0.29844004 1.982630476 0.82900006 7.724957662e-39
0.29857147 1.982714284 0.82500005 8.092662583e-39
0.29941526 1.98275619 0.82300001 8.368883734e-39
0.30025142 1.982798096 0.82100004 8.736940381e-39
0.30181524 1.982798096 0.82100004 9.196475193e-39
0.30337906 1.982798096 0.82100004 9.380504918e-39
0.30494285 1.982798096 0.82100004 9.654939413e-39
0.30650666 1.982798096 0.82100004 9.750007704e-39
0.30807051 1.982798096 0.82100004 9.750367838e-39
0.3096343 1.982798096 0.82100004 1.002623586e-38
0.31044003 1.982839998 0.81900007 1.030210669e-38
0.31276193 1.982798096 0.82100004 1.039502539e-38
0.31432572 1.982798096 0.82100004 1.048792727e-38
0.31665906 1.98275619 0.82300001 1.058082916e-38
0.31822667 1.98275619 0.82300001 1.067303179e-38
0.31979427 1.98275619 0.82300001 1.085635386e-38
0.3213619 1.98275619 0.82300001 1.113150442e-38
0.32292953 1.98275619 0.82300001 1.131589708e-38
0.32449716 1.98275619 0.82300001 1.159355737e-38
0.33478096 1.982295237 0.84500003 1.205524737e-38
0.3363905 1.982295237 0.84500003 1.242294669e-38
0.33920002 1.982232379 0.84800005 1.279064601e-38
0.34081525 1.982232379 0.84800005 1.315798379e-38
0.3424305 1.982232379 0.84800005 1.343456367e-38
0.34485716 1.982190475 0.85000002 1.370972264e-38
0.3464762 1.982190475 0.85000002 1.352713905e-38
0.34973332 1.982106667 0.85400003 1.343636854e-38
0.35135999 1.982106667 0.85400003 1.3436e-38
0.35381335 1.982064761 0.85600007 1.343563987e-38
0.35627431 1.982022855 0.85800004 1.361859199e-38
0.35790858 1.982022855 0.85800004 1.389374816e-38
0.36038095 1.981980953 0.86000001 1.343458049e-38
0.36201903 1.981980953 0.86000001 1.306722729e-38
0.36365715 1.981980953 0.86000001 1.205415576e-38
0.36614478 1.981939048 0.86200005 1.104080538e-38
0.36778668 1.981939048 0.86200005 1.197106717e-38
0.23604001 1.983942857 0.84300005 1.160148591e-38
0.2370819 1.983980954 0.84100002 1.068204635e-38
0.2381162 1.984019047 0.83900005 9.847958467e-39
0.23914286 1.984057143 0.83700001 9.750706952e-39
0.24016191 1.984095238 0.83500004 9.750003501e-39
0.24175239 1.984095238 0.83500004 9.2904813e-39
0.24276002 1.984133331 0.83300006 8.923136513e-39
0.24376 1.984171428 0.83100003 9.198640199e-39
0.24534287 1.984171428 0.83100003 9.567062585e-39
0.24633144 1.984209523 0.82900006 9.660695947e-39
0.2479105 1.984209523 0.82900006 9.844009608e-39
0.24948955 1.984209523 0.82900006 1.0027682e-38
0.25046286 1.984247617 0.82700002 1.030426048e-38
0.25142857 1.984285714 0.82500005 1.049008107e-38
0.25361332 1.984247617 0.82700002 1.076486869e-38
0.25457144 1.984285714 0.82500005 1.103929758e-38
0.25614285 1.984285714 0.82500005 1.131587606e-38
0.2577143 1.984285714 0.82500005 1.150061905e-38
0.25928575 1.984285714 0.82500005 1.177612834e-38
0.26085716 1.984285714 0.82500005 1.195980213e-38
0.26306477 1.984247617 0.82700002 1.223350795e-38
0.26464 1.984247617 0.82700002 1.168105304e-38
0.26621523 1.984247617 0.82700002 1.12211665e-38
0.2684381 1.984209523 0.82900006 1.094495236e-38
0.26936573 1.984247617 0.82700002 1.067017875e-38
0.27159622 1.984209523 0.82900006 1.131412023e-38
0.27449334 1.984133331 0.83300006 1.195695329e-38
0.2793943 1.983942857 0.84300005 1.149632547e-38
0.28166667 1.98390476 0.84500003 1.112861634e-38
0.2832762 1.98390476 0.84500003 1.094386215e-38
0.2848857 1.98390476 0.84500003 1.085166792e-38
0.28649524 1.98390476 0.84500003 1.04839686e-38
0.28810477 1.98390476 0.84500003 1.020846071e-38
0.28971431 1.98390476 0.84500003 1.002478832e-38
0.2906343 1.983942857 0.84300005 9.840754392e-39
0.29154664 1.983980954 0.84100002 9.38049651e-39
0.29245144 1.984019047 0.83900005 9.011719596e-39
0.29404953 1.984019047 0.83900005 8.458914358e-39
0.29494286 1.984057143 0.83700001 7.90646505e-39
0.29512003 1.984133331 0.83300006 7.537686734e-39
0.29670668 1.984133331 0.83300006 7.172141214e-39
0.29757717 1.984171428 0.83100003 7.540203466e-39
0.29916 1.984171428 0.83100003 7.907906986e-39
0.29929525 1.984247617 0.82700002 8.091940915e-39
0.30014288 1.984285714 0.82500005 8.368164868e-39
0.3017143 1.984285714 0.82500005 8.644747554e-39
0.30255049 1.984323809 0.82300001 8.920611373e-39
0.3041181 1.984323809 0.82300001 9.104998429e-39
0.3056857 1.984323809 0.82300001 9.288310689e-39
0.30725333 1.984323809 0.82300001 9.383017446e-39
0.30882093 1.984323809 0.82300001 9.474498413e-39
0.31038859 1.984323809 0.82300001 9.565980782e-39
0.3119562 1.984323809 0.82300001 9.658535145e-39
0.31352383 1.984323809 0.82300001 9.751808373e-39
0.31509143 1.984323809 0.82300001 9.845074595e-39
0.31665906 1.984323809 0.82300001 1.002945885e-38
0.31822667 1.984323809 0.82300001 1.021277671e-38
0.31979427 1.984323809 0.82300001 1.048757134e-38
0.3213619 1.984323809 0.82300001 1.085527766e-38
0.32292953 1.984323809 0.82300001 1.122334272e-38
0.33317143 1.98390476 0.84500003 1.159463917e-38
0.33478096 1.98390476 0.84500003 1.205525999e-38
0.33758476 1.983847618 0.84800005 1.260661628e-38
0.33920002 1.983847618 0.84800005 1.288246469e-38
0.34081525 1.983847618 0.84800005 1.325052414e-38
0.3424305 1.983847618 0.84800005 1.352674809e-38
0.34485716 1.983809523 0.85000002 1.389481034e-38
0.3464762 1.983809523 0.85000002 1.362038425e-38
0.34973332 1.983733334 0.85400003 1.334451763e-38
0.35135999 1.983733334 0.85400003 1.33441589e-38
0.35381335 1.983695237 0.85600007 1.33441589e-38
0.35627431 1.983657144 0.85800004 1.352819003e-38
0.35790858 1.983657144 0.85800004 1.371079323e-38
0.36038095 1.983619047 0.86000001 1.361968501e-38
0.36201903 1.983619047 0.86000001 1.352605164e-38
0.36450288 1.983580951 0.86200005 1.297575193e-38
0.36741909 1.983523808 0.86500007 1.251659547e-38
0.36906669 1.983523808 0.86500007 1.178229125e-38
0.37071431 1.983523808 0.86500007 1.105484779e-38
0.23548001 1.985582856 0.84100002 1.105257909e-38
0.2370819 1.985582856 0.84100002 1.030926592e-38
0.2381162 1.985617142 0.83900005 9.658518329e-39
0.23914286 1.985651429 0.83700001 9.566677228e-39
0.24016191 1.985685714 0.83500004 9.473057879e-39
0.24175239 1.985685714 0.83500004 9.290472893e-39
0.24276002 1.985719998 0.83300006 9.106447372e-39
0.24376 1.985754286 0.83100003 9.2904813e-39
0.24534287 1.985754286 0.83100003 9.566708056e-39
0.24692571 1.985754286 0.83100003 9.660700151e-39
0.24850859 1.985754286 0.83100003 9.843653678e-39
0.24948955 1.985788571 0.82900006 1.011987763e-38
0.25106859 1.985788571 0.82900006 1.039609738e-38
0.25203812 1.985822856 0.82700002 1.067375346e-38
0.25361332 1.985822856 0.82700002 1.085778459e-38
0.25518855 1.985822856 0.82700002 1.122512937e-38
0.25614285 1.985857143 0.82500005 1.150062746e-38
0.2577143 1.985857143 0.82500005 1.177612694e-38
0.25928575 1.985857143 0.82500005 1.196087693e-38
0.26148951 1.985822856 0.82700002 1.232714692e-38
0.26306477 1.985822856 0.82700002 1.278596006e-38
0.26528001 1.985788571 0.82900006 1.205019569e-38
0.26685908 1.985788571 0.82900006 1.140627943e-38
0.26908571 1.985754286 0.83100003 1.113006529e-38
0.27001715 1.985788571 0.82900006 1.094605378e-38
0.27225143 1.985754286 0.83100003 1.131377411e-38
0.2771295 1.985582856 0.84100002 1.168181675e-38
0.2793943 1.985548571 0.84300005 1.140414105e-38
0.28166667 1.985514285 0.84500003 1.112826602e-38
0.2832762 1.985514285 0.84500003 1.103606338e-38
0.28589717 1.985462856 0.84800005 1.094422789e-38
0.28751242 1.985462856 0.84800005 1.066836407e-38
0.28810477 1.985514285 0.84500003 1.039249745e-38
0.28971431 1.985514285 0.84500003 1.039213731e-38
0.29132381 1.985514285 0.84500003 1.029957594e-38
0.29224002 1.985548571 0.84300005 1.002406245e-38
0.29314858 1.985582856 0.84100002 9.745328769e-39
0.29475048 1.985582856 0.84100002 9.101046767e-39
0.29494286 1.985651429 0.83700001 8.549313523e-39
0.29582858 1.985685714 0.83500004 8.090493373e-39
0.29670668 1.985719998 0.83300006 7.631676026e-39
0.29757717 1.985754286 0.83100003 7.72279686e-39
0.29916 1.985754286 0.83100003 7.906110521e-39
0.30074286 1.985754286 0.83100003 8.182337277e-39
0.30087048 1.985822856 0.82700002 8.458922766e-39
0.30244571 1.985822856 0.82700002 8.551121198e-39
0.30328572 1.985857143 0.82500005 8.735506853e-39
0.30485713 1.985857143 0.82500005 8.736222916e-39
0.30642861 1.985857143 0.82500005 8.830206603e-39
0.3087467 1.985822856 0.82700002 9.014233525e-39
0.31032193 1.985822856 0.82700002 9.290105752e-39
0.31189713 1.985822856 0.82700002 9.381949656e-39
0.31347236 1.985822856 0.82700002 9.473425019e-39
0.31428573 1.985857143 0.82500005 9.658529539e-39
0.31662285 1.985822856 0.82700002 9.936905887e-39
0.31819808 1.985822856 0.82700002 1.021241378e-38
0.31900001 1.985857143 0.82500005 1.05801173e-38
0.32057142 1.985857143 0.82500005 1.085526786e-38
0.32995239 1.985514285 0.84500003 1.122082318e-38
0.33156192 1.985514285 0.84500003 1.159355456e-38
0.33317143 1.985514285 0.84500003 1.205489985e-38
0.33596954 1.985462856 0.84800005 1.260664571e-38
0.33758476 1.985462856 0.84800005 1.315834532e-38
0.33920002 1.985462856 0.84800005 1.315831449e-38
0.34081525 1.985462856 0.84800005 1.315975223e-38
0.3424305 1.985462856 0.84800005 1.316011376e-38
0.34485716 1.985428572 0.85000002 1.316082702e-38
0.34729147 1.985394284 0.85200006 1.316082282e-38
0.34973332 1.985359999 0.85400003 1.306899573e-38
0.35218287 1.985325714 0.85600007 1.31604823e-38
0.35381335 1.985325714 0.85600007 1.325267933e-38
0.35627431 1.985291429 0.85800004 1.343527693e-38
0.35790858 1.985291429 0.85800004 1.370971703e-38
0.36038095 1.985257142 0.86000001 1.352605585e-38
0.36286098 1.985222857 0.86200005 1.334238766e-38
0.36450288 1.985222857 0.86200005 1.297504848e-38
0.36741909 1.985171427 0.86500007 1.251261438e-38
0.36992002 1.985137142 0.86700004 1.205197534e-38
0.3724286 1.985102857 0.86900002 1.168364965e-38
0.37408379 1.985102857 0.86900002 1.215404032e-38
0.23492001 1.987215238 0.83900005 1.049438446e-38
0.2365181 1.987215238 0.83900005 1.002838125e-38
0.2381162 1.987215238 0.83900005 9.567044368e-39
0.23914286 1.987245714 0.83700001 9.382648904e-39
0.24016191 1.98727619 0.83500004 9.198984918e-39
0.24175239 1.98727619 0.83500004 9.198991925e-39
0.24276002 1.987306666 0.83300006 9.290830224e-39
0.24434669 1.987306666 0.83300006 9.384462184e-39
0.24534287 1.987337142 0.83100003 9.568494712e-39
0.24692571 1.987337142 0.83100003 9.752527239e-39
0.24850859 1.987337142 0.83100003 9.93727583e-39
0.24948955 1.987367618 0.82900006 1.021386132e-38
0.25106859 1.987367618 0.82900006 1.058156344e-38
0.25264764 1.987367618 0.82900006 1.07659547e-38
0.25361332 1.987398095 0.82700002 1.104147099e-38
0.25518855 1.987398095 0.82700002 1.140882419e-38
0.25676382 1.987398095 0.82700002 1.177615216e-38
0.25833905 1.987398095 0.82700002 1.195980914e-38
0.25991428 1.987398095 0.82700002 1.223532404e-38
0.26148951 1.987398095 0.82700002 1.278670415e-38
0.26370096 1.987367618 0.82900006 1.333734298e-38
0.26528001 1.987367618 0.82900006 1.241897261e-38
0.26750287 1.987337142 0.83100003 1.158959029e-38
0.26908571 1.987337142 0.83100003 1.140664517e-38
0.27066857 1.987337142 0.83100003 1.122226792e-38
0.27290669 1.987306666 0.83300006 1.131339857e-38
0.2771295 1.987184762 0.84100002 1.140450118e-38
0.2793943 1.987154285 0.84300005 1.131229294e-38
0.28166667 1.987123809 0.84500003 1.122045044e-38
0.28428194 1.987078095 0.84800005 1.112896667e-38
0.28589717 1.987078095 0.84800005 1.112825341e-38
0.28751242 1.987078095 0.84800005 1.085239239e-38
0.28810477 1.987123809 0.84500003 1.06687214e-38
0.28971431 1.987123809 0.84500003 1.076055549e-38
0.29132381 1.987123809 0.84500003 1.085166652e-38
0.29293334 1.987123809 0.84500003 1.066762979e-38
0.29384574 1.987154285 0.84300005 1.04807302e-38
0.29475048 1.987184762 0.84100002 9.835011871e-39
0.29564765 1.987215238 0.83900005 9.192520729e-39
0.29653716 1.987245714 0.83700001 8.641865083e-39
0.29741904 1.98727619 0.83500004 8.089419979e-39
0.29900953 1.98727619 0.83500004 7.995792222e-39
0.29988003 1.987306666 0.83300006 7.90396093e-39
0.30074286 1.987337142 0.83100003 8.179828953e-39
0.3015981 1.987367618 0.82900006 8.550400931e-39
0.30317718 1.987367618 0.82900006 8.54860867e-39
0.30475619 1.987367618 0.82900006 8.551116994e-39
0.30633524 1.987367618 0.82900006 8.459638829e-39
0.30791432 1.987367618 0.82900006 8.459634625e-39
0.30949333 1.987367618 0.82900006 8.735495642e-39
0.31107238 1.987367618 0.82900006 9.106074626e-39
0.31265146 1.987367618 0.82900006 9.198275861e-39
0.3142305 1.987367618 0.82900006 9.38194265e-39
0.31580955 1.987367618 0.82900006 9.657444934e-39
0.31738859 1.987367618 0.82900006 1.002730225e-38
0.31896764 1.987367618 0.82900006 1.04872028e-38
0.32054669 1.987367618 0.82900006 1.094710335e-38
0.32950857 1.987078095 0.84800005 1.131516841e-38
0.33112383 1.987078095 0.84800005 1.168538165e-38
0.33273906 1.987078095 0.84800005 1.205595363e-38
0.33435431 1.987078095 0.84800005 1.251513952e-38
0.33596954 1.987078095 0.84800005 1.306652104e-38
0.33758476 1.987078095 0.84800005 1.370970862e-38
0.33920002 1.987078095 0.84800005 1.343454265e-38
0.34161904 1.987047619 0.85000002 1.315975783e-38
0.34323812 1.987047619 0.85000002 1.279349485e-38
0.34485716 1.987047619 0.85000002 1.251798976e-38
0.34729147 1.987017142 0.85200006 1.270166075e-38
0.34973332 1.986986666 0.85400003 1.288498282e-38
0.35218287 1.986956189 0.85600007 1.297682812e-38
0.35381335 1.986956189 0.85600007 1.315942292e-38
0.35627431 1.986925714 0.85800004 1.343277701e-38
0.35790858 1.986925714 0.85800004 1.380084067e-38
0.36038095 1.986895238 0.86000001 1.352641598e-38
0.36201903 1.986895238 0.86000001 1.325054936e-38
0.36450288 1.986864761 0.86200005 1.288248851e-38
0.36741909 1.986819047 0.86500007 1.260517434e-38
0.36992002 1.986788571 0.86700004 1.242113201e-38
0.3724286 1.986758095 0.86900002 1.232682322e-38
0.37408379 1.986758095 0.86900002 1.168473145e-38
0.23548001 1.988786667 0.84100002 1.076988394e-38
0.2365181 1.988813333 0.83900005 1.002982038e-38
0.2381162 1.988813333 0.83900005 9.384093643e-39
0.23914286 1.98884 0.83700001 8.833072258e-39
0.24073714 1.98884 0.83700001 8.282422218e-39
0.24175239 1.988866666 0.83500004 8.556139248e-39
0.24276002 1.988893333 0.83300006 8.924200099e-39
0.24434669 1.988893333 0.83300006 9.108231225e-39
0.24593334 1.988893333 0.83300006 9.292262351e-39
0.24692571 1.988919999 0.83100003 9.47665361e-39
0.24850859 1.988919999 0.83100003 9.662839933e-39
0.25009143 1.988919999 0.83100003 9.938350626e-39
0.25106859 1.988946666 0.82900006 1.021422425e-38
0.25264764 1.988946666 0.82900006 1.058085718e-38
0.25422668 1.988946666 0.82900006 1.094785865e-38
0.25580573 1.988946666 0.82900006 1.131701251e-38
0.25676382 1.988973334 0.82700002 1.177509278e-38
0.25833905 1.988973334 0.82700002 1.186762612e-38
0.25991428 1.988973334 0.82700002 1.19580393e-38
0.26212192 1.988946666 0.82900006 1.195948824e-38
0.26370096 1.988946666 0.82900006 1.205452571e-38
0.26592001 1.988919999 0.83100003 1.159065948e-38
0.26750287 1.988919999 0.83100003 1.12222483e-38
0.26973337 1.988893333 0.83300006 1.112934362e-38
0.27066857 1.988919999 0.83100003 1.112791289e-38
0.27421716 1.98884 0.83700001 1.121975259e-38
0.27778858 1.988759999 0.84300005 1.131193421e-38
0.28005713 1.988733334 0.84500003 1.122080497e-38
0.28166667 1.988733334 0.84500003 1.122151683e-38
0.28428194 1.988693333 0.84800005 1.140446615e-38
0.28589717 1.988693333 0.84800005 1.149630865e-38
0.28751242 1.988693333 0.84800005 1.122081057e-38
0.28912762 1.988693333 0.84800005 1.094566282e-38
0.28971431 1.988733334 0.84500003 1.103749831e-38
0.2923581 1.988693333 0.84800005 1.103749131e-38
0.29293334 1.988733334 0.84500003 1.0946725e-38
0.29454288 1.988733334 0.84500003 1.085632303e-38
0.29545146 1.988759999 0.84300005 1.030208006e-38
0.29635239 1.988786667 0.84100002 9.748197227e-39
0.29724574 1.988813333 0.83900005 9.192879461e-39
0.29813141 1.98884 0.83700001 8.638998026e-39
0.29972571 1.98884 0.83700001 8.454971104e-39
0.30059999 1.988866666 0.83500004 8.364216009e-39
0.30219048 1.988866666 0.83500004 8.548968804e-39
0.30232573 1.988919999 0.83100003 8.825550088e-39
0.30390859 1.988919999 0.83100003 8.82590882e-39
0.30549145 1.988919999 0.83100003 8.82626475e-39
0.30633524 1.988946666 0.82900006 8.45999616e-39
0.30791432 1.988946666 0.82900006 8.185920397e-39
0.30949333 1.988946666 0.82900006 8.645811139e-39
0.31107238 1.988946666 0.82900006 9.106071824e-39
0.31340572 1.988919999 0.83100003 9.381945452e-39
0.31498858 1.988919999 0.83100003 9.751790156e-39
0.31580955 1.988946666 0.82900006 1.021024317e-38
0.31815431 1.988919999 0.83100003 1.066871159e-38
0.31973714 1.988919999 0.83100003 1.10418031e-38
0.32673335 1.988733334 0.84500003 1.150350012e-38
0.32950857 1.988693333 0.84800005 1.187156797e-38
0.33112383 1.988693333 0.84800005 1.223962322e-38
0.33273906 1.988693333 0.84800005 1.242364874e-38
0.33435431 1.988693333 0.84800005 1.26091148e-38
0.33596954 1.988693333 0.84800005 1.297610085e-38
0.33758476 1.988693333 0.84800005 1.343491259e-38
0.34 1.988666667 0.85000002 1.3251236e-38
0.34161904 1.988666667 0.85000002 1.306792794e-38
0.34323812 1.988666667 0.85000002 1.279278439e-38
0.34566858 1.98864 0.85200006 1.260983646e-38
0.34729147 1.98864 0.85200006 1.279315433e-38
0.34973332 1.988613334 0.85400003 1.29764764e-38
0.35135999 1.988613334 0.85400003 1.297541001e-38
0.35381335 1.988586666 0.85600007 1.306652524e-38
0.35627431 1.98856 0.85800004 1.324947596e-38
0.35790858 1.98856 0.85800004 1.343171203e-38
0.36038095 1.988533334 0.86000001 1.334167159e-38
0.36286098 1.988506666 0.86200005 1.315871106e-38
0.36450288 1.988506666 0.86200005 1.2974317e-38
0.36741909 1.988466666 0.86500007 1.269809304e-38
0.36992002 1.98844 0.86700004 1.251298852e-38
0.3724286 1.988413333 0.86900002 1.241934395e-38
0.37408379 1.988413333 0.86900002 1.196015246e-38
0.37573904 1.988413333 0.86900002 1.150463377e-38
0.23548001 1.990388571 0.84100002 1.104216043e-38
0.2365181 1.990411428 0.83900005 1.012343973e-38
0.2381162 1.990411428 0.83900005 9.200417045e-39
0.23971429 1.990411428 0.83900005 8.279546753e-39
0.24073714 1.990434285 0.83700001 7.453390224e-39
0.24233143 1.990434285 0.83700001 8.005126271e-39
0.24334286 1.990457143 0.83500004 8.55649798e-39
0.24434669 1.99048 0.83300006 8.740529106e-39
0.24593334 1.99048 0.83300006 9.016750257e-39
0.24692571 1.990502857 0.83100003 9.201137313e-39
0.24850859 1.990502857 0.83100003 9.47808854e-39
0.25009143 1.990502857 0.83100003 9.663561602e-39
0.25167426 1.990502857 0.83100003 9.93835483e-39
0.25264764 1.990525713 0.82900006 1.039681905e-38
0.25422668 1.990525713 0.82900006 1.085708254e-38
0.25580573 1.990525713 0.82900006 1.131734462e-38
0.25738478 1.990525713 0.82900006 1.177615356e-38
0.25896382 1.990525713 0.82900006 1.177578362e-38
0.26054287 1.990525713 0.82900006 1.177543329e-38
0.26212192 1.990525713 0.82900006 1.122406859e-38
0.26433715 1.990502857 0.83100003 1.07638009e-38
0.26592001 1.990502857 0.83100003 1.076270929e-38
0.26750287 1.990502857 0.83100003 1.085383012e-38
0.26973337 1.99048 0.83300006 1.094495096e-38
0.27066857 1.990502857 0.83100003 1.103642912e-38
0.27618286 1.990365713 0.84300005 1.112826602e-38
0.2784476 1.990342857 0.84500003 1.122009451e-38
0.28005713 1.990342857 0.84500003 1.122188116e-38
0.28266668 1.990308571 0.84800005 1.131335513e-38
0.28428194 1.990308571 0.84800005 1.158850148e-38
0.28589717 1.990308571 0.84800005 1.195585187e-38
0.28751242 1.990308571 0.84800005 1.15885197e-38
0.28810477 1.990342857 0.84500003 1.131301461e-38
0.28971431 1.990342857 0.84500003 1.131373348e-38
0.2923581 1.990308571 0.84800005 1.131336493e-38
0.29293334 1.990342857 0.84500003 1.131407399e-38
0.29454288 1.990342857 0.84500003 1.131335372e-38
0.29615241 1.990342857 0.84500003 1.085381331e-38
0.29776192 1.990342857 0.84500003 1.039176597e-38
0.29866287 1.990365713 0.84300005 9.835730737e-39
0.2995562 1.990388571 0.84100002 9.282924098e-39
0.30044192 1.990411428 0.83900005 9.00598268e-39
0.30204001 1.990411428 0.83900005 8.823752222e-39
0.30291429 1.990434285 0.83700001 8.917385584e-39
0.30378094 1.990457143 0.83500004 9.101056577e-39
0.30464 1.99048 0.83300006 9.101056577e-39
0.3062267 1.99048 0.83300006 9.102132774e-39
0.30707428 1.990502857 0.83100003 8.460360498e-39
0.30865717 1.990502857 0.83100003 7.910422317e-39
0.31024 1.990502857 0.83100003 8.55470572e-39
0.31182286 1.990502857 0.83100003 9.197564002e-39
0.31340572 1.990502857 0.83100003 9.657827489e-39
0.31574669 1.99048 0.83300006 1.012022235e-38
0.31733334 1.99048 0.83300006 1.067122412e-38
0.32198286 1.990388571 0.84100002 1.131766972e-38
0.32512382 1.990342857 0.84500003 1.168861024e-38
0.32789335 1.990308571 0.84800005 1.205595363e-38
0.33028573 1.990285713 0.85000002 1.242365715e-38
0.33190477 1.990285713 0.85000002 1.288319476e-38
0.33352381 1.990285713 0.85000002 1.27917194e-38
0.33514288 1.990285713 0.85000002 1.270023983e-38
0.33676192 1.990285713 0.85000002 1.288462549e-38
0.33838096 1.990285713 0.85000002 1.31594061e-38
0.34080002 1.990262857 0.85200006 1.30654084e-38
0.3424229 1.990262857 0.85200006 1.306649441e-38
0.34404573 1.990262857 0.85200006 1.288355069e-38
0.34648001 1.99024 0.85400003 1.26998825e-38
0.34810668 1.99024 0.85400003 1.288391503e-38
0.34973332 1.99024 0.85400003 1.30683175e-38
0.35135999 1.99024 0.85400003 1.297470236e-38
0.35381335 1.990217142 0.85600007 1.297433662e-38
0.35544384 1.990217142 0.85600007 1.306616651e-38
0.35707432 1.990217142 0.85600007 1.315764327e-38
0.35954288 1.990194285 0.85800004 1.315728454e-38
0.36117715 1.990194285 0.85800004 1.315763907e-38
0.36450288 1.99014857 0.86200005 1.29743212e-38
0.36741909 1.990114285 0.86500007 1.288176684e-38
0.36906669 1.990114285 0.86500007 1.269665952e-38
0.37157145 1.990091428 0.86700004 1.251190952e-38
0.37322289 1.990091428 0.86700004 1.214384587e-38
0.37487429 1.990091428 0.86700004 1.186980514e-38
0.37652573 1.990091428 0.86700004 1.113335694e-38
0.2365181 1.992009523 0.83900005 1.003087836e-38
0.2381162 1.992009523 0.83900005 9.568112157e-39
0.23971429 1.992009523 0.83900005 8.831993258e-39
0.24073714 1.992028572 0.83700001 8.186997996e-39
0.24233143 1.992028572 0.83700001 8.369957129e-39
0.24334286 1.992047619 0.83500004 8.645104885e-39
0.24493335 1.992047619 0.83500004 8.738016578e-39
0.24593334 1.992066666 0.83300006 8.923116895e-39
0.24752003 1.992066666 0.83300006 8.923470022e-39
0.24850859 1.992085714 0.83100003 9.015678264e-39
0.25009143 1.992085714 0.83100003 9.107886505e-39
0.25167426 1.992085714 0.83100003 9.292274962e-39
0.25325716 1.992085714 0.83100003 9.659616947e-39
0.25422668 1.992104761 0.82900006 1.002695893e-38
0.25580573 1.992104761 0.82900006 1.01184357e-38
0.25738478 1.992104761 0.82900006 1.021026979e-38
0.25896382 1.992104761 0.82900006 1.030174655e-38
0.26054287 1.992104761 0.82900006 1.039322472e-38
0.26212192 1.992104761 0.82900006 1.030067456e-38
0.26433715 1.992085714 0.83100003 1.029995289e-38
0.26656002 1.992066666 0.83300006 1.048362108e-38
0.26814669 1.992066666 0.83300006 1.066728927e-38
0.27297145 1.991971429 0.84300005 1.085382872e-38
0.27620572 1.991923809 0.84800005 1.103821578e-38
0.27782094 1.991923809 0.84800005 1.13130048e-38
0.2794362 1.991923809 0.84800005 1.167962652e-38
0.28005713 1.99195238 0.84500003 1.149846525e-38
0.28266668 1.991923809 0.84800005 1.131622919e-38
0.28428194 1.991923809 0.84800005 1.140627102e-38
0.28589717 1.991923809 0.84800005 1.14977576e-38
0.28751242 1.991923809 0.84800005 1.140557458e-38
0.28912762 1.991923809 0.84800005 1.131338315e-38
0.29074287 1.991923809 0.84800005 1.140558018e-38
0.2923581 1.991923809 0.84800005 1.149632827e-38
0.29397336 1.991923809 0.84800005 1.149667719e-38
0.29558858 1.991923809 0.84800005 1.149703032e-38
0.29720384 1.991923809 0.84800005 1.112896527e-38
0.29776192 1.99195238 0.84500003 1.075982962e-38
0.29937142 1.99195238 0.84500003 1.020809918e-38
0.30026859 1.991971429 0.84300005 9.748201431e-39
0.3011581 1.991990477 0.84100002 9.564529037e-39
0.30276 1.991990477 0.84100002 9.472697745e-39
0.3036381 1.992009523 0.83900005 9.564180114e-39
0.30450857 1.992028572 0.83700001 9.655656878e-39
0.30610287 1.992028572 0.83700001 9.656017011e-39
0.30696192 1.992047619 0.83500004 9.748571373e-39
0.30855238 1.992047619 0.83500004 9.653868821e-39
0.30940002 1.992066666 0.83300006 9.563829789e-39
0.31098667 1.992066666 0.83300006 9.564908789e-39
0.31257334 1.992066666 0.83300006 9.656755496e-39
0.31491429 1.992047619 0.83500004 1.011845671e-38
0.31726286 1.992028572 0.83700001 1.067232414e-38
0.32114285 1.991971429 0.84300005 1.131587606e-38
0.32351428 1.99195238 0.84500003 1.19626832e-38
0.32627809 1.991923809 0.84800005 1.205560751e-38
0.32866666 1.991904762 0.85000002 1.214779613e-38
0.33106288 1.991885714 0.85200006 1.260625194e-38
0.33190477 1.991904762 0.85000002 1.30650777e-38
0.33352381 1.991904762 0.85000002 1.297396807e-38
0.33593145 1.991885714 0.85200006 1.279100614e-38
0.33755431 1.991885714 0.85200006 1.288391083e-38
0.33917716 1.991885714 0.85200006 1.306792794e-38
0.34080002 1.991885714 0.85200006 1.315867603e-38
0.3424229 1.991885714 0.85200006 1.334164357e-38
0.34485334 1.991866667 0.85400003 1.306722869e-38
0.34648001 1.991866667 0.85400003 1.28835577e-38
0.34810668 1.991866667 0.85400003 1.325089968e-38
0.34973332 1.991866667 0.85400003 1.361933608e-38
0.35135999 1.991866667 0.85400003 1.315838316e-38
0.35381335 1.991847619 0.85600007 1.26974022e-38
0.35544384 1.991847619 0.85600007 1.288213959e-38
0.35707432 1.991847619 0.85600007 1.306581058e-38
0.35954288 1.991828572 0.85800004 1.306509311e-38
0.36286098 1.991790475 0.86200005 1.31569244e-38
0.36450288 1.991790475 0.86200005 1.306544484e-38
0.36741909 1.991761904 0.86500007 1.297360514e-38
0.36906669 1.991761904 0.86500007 1.278993134e-38
0.37071431 1.991761904 0.86500007 1.269810285e-38
0.37322289 1.991742857 0.86700004 1.242260477e-38
0.37487429 1.991742857 0.86700004 1.214708567e-38
0.37652573 1.991742857 0.86700004 1.159319163e-38
0.23754857 1.993622857 0.83700001 9.937249205e-39
0.23971429 1.993607619 0.83900005 9.476994126e-39
0.24073714 1.993622857 0.83700001 9.015668455e-39
0.24233143 1.993622857 0.83700001 8.830209405e-39
0.24334286 1.993638095 0.83500004 8.737296311e-39
0.24493335 1.993638095 0.83500004 8.736218712e-39
0.24593334 1.993653333 0.83300006 8.830921265e-39
0.24752003 1.993653333 0.83300006 8.646531407e-39
0.24910668 1.993653333 0.83300006 8.555779114e-39
0.25009143 1.993668571 0.83100003 8.648699215e-39
0.25167426 1.993668571 0.83100003 8.740536113e-39
0.25325716 1.993668571 0.83100003 9.016042601e-39
0.25483999 1.993668571 0.83100003 9.291191759e-39
0.25642288 1.993668571 0.83100003 9.015686671e-39
0.25738478 1.993683809 0.82900006 8.740181584e-39
0.2595886 1.993668571 0.83100003 8.832019883e-39
0.26054287 1.993683809 0.82900006 9.015334946e-39
0.26212192 1.993683809 0.82900006 9.381962268e-39
0.26433715 1.993668571 0.83100003 9.840778214e-39
0.27392003 1.993478095 0.85600007 1.02070426e-38
0.27490667 1.993493333 0.85400003 1.057653418e-38
0.27588573 1.993508571 0.85200006 1.076271349e-38
0.27750859 1.993508571 0.85200006 1.103821718e-38
0.27847618 1.99352381 0.85000002 1.158922735e-38
0.28009525 1.99352381 0.85000002 1.223315202e-38
0.28105143 1.993539047 0.84800005 1.177540807e-38
0.28266668 1.993539047 0.84800005 1.131551593e-38
0.28428194 1.993539047 0.84800005 1.12233231e-38
0.28589717 1.993539047 0.84800005 1.113185474e-38
0.28751242 1.993539047 0.84800005 1.122405598e-38
0.28912762 1.993539047 0.84800005 1.131446636e-38
0.29074287 1.993539047 0.84800005 1.149778842e-38
0.2923581 1.993539047 0.84800005 1.177256624e-38
0.29397336 1.993539047 0.84800005 1.177147883e-38
0.29558858 1.993539047 0.84800005 1.177146902e-38
0.29720384 1.993539047 0.84800005 1.149595412e-38
0.29776192 1.993561904 0.84500003 1.121901131e-38
0.29937142 1.993561904 0.84500003 1.066692073e-38
0.30098096 1.993561904 0.84500003 1.020846071e-38
0.30187431 1.993577143 0.84300005 1.011770141e-38
0.30348003 1.993577143 0.84300005 1.011626789e-38
0.30436191 1.993592381 0.84100002 1.011483576e-38
0.30523619 1.993607619 0.83900005 1.020739152e-38
0.30683431 1.993607619 0.83900005 1.030030602e-38
0.30769715 1.993622857 0.83700001 1.039035206e-38
0.30929142 1.993622857 0.83700001 1.084773868e-38
0.3108857 1.993622857 0.83700001 1.130835109e-38
0.31248 1.993622857 0.83700001 1.066729488e-38
0.31407431 1.993622857 0.83700001 1.01195231e-38
0.31642288 1.993607619 0.83900005 1.067521081e-38
0.31953713 1.993577143 0.84300005 1.131805088e-38
0.32190475 1.993561904 0.84500003 1.196089234e-38
0.32466286 1.993539047 0.84800005 1.269737278e-38
0.32627809 1.993539047 0.84800005 1.251442345e-38
0.32866666 1.99352381 0.85000002 1.233039233e-38
0.33028573 1.99352381 0.85000002 1.278956981e-38
0.33268574 1.993508571 0.85200006 1.334022686e-38
0.33352381 1.99352381 0.85000002 1.315655867e-38
0.33514288 1.99352381 0.85000002 1.297503867e-38
0.33755431 1.993508571 0.85200006 1.29753974e-38
0.33917716 1.993508571 0.85200006 1.297610646e-38
0.34160003 1.993493333 0.85400003 1.334343863e-38
0.34322667 1.993493333 0.85400003 1.371043169e-38
0.34485334 1.993493333 0.85400003 1.334274079e-38
0.34729147 1.993478095 0.85600007 1.306722589e-38
0.34810668 1.993493333 0.85400003 1.361823186e-38
0.34973332 1.993493333 0.85400003 1.426145448e-38
0.35218287 1.993478095 0.85600007 1.334239747e-38
0.35381335 1.993478095 0.85600007 1.24240397e-38
0.35627431 1.993462857 0.85800004 1.269990212e-38
0.35790858 1.993462857 0.85800004 1.306617211e-38
0.36038095 1.993447619 0.86000001 1.306509872e-38
0.36286098 1.993432381 0.86200005 1.315728314e-38
0.36577144 1.993409523 0.86500007 1.306579516e-38
0.36741909 1.993409523 0.86500007 1.306542942e-38
0.36906669 1.993409523 0.86500007 1.297286946e-38
0.37071431 1.993409523 0.86500007 1.288176544e-38
0.37322289 1.993394285 0.86700004 1.260627296e-38
0.37487429 1.993394285 0.86700004 1.242259496e-38
0.37652573 1.993394285 0.86700004 1.205309358e-38
0.37817717 1.993394285 0.86700004 1.177832698e-38
0.37982857 1.993394285 0.86700004 1.095290753e-38
0.23754857 1.995217143 0.83700001 1.021957301e-38
0.23971429 1.995205714 0.83900005 1.021670175e-38
0.24073714 1.995217143 0.83700001 1.021383469e-38
0.24233143 1.995217143 0.83700001 9.844703251e-39
0.24392572 1.995217143 0.83700001 9.384088038e-39
0.24551998 1.995217143 0.83700001 9.199339447e-39
0.24652381 1.995228571 0.83500004 8.922756761e-39
0.24752003 1.99524 0.83300006 8.645816744e-39
0.24910668 1.99524 0.83300006 8.368876728e-39
0.25069335 1.99524 0.83300006 8.004407405e-39
0.25167426 1.995251428 0.83100003 7.72926105e-39
0.25325716 1.995251428 0.83100003 8.280275428e-39
0.25483999 1.995251428 0.83100003 8.83164994e-39
0.25642288 1.995251428 0.83100003 8.739817247e-39
0.25800571 1.995251428 0.83100003 8.648344687e-39
0.2595886 1.995251428 0.83100003 8.739825654e-39
0.26054287 1.995262857 0.82900006 8.831306622e-39
0.26212192 1.995262857 0.82900006 9.290129574e-39
0.27292573 1.995097143 0.85800004 9.657470158e-39
0.27392003 1.995108571 0.85600007 9.93369271e-39
0.27490667 1.99512 0.85400003 1.030210669e-38
0.27653334 1.99512 0.85400003 1.05790453e-38
0.27816001 1.99512 0.85400003 1.085490632e-38
0.27913144 1.995131428 0.85200006 1.122296157e-38
0.2807543 1.995131428 0.85200006 1.159102102e-38
0.28171429 1.995142857 0.85000002 1.140771016e-38
0.28333333 1.995142857 0.85000002 1.122260844e-38
0.2849524 1.995142857 0.85000002 1.094782362e-38
0.28657141 1.995142857 0.85000002 1.07648743e-38
0.28819048 1.995142857 0.85000002 1.094819216e-38
0.28912762 1.995154285 0.84800005 1.122335533e-38
0.29074287 1.995154285 0.84800005 1.158999667e-38
0.2923581 1.995154285 0.84800005 1.186513181e-38
0.29397336 1.995154285 0.84800005 1.204843286e-38
0.29558858 1.995154285 0.84800005 1.223209124e-38
0.29720384 1.995154285 0.84800005 1.168142438e-38
0.29881907 1.995154285 0.84800005 1.122296157e-38
0.30043429 1.995154285 0.84800005 1.094637748e-38
0.30098096 1.995171429 0.84500003 1.067015493e-38
0.30259046 1.995171429 0.84500003 1.085418605e-38
0.30419999 1.995171429 0.84500003 1.113041001e-38
0.30508575 1.995182857 0.84300005 1.094602155e-38
0.30669147 1.995182857 0.84300005 1.085383152e-38
0.30829719 1.995182857 0.84300005 1.09442377e-38
0.30916762 1.995194286 0.84100002 1.102997895e-38
0.31076953 1.995194286 0.84100002 1.140163132e-38
0.31237143 1.995194286 0.84100002 1.177327389e-38
0.31397334 1.995194286 0.84100002 1.159103363e-38
0.31632572 1.995182857 0.84300005 1.140916751e-38
0.31868574 1.995171429 0.84500003 1.140989758e-38
0.32029524 1.995171429 0.84500003 1.150244914e-38
0.32304764 1.995154285 0.84800005 1.186943099e-38
0.32542858 1.995142857 0.85000002 1.214672554e-38
0.32781717 1.995131428 0.85200006 1.214779753e-38
0.32944003 1.995131428 0.85200006 1.214887653e-38
0.33184001 1.99512 0.85400003 1.251658005e-38
0.33268574 1.995131428 0.85200006 1.27928012e-38
0.33430859 1.995131428 0.85200006 1.270060557e-38
0.33593145 1.995131428 0.85200006 1.270025385e-38
0.33834666 1.99512 0.85400003 1.260878409e-38
0.33997333 1.99512 0.85400003 1.260913582e-38
0.34160003 1.99512 0.85400003 1.288427797e-38
0.34322667 1.99512 0.85400003 1.325162416e-38
0.34485334 1.99512 0.85400003 1.306759863e-38
0.34729147 1.995108571 0.85600007 1.288319476e-38
0.34892195 1.995108571 0.85600007 1.315904597e-38
0.35055238 1.995108571 0.85600007 1.352711803e-38
0.35218287 1.995108571 0.85600007 1.306687697e-38
0.35381335 1.995108571 0.85600007 1.260626876e-38
0.35627431 1.995097143 0.85800004 1.279137888e-38
0.35790858 1.995097143 0.85800004 1.297505688e-38
0.36038095 1.995085714 0.86000001 1.306725812e-38
0.36286098 1.995074285 0.86200005 1.315979286e-38
0.36577144 1.995057142 0.86500007 1.315905858e-38
0.36741909 1.995057142 0.86500007 1.315832991e-38
0.36906669 1.995057142 0.86500007 1.297393024e-38
0.37157145 1.995045714 0.86700004 1.288175563e-38
0.37322289 1.995045714 0.86700004 1.278994115e-38
0.37573904 1.995034285 0.86900002 1.269810426e-38
0.37739429 1.995034285 0.86900002 1.242331383e-38
0.37904954 1.995034285 0.86900002 1.214849958e-38
0.37982857 1.995045714 0.86700004 1.122760827e-38
0.38148001 1.995045714 0.86700004 1.040046663e-38
0.23971429 1.996803809 0.83900005 1.104465615e-38
