# .PCD v0.7 - Point Cloud Data file format
VERSION 0.7
FIELDS x y z rgb
SIZE 4 4 4 4
TYPE F F F F
COUNT 1 1 1 1
WIDTH 944
HEIGHT 1
VIEWPOINT 0 0 0 1 0 0 0
POINTS 944
DATA ascii
1.56682476 -0.073499054 0.82100004 1.372093022e-38
1.56838855 -0.073499054 0.82100004 1.3905662e-38
1.56995237 -0.073499054 0.82100004 1.418261322e-38
1.57151619 -0.073499054 0.82100004 1.344471187e-38
1.57203999 -0.073678091 0.82300001 1.270712722e-38
1.57360762 -0.073678091 0.82300001 1.160291804e-38
1.57620761 -0.073499054 0.82100004 1.049871026e-38
1.57879996 -0.073320009 0.81900007 9.945875599e-39
1.57933521 -0.073499054 0.82100004 9.484894647e-39
1.58294094 -0.073140956 0.81700003 8.929568473e-39
1.58551428 -0.072961912 0.81500006 8.374641669e-39
1.58757332 -0.072872378 0.81400001 7.915496419e-39
1.58912382 -0.072872378 0.81400001 7.548499153e-39
1.59067431 -0.072872378 0.81400001 7.178632029e-39
1.59172377 -0.072961912 0.81500006 6.809132045e-39
1.59327617 -0.072961912 0.81500006 6.071572611e-39
1.59482855 -0.072961912 0.81500006 5.427285004e-39
1.59638095 -0.072961912 0.81500006 4.322384987e-39
1.59694666 -0.073140956 0.81700003 3.217854913e-39
1.59751996 -0.073320009 0.81900007 3.309338683e-39
1.59907997 -0.073320009 0.81900007 3.309704422e-39
1.59868953 -0.073678091 0.82300001 3.401546925e-39
1.60025713 -0.073678091 0.82300001 3.493742555e-39
1.60182476 -0.073678091 0.82300001 2.848384356e-39
1.60146475 -0.074036188 0.82700002 2.297741322e-39
1.60112 -0.074394293 0.83100003 3.400495951e-39
1.60174662 -0.074573338 0.83300006 4.593604904e-39
1.60238093 -0.074752383 0.83500004 7.270431091e-39
1.60302284 -0.074931428 0.83700001 9.859835873e-39
1.60461715 -0.074931428 0.83700001 1.069037566e-38
1.60621142 -0.074931428 0.83700001 1.152082857e-38
1.51070476 -0.074038103 0.84500003 1.132922903e-38
1.51462284 -0.07368762 0.84100002 1.16033062e-38
1.5173752 -0.073512383 0.83900005 1.206284802e-38
1.51897332 -0.073512383 0.83900005 1.261530013e-38
1.52628571 -0.072636195 0.82900006 1.224330023e-38
1.53014281 -0.072285712 0.82500005 1.196888255e-38
1.53171426 -0.072285712 0.82500005 1.224583798e-38
1.53441715 -0.072110482 0.82300001 1.252024165e-38
1.53598475 -0.072110482 0.82300001 1.261097572e-38
1.53755239 -0.072110482 0.82300001 1.270318957e-38
1.53911999 -0.072110482 0.82300001 1.297943314e-38
1.54068762 -0.072110482 0.82300001 1.334714086e-38
1.54225522 -0.072110482 0.82300001 1.353153773e-38
1.54382285 -0.072110482 0.82300001 1.371771424e-38
1.54539049 -0.072110482 0.82300001 1.371699257e-38
1.5458571 -0.072285712 0.82500005 1.371627511e-38
1.54742858 -0.072285712 0.82500005 1.371555904e-38
1.54899999 -0.072285712 0.82500005 1.372022817e-38
1.55166095 -0.072110482 0.82300001 1.381171054e-38
1.55322856 -0.072110482 0.82300001 1.399572765e-38
1.55587807 -0.071935244 0.82100004 1.417974477e-38
1.55744189 -0.071935244 0.82100004 1.445416665e-38
1.55900568 -0.071935244 0.82100004 1.417793289e-38
1.56056952 -0.071935244 0.82100004 1.399390737e-38
1.56319997 -0.071760006 0.81900007 1.408574566e-38
1.56369713 -0.071935244 0.82100004 1.427050126e-38
1.56526095 -0.071935244 0.82100004 1.399572065e-38
1.56682476 -0.071935244 0.82100004 1.371984562e-38
1.56838855 -0.071935244 0.82100004 1.417901329e-38
1.56995237 -0.071935244 0.82100004 1.473003327e-38
1.57151619 -0.071935244 0.82100004 1.381168532e-38
1.57307997 -0.071935244 0.82100004 1.289331074e-38
1.57464379 -0.071935244 0.82100004 1.252630787e-38
1.57620761 -0.071935244 0.82100004 1.224936365e-38
1.57879996 -0.071760006 0.81900007 1.169727167e-38
1.57933521 -0.071935244 0.82100004 1.114409789e-38
1.58089903 -0.071935244 0.82100004 1.022394086e-38
1.58551428 -0.071409523 0.81500006 9.394192801e-39
1.58706665 -0.071409523 0.81500006 8.839952634e-39
1.58861902 -0.071409523 0.81500006 8.380409414e-39
1.5901714 -0.071409523 0.81500006 8.01270169e-39
1.59172377 -0.071409523 0.81500006 7.732160337e-39
1.59327617 -0.071409523 0.81500006 6.99064784e-39
1.59482855 -0.071409523 0.81500006 6.347087507e-39
1.59638095 -0.071409523 0.81500006 5.425868292e-39
1.59694666 -0.071584761 0.81700003 4.59504684e-39
1.59751996 -0.071760006 0.81900007 4.319185823e-39
1.59810093 -0.071935244 0.82100004 4.045115665e-39
1.59868953 -0.072110482 0.82300001 3.862163539e-39
1.59928569 -0.072285712 0.82500005 3.767814113e-39
1.60085711 -0.072285712 0.82500005 2.572514931e-39
1.59953713 -0.072811432 0.83100003 1.470484773e-39
1.60015997 -0.072986677 0.83300006 4.687234062e-39
1.60079047 -0.073161907 0.83500004 8.006613049e-39
1.60142857 -0.073337138 0.83700001 1.004065522e-38
1.60207427 -0.073512383 0.83900005 1.206716682e-38
1.60367239 -0.073512383 0.83900005 1.170308566e-38
1.51070476 -0.072428577 0.84500003 1.09611864e-38
1.51462284 -0.072085716 0.84100002 1.151147911e-38
1.5173752 -0.071914285 0.83900005 1.187953716e-38
1.52012002 -0.071742855 0.83700001 1.224940008e-38
1.52628571 -0.071057148 0.82900006 1.206071664e-38
1.53014281 -0.070714295 0.82500005 1.187706667e-38
1.53171426 -0.070714295 0.82500005 1.224407234e-38
1.53441715 -0.070542857 0.82300001 1.27032204e-38
1.53598475 -0.070542857 0.82300001 1.316487958e-38
1.53755239 -0.070542857 0.82300001 1.371841349e-38
1.53799996 -0.070714295 0.82500005 1.371770583e-38
1.5395714 -0.070714295 0.82500005 1.362552282e-38
1.54225522 -0.070542857 0.82300001 1.371736952e-38
1.54271427 -0.070714295 0.82500005 1.380955955e-38
1.54428568 -0.070714295 0.82500005 1.371664505e-38
1.54475617 -0.07088571 0.82700002 1.362480815e-38
1.54742858 -0.070714295 0.82500005 1.380955534e-38
1.55009332 -0.070542857 0.82300001 1.399466967e-38
1.55166095 -0.070542857 0.82300001 1.399503681e-38
1.55322856 -0.070542857 0.82300001 1.399430113e-38
1.55587807 -0.070371434 0.82100004 1.399356545e-38
1.55636382 -0.070542857 0.82300001 1.399281716e-38
1.55900568 -0.070371434 0.82100004 1.39016697e-38
1.56056952 -0.070371434 0.82100004 1.380770423e-38
1.56213334 -0.070371434 0.82100004 1.371804495e-38
1.56369713 -0.070371434 0.82100004 1.362728705e-38
1.56526095 -0.070371434 0.82100004 1.353652915e-38
1.56682476 -0.070371434 0.82100004 1.335070156e-38
1.56838855 -0.070371434 0.82100004 1.362799891e-38
1.56995237 -0.070371434 0.82100004 1.39035082e-38
1.57151619 -0.070371434 0.82100004 1.307627547e-38
1.57307997 -0.070371434 0.82100004 1.234086423e-38
1.57360762 -0.070542857 0.82300001 1.197351384e-38
1.57620761 -0.070371434 0.82100004 1.160619568e-38
1.5777714 -0.070371434 0.82100004 1.114453089e-38
1.57831046 -0.070542857 0.82300001 1.059135711e-38
1.57987809 -0.070542857 0.82300001 1.003961966e-38
1.58144572 -0.070542857 0.82300001 9.487139527e-39
1.58402663 -0.070371434 0.82100004 9.301644044e-39
1.58559045 -0.070371434 0.82100004 9.205145026e-39
1.58715427 -0.070371434 0.82100004 8.471895987e-39
1.59072191 -0.070028573 0.81700003 7.828669163e-39
1.59227809 -0.070028573 0.81700003 7.088225857e-39
1.59383425 -0.070028573 0.81700003 6.440729277e-39
1.59539047 -0.070028573 0.81700003 5.607768043e-39
1.59595996 -0.070200004 0.81900007 4.778378718e-39
1.59653714 -0.070371434 0.82100004 4.410678001e-39
1.59810093 -0.070371434 0.82100004 4.046201672e-39
1.59771428 -0.070714295 0.82500005 3.217168277e-39
1.59831429 -0.07088571 0.82700002 2.388848143e-39
1.59795427 -0.071228571 0.83100003 4.317027823e-39
1.59953713 -0.071228571 0.83100003 6.245552223e-39
1.59919998 -0.071571432 0.83500004 8.100896613e-39
1.59983429 -0.071742855 0.83700001 9.95671184e-39
1.60142857 -0.071742855 0.83700001 1.087587675e-38
1.60207427 -0.071914285 0.83900005 1.179493937e-38
1.60367239 -0.071914285 0.83900005 1.151942307e-38
1.50896758 -0.071070485 0.84800005 1.068532538e-38
1.51346853 -0.070651434 0.84300005 1.141965623e-38
1.51622474 -0.070483811 0.84100002 1.160476775e-38
1.52699998 -0.069142863 0.82500005 1.187919524e-38
1.5285714 -0.069142863 0.82500005 1.187847497e-38
1.53014281 -0.069142863 0.82500005 1.187668131e-38
1.53171426 -0.069142863 0.82500005 1.233693639e-38
1.53441715 -0.06897524 0.82300001 1.288757662e-38
1.53598475 -0.06897524 0.82300001 1.381237476e-38
1.53755239 -0.06897524 0.82300001 1.481971217e-38
1.53799996 -0.069142863 0.82500005 1.436126897e-38
1.5395714 -0.069142863 0.82500005 1.399358927e-38
1.54225522 -0.06897524 0.82300001 1.390177339e-38
1.54271427 -0.069142863 0.82500005 1.390140205e-38
1.54428568 -0.069142863 0.82500005 1.371664225e-38
1.54475617 -0.069310479 0.82700002 1.353261252e-38
1.54742858 -0.069142863 0.82500005 1.39021083e-38
1.55009332 -0.06897524 0.82300001 1.436200045e-38
1.55166095 -0.06897524 0.82300001 1.417940285e-38
1.55431426 -0.068807617 0.82100004 1.399500739e-38
1.55587807 -0.068807617 0.82100004 1.380989446e-38
1.55744189 -0.068807617 0.82100004 1.362585913e-38
1.55900568 -0.068807617 0.82100004 1.362585212e-38
1.56056952 -0.068807617 0.82100004 1.362585492e-38
1.56213334 -0.068807617 0.82100004 1.335034984e-38
1.56369713 -0.068807617 0.82100004 1.307555801e-38
1.56526095 -0.068807617 0.82100004 1.307735027e-38
1.56682476 -0.068807617 0.82100004 1.307699014e-38
1.56838855 -0.068807617 0.82100004 1.307698874e-38
1.56995237 -0.068807617 0.82100004 1.316775784e-38
1.57151619 -0.068807617 0.82100004 1.243129142e-38
1.57307997 -0.068807617 0.82100004 1.17891436e-38
1.57360762 -0.06897524 0.82300001 1.142250366e-38
1.57517523 -0.06897524 0.82300001 1.105158136e-38
1.57674286 -0.06897524 0.82300001 1.05891837e-38
1.57831046 -0.06897524 0.82300001 1.013035514e-38
1.57987809 -0.06897524 0.82300001 9.855198976e-39
1.58144572 -0.06897524 0.82300001 9.671149633e-39
1.58301333 -0.06897524 0.82300001 9.855518472e-39
1.58458096 -0.06897524 0.82300001 1.003343854e-38
1.58715427 -0.068807617 0.82100004 8.931042639e-39
1.58971998 -0.068640009 0.81900007 7.920124907e-39
1.59127998 -0.068640009 0.81900007 7.184713664e-39
1.59283996 -0.068640009 0.81900007 6.534355633e-39
1.59340951 -0.068807617 0.82100004 5.698174214e-39
1.59497333 -0.068807617 0.82100004 4.962422456e-39
1.59653714 -0.068807617 0.82100004 4.502175784e-39
1.59418476 -0.069478095 0.82900006 4.134109328e-39
1.59478855 -0.069645718 0.83100003 2.572181422e-39
1.59637141 -0.069645718 0.83100003 1.015274369e-39
1.59505141 -0.070148572 0.83700001 5.978687542e-39
1.59760952 -0.069980957 0.83500004 1.10457926e-38
1.59824002 -0.070148572 0.83700001 1.142928875e-38
1.59983429 -0.070148572 0.83700001 1.188564682e-38
1.60142857 -0.070148572 0.83700001 1.170274374e-38
1.60207427 -0.070316188 0.83900005 1.161091105e-38
1.50619048 -0.069619045 0.85000002 1.031656669e-38
1.50896758 -0.069455236 0.84800005 1.086900198e-38
1.51346853 -0.069045715 0.84300005 1.141966884e-38
1.51622474 -0.068881907 0.84100002 1.160299371e-38
1.51897332 -0.068718098 0.83900005 1.169481379e-38
1.52742857 -0.06773524 0.82700002 1.151112738e-38
1.53014281 -0.067571431 0.82500005 1.132564311e-38
1.53171426 -0.067571431 0.82500005 1.196918943e-38
1.53441715 -0.067407615 0.82300001 1.252091987e-38
1.53598475 -0.067407615 0.82300001 1.334851694e-38
1.53755239 -0.067407615 0.82300001 1.426797192e-38
1.53799996 -0.067571431 0.82500005 1.399392558e-38
1.5395714 -0.067571431 0.82500005 1.371916599e-38
1.54225522 -0.067407615 0.82300001 1.371847795e-38
1.54382285 -0.067407615 0.82300001 1.371773806e-38
1.54428568 -0.067571431 0.82500005 1.353260972e-38
1.5458571 -0.067571431 0.82500005 1.334894013e-38
1.54742858 -0.067571431 0.82500005 1.34404197e-38
1.55009332 -0.067407615 0.82300001 1.362407668e-38
1.55166095 -0.067407615 0.82300001 1.353438096e-38
1.55431426 -0.067243814 0.82100004 1.34450608e-38
1.55587807 -0.067243814 0.82100004 1.344219514e-38
1.55744189 -0.067243814 0.82100004 1.335037646e-38
1.55900568 -0.067243814 0.82100004 1.353370694e-38
1.56056952 -0.067243814 0.82100004 1.371699958e-38
1.56213334 -0.067243814 0.82100004 1.298265613e-38
1.56369713 -0.067243814 0.82100004 1.224832388e-38
1.56526095 -0.067243814 0.82100004 1.243306547e-38
1.56682476 -0.067243814 0.82100004 1.261817139e-38
1.56838855 -0.067243814 0.82100004 1.234123137e-38
1.56995237 -0.067243814 0.82100004 1.21565024e-38
1.57151619 -0.067243814 0.82100004 1.160407271e-38
1.57307997 -0.067243814 0.82100004 1.105195971e-38
1.57360762 -0.067407615 0.82300001 1.077284208e-38
1.57517523 -0.067407615 0.82300001 1.049409859e-38
1.57674286 -0.067407615 0.82300001 9.85267804e-39
1.57831046 -0.067407615 0.82300001 9.303447515e-39
1.57987809 -0.067407615 0.82300001 8.935735588e-39
1.58144572 -0.067407615 0.82300001 8.660220691e-39
1.58301333 -0.067407615 0.82300001 8.475466495e-39
1.58458096 -0.067407615 0.82300001 8.290696885e-39
1.58614856 -0.067407615 0.82300001 7.736791628e-39
1.58871809 -0.067243814 0.82100004 7.091432028e-39
1.59127998 -0.067080006 0.81900007 6.538266657e-39
1.59283996 -0.067080006 0.81900007 5.985492248e-39
1.59340951 -0.067243814 0.82100004 5.608498119e-39
1.59497333 -0.067243814 0.82100004 5.241889014e-39
1.59555429 -0.067407615 0.82300001 4.684793e-39
1.59418476 -0.067899056 0.82900006 4.225963041e-39
1.59478855 -0.068062857 0.83100003 5.245112e-39
1.59637141 -0.068062857 0.83100003 6.264260959e-39
1.59795427 -0.068062857 0.83100003 8.663453487e-39
1.59760952 -0.068390481 0.83500004 1.115489069e-38
1.59824002 -0.06855429 0.83700001 1.133680866e-38
1.59983429 -0.06855429 0.83700001 1.161088862e-38
1.60142857 -0.06855429 0.83700001 1.151834547e-38
1.50619048 -0.068000004 0.85000002 1.068461773e-38
1.50896758 -0.067840002 0.84800005 1.105266036e-38
1.51462284 -0.067280002 0.84100002 1.151185186e-38
1.51622474 -0.067280002 0.84100002 1.15122246e-38
1.52012002 -0.06696 0.83700001 1.160297549e-38
1.52742857 -0.066160001 0.82700002 1.123598523e-38
1.53014281 -0.066 0.82500005 1.086683978e-38
1.53057906 -0.066160001 0.82700002 1.150752745e-38
1.53328571 -0.066 0.82500005 1.224364635e-38
1.53598475 -0.065840006 0.82300001 1.298012398e-38
1.53642854 -0.066 0.82500005 1.371661562e-38
1.53799996 -0.066 0.82500005 1.36265878e-38
1.5395714 -0.066 0.82500005 1.353584111e-38
1.54225522 -0.065840006 0.82300001 1.353728866e-38
1.54382285 -0.065840006 0.82300001 1.353296985e-38
1.54428568 -0.066 0.82500005 1.334856879e-38
1.5458571 -0.066 0.82500005 1.316454326e-38
1.54742858 -0.066 0.82500005 1.298051774e-38
1.55009332 -0.065840006 0.82300001 1.288759764e-38
1.55275044 -0.065680005 0.82100004 1.288687317e-38
1.55431426 -0.065680005 0.82100004 1.298085826e-38
1.55587807 -0.065680005 0.82100004 1.307484475e-38
1.55744189 -0.065680005 0.82100004 1.316740472e-38
1.55900568 -0.065680005 0.82100004 1.353547257e-38
1.56056952 -0.065680005 0.82100004 1.390172295e-38
1.56213334 -0.065680005 0.82100004 1.270677129e-38
1.56369713 -0.065680005 0.82100004 1.151183504e-38
1.56526095 -0.065680005 0.82100004 1.178411574e-38
1.56576952 -0.065840006 0.82300001 1.215074586e-38
1.56733713 -0.065840006 0.82300001 1.169085512e-38
1.56995237 -0.065680005 0.82100004 1.122989239e-38
1.57047239 -0.065840006 0.82300001 1.076892825e-38
1.57203999 -0.065840006 0.82300001 1.030901089e-38
1.57360762 -0.065840006 0.82300001 1.012495734e-38
1.57517523 -0.065840006 0.82300001 9.941995403e-39
1.57674286 -0.065840006 0.82300001 9.20192204e-39
1.57831046 -0.065840006 0.82300001 8.466873733e-39
1.57987809 -0.065840006 0.82300001 8.099168812e-39
1.58042857 -0.066 0.82500005 7.730752032e-39
1.58199999 -0.066 0.82500005 7.179024392e-39
1.5835714 -0.066 0.82500005 6.627996001e-39
1.58514282 -0.066 0.82500005 6.444308193e-39
1.58771619 -0.065840006 0.82300001 6.351390895e-39
1.58928379 -0.065840006 0.82300001 5.891131612e-39
1.58886287 -0.066160001 0.82700002 5.521295316e-39
1.59142855 -0.066 0.82500005 5.518801004e-39
1.59299996 -0.066 0.82500005 5.60562826e-39
1.59457141 -0.066 0.82500005 4.959565208e-39
1.59320572 -0.066480003 0.83100003 4.329291987e-39
1.59478855 -0.066480003 0.83100003 7.924527787e-39
1.59637141 -0.066480003 0.83100003 1.151219938e-38
1.59795427 -0.066480003 0.83100003 1.142680985e-38
1.51070476 -0.065990478 0.84500003 1.096009479e-38
1.51231429 -0.065990478 0.84500003 1.132709346e-38
1.51507425 -0.065834291 0.84300005 1.151077986e-38
1.52241331 -0.065053336 0.83300006 1.160297409e-38
1.52628571 -0.064740956 0.82900006 1.1327469e-38
1.53014281 -0.064428575 0.82500005 1.114308055e-38
1.53057906 -0.064584762 0.82700002 1.132137195e-38
1.53328571 -0.064428575 0.82500005 1.159436591e-38
1.53598475 -0.064272381 0.82300001 1.205748945e-38
1.53642854 -0.064428575 0.82500005 1.24255517e-38
1.53799996 -0.064428575 0.82500005 1.270213859e-38
1.5395714 -0.064428575 0.82500005 1.297907581e-38
1.54225522 -0.064272381 0.82300001 1.29801478e-38
1.54271427 -0.064428575 0.82500005 1.307305529e-38
1.54539049 -0.064272381 0.82300001 1.279682853e-38
1.5458571 -0.064428575 0.82500005 1.261244568e-38
1.54742858 -0.064428575 0.82500005 1.24287817e-38
1.55009332 -0.064272381 0.82300001 1.233622593e-38
1.55166095 -0.064272381 0.82300001 1.251989412e-38
1.55322856 -0.064272381 0.82300001 1.261172121e-38
1.55587807 -0.064116195 0.82100004 1.270534336e-38
1.55744189 -0.064116195 0.82100004 1.280076338e-38
1.55900568 -0.064116195 0.82100004 1.261708959e-38
1.56056952 -0.064116195 0.82100004 1.252560161e-38
1.56213334 -0.064116195 0.82100004 1.169512628e-38
1.56369713 -0.064116195 0.82100004 1.086754183e-38
1.56420189 -0.064272381 0.82300001 1.059132909e-38
1.56576952 -0.064272381 0.82300001 1.031511354e-38
1.56733713 -0.064272381 0.82300001 9.852358544e-39
1.56890476 -0.064272381 0.82300001 9.484655025e-39
1.57047239 -0.064272381 0.82300001 9.297393906e-39
1.57203999 -0.064272381 0.82300001 9.202666129e-39
1.57360762 -0.064272381 0.82300001 8.746336087e-39
1.57517523 -0.064272381 0.82300001 8.379701758e-39
1.57674286 -0.064272381 0.82300001 7.914417419e-39
1.57831046 -0.064272381 0.82300001 7.546716702e-39
1.57987809 -0.064272381 0.82300001 7.178299921e-39
1.58144572 -0.064272381 0.82300001 6.810253083e-39
1.58199999 -0.064428575 0.82500005 6.16418863e-39
1.58256191 -0.064584762 0.82700002 5.610295985e-39
1.58514282 -0.064428575 0.82500005 4.96707897e-39
1.58571237 -0.064584762 0.82700002 4.323859153e-39
1.5872876 -0.064584762 0.82700002 3.771041304e-39
1.58786854 -0.064740956 0.82900006 3.310430295e-39
1.58944762 -0.064740956 0.82900006 4.782669494e-39
1.59102663 -0.064740956 0.82900006 6.337068223e-39
1.59457141 -0.064428575 0.82500005 7.175797202e-39
1.59320572 -0.06489715 0.83100003 8.014564016e-39
1.59478855 -0.06489715 0.83100003 9.675186774e-39
1.51070476 -0.064380959 0.84500003 1.077572595e-38
1.51346853 -0.064228572 0.84300005 1.123491604e-38
1.51507425 -0.064228572 0.84300005 1.141860105e-38
1.52012002 -0.063771427 0.83700001 1.169445646e-38
1.52628571 -0.06316191 0.82900006 1.151113439e-38
1.5290038 -0.06300953 0.82700002 1.14171465e-38
1.52944377 -0.06316191 0.82900006 1.122737706e-38
1.53215429 -0.06300953 0.82700002 1.104441933e-38
1.53485712 -0.062857144 0.82500005 1.113876174e-38
1.53530475 -0.06300953 0.82700002 1.123203497e-38
1.53688002 -0.06300953 0.82700002 1.187596245e-38
1.5395714 -0.062857144 0.82500005 1.251952979e-38
1.54114285 -0.062857144 0.82500005 1.252025005e-38
1.54271427 -0.062857144 0.82500005 1.261208275e-38
1.54428568 -0.062857144 0.82500005 1.233657346e-38
1.5458571 -0.062857144 0.82500005 1.20614299e-38
1.54852572 -0.062704764 0.82300001 1.196959861e-38
1.55009332 -0.062704764 0.82300001 1.187776031e-38
1.55166095 -0.062704764 0.82300001 1.20614299e-38
1.55322856 -0.062704764 0.82300001 1.233620912e-38
1.55479619 -0.062704764 0.82300001 1.233619791e-38
1.55636382 -0.062704764 0.82300001 1.243162633e-38
1.55900568 -0.062552378 0.82100004 1.179021839e-38
1.55949906 -0.062704764 0.82300001 1.114520912e-38
1.56106666 -0.062704764 0.82300001 1.068386943e-38
1.56263429 -0.062704764 0.82300001 1.031186953e-38
1.56526095 -0.062552378 0.82100004 9.388497924e-39
1.56576952 -0.062704764 0.82300001 8.563409184e-39
1.56838855 -0.062552378 0.82100004 8.105663831e-39
1.56995237 -0.062552378 0.82100004 7.736166649e-39
1.57151619 -0.062552378 0.82100004 7.917682444e-39
1.57307997 -0.062552378 0.82100004 8.101331016e-39
1.57360762 -0.062704764 0.82300001 7.459536319e-39
1.57517523 -0.062704764 0.82300001 6.813823592e-39
1.57674286 -0.062704764 0.82300001 6.719123842e-39
1.57728568 -0.062857144 0.82500005 6.626577887e-39
1.57885712 -0.062857144 0.82500005 6.258884177e-39
1.57941142 -0.06300953 0.82700002 5.889033868e-39
1.58098665 -0.06300953 0.82700002 5.244035803e-39
1.58256191 -0.06300953 0.82700002 4.599379655e-39
1.58413714 -0.06300953 0.82700002 3.40371053e-39
1.58471048 -0.06316191 0.82900006 2.30023283e-39
1.5862895 -0.06316191 0.82900006 1.656291345e-39
1.58687428 -0.063314289 0.83100003 1.106741323e-39
1.58845714 -0.063314289 0.83100003 4.138775652e-39
1.59004 -0.063314289 0.83100003 7.184076073e-39
1.50896758 -0.062994286 0.84800005 1.077502951e-38
1.51462284 -0.062474284 0.84100002 1.11423813e-38
1.51622474 -0.062474284 0.84100002 1.141861646e-38
1.51897332 -0.062325716 0.83900005 1.160226784e-38
1.52285713 -0.062028576 0.83500004 1.178663668e-38
1.52786472 -0.06158286 0.82900006 1.187488345e-38
1.52944377 -0.06158286 0.82900006 1.131920555e-38
1.53102285 -0.06158286 0.82900006 1.086217205e-38
1.53485712 -0.061285719 0.82500005 1.077212321e-38
1.53530475 -0.061434288 0.82700002 1.068172545e-38
1.53799996 -0.061285719 0.82500005 1.095759347e-38
1.5395714 -0.061285719 0.82500005 1.123203077e-38
1.54114285 -0.061285719 0.82500005 1.132279848e-38
1.54271427 -0.061285719 0.82500005 1.141355637e-38
1.54539049 -0.061137144 0.82300001 1.159937836e-38
1.54695809 -0.061137144 0.82300001 1.187775611e-38
1.54852572 -0.061137144 0.82300001 1.178520455e-38
1.55009332 -0.061137144 0.82300001 1.169265019e-38
1.55166095 -0.061137144 0.82300001 1.160117342e-38
1.55322856 -0.061137144 0.82300001 1.150968265e-38
1.55479619 -0.061137144 0.82300001 1.1418552e-38
1.55636382 -0.061137144 0.82300001 1.141964221e-38
1.55900568 -0.060988571 0.82100004 1.114558467e-38
1.55949906 -0.061137144 0.82300001 1.086468878e-38
1.56106666 -0.061137144 0.82300001 1.040227571e-38
1.56263429 -0.061137144 0.82300001 9.940226964e-39
1.56420189 -0.061137144 0.82300001 9.201955671e-39
1.56576952 -0.061137144 0.82300001 8.464385027e-39
1.56733713 -0.061137144 0.82300001 7.821879872e-39
1.56995237 -0.060988571 0.82100004 7.179387329e-39
1.57047239 -0.061137144 0.82300001 7.089344093e-39
1.57203999 -0.061137144 0.82300001 7.091472666e-39
1.57360762 -0.061137144 0.82300001 6.537567409e-39
1.57517523 -0.061137144 0.82300001 6.075898419e-39
1.57674286 -0.061137144 0.82300001 5.88830239e-39
1.57728568 -0.061285719 0.82500005 5.608862457e-39
1.57885712 -0.061285719 0.82500005 5.332293784e-39
1.57941142 -0.061434288 0.82700002 5.056062824e-39
1.58098665 -0.061434288 0.82700002 4.412850013e-39
1.58256191 -0.061434288 0.82700002 3.861460087e-39
1.58413714 -0.061434288 0.82700002 2.849816483e-39
1.58471048 -0.06158286 0.82900006 1.838527407e-39
1.58529142 -0.061731428 0.83100003 3.862473226e-39
1.58687428 -0.061731428 0.83100003 5.978690345e-39
1.58845714 -0.061731428 0.83100003 7.737968719e-39
1.59004 -0.061731428 0.83100003 9.405389176e-39
1.50896758 -0.061379053 0.84800005 1.077466377e-38
1.51577714 -0.060727622 0.83900005 1.114237289e-38
1.51622474 -0.06087238 0.84100002 1.132676835e-38
1.52012002 -0.060582858 0.83700001 1.160261536e-38
1.52285713 -0.060438097 0.83500004 1.197029646e-38
1.52558663 -0.060293339 0.83300006 1.242767607e-38
1.52830854 -0.060148574 0.83100003 1.150285972e-38
1.53102285 -0.060003813 0.82900006 1.067920872e-38
1.53372952 -0.059859049 0.82700002 1.040585322e-38
1.53530475 -0.059859049 0.82700002 1.022254376e-38
1.53799996 -0.059714291 0.82500005 1.003959444e-38
1.5395714 -0.059714291 0.82500005 9.945968084e-39
1.54225522 -0.059569523 0.82300001 1.003709032e-38
1.54382285 -0.059569523 0.82300001 1.022004385e-38
1.54539049 -0.059569523 0.82300001 1.095436908e-38
1.54695809 -0.059569523 0.82300001 1.169264178e-38
1.54852572 -0.059569523 0.82300001 1.160439501e-38
1.55118665 -0.059424765 0.82100004 1.150897499e-38
1.55275044 -0.059424765 0.82100004 1.104370326e-38
1.55322856 -0.059569523 0.82300001 1.067705772e-38
1.55587807 -0.059424765 0.82100004 1.049444191e-38
1.55744189 -0.059424765 0.82100004 1.040582519e-38
1.55900568 -0.059424765 0.82100004 1.050123821e-38
1.55949906 -0.059569523 0.82300001 1.058876891e-38
1.56106666 -0.059569523 0.82300001 1.003345115e-38
1.56263429 -0.059569523 0.82300001 9.571046476e-39
1.56420189 -0.059569523 0.82300001 8.92281982e-39
1.56576952 -0.059569523 0.82300001 8.371434097e-39
1.56733713 -0.059569523 0.82300001 7.45270639e-39
1.56890476 -0.059569523 0.82300001 6.625123339e-39
1.57047239 -0.059569523 0.82300001 6.348911998e-39
1.57203999 -0.059569523 0.82300001 6.073394299e-39
1.57360762 -0.059569523 0.82300001 5.706042505e-39
1.57414284 -0.059714291 0.82500005 5.426959903e-39
1.57571426 -0.059714291 0.82500005 5.056041805e-39
1.57728568 -0.059714291 0.82500005 4.688708228e-39
1.57885712 -0.059714291 0.82500005 4.413211548e-39
1.57839426 -0.060003813 0.82900006 4.228090212e-39
1.58098665 -0.059859049 0.82700002 3.675987025e-39
1.58256191 -0.059859049 0.82700002 3.123881035e-39
1.58514282 -0.059714291 0.82500005 2.204434462e-39
1.58571237 -0.059859049 0.82700002 1.388704995e-39
1.5872876 -0.059859049 0.82700002 6.17422473e-39
1.58687428 -0.060148574 0.83100003 1.095936191e-38
1.50896758 -0.059763812 0.84800005 1.068282266e-38
1.51346853 -0.059411433 0.84300005 1.105052759e-38
1.51622474 -0.059270475 0.84100002 1.123384545e-38
1.52012002 -0.058988571 0.83700001 1.141749823e-38
1.52285713 -0.058847621 0.83500004 1.160366213e-38
1.52558663 -0.058706671 0.83300006 1.178696738e-38
1.52830854 -0.058565717 0.83100003 1.095792978e-38
1.52989143 -0.058565717 0.83100003 1.022073889e-38
1.53372952 -0.05828381 0.82700002 9.85340111e-39
1.53530475 -0.05828381 0.82700002 9.486422062e-39
1.53799996 -0.058142859 0.82500005 9.39459077e-39
1.54068762 -0.058001906 0.82300001 9.302755274e-39
1.54114285 -0.058142859 0.82500005 9.392079643e-39
1.54271427 -0.058142859 0.82500005 9.573956973e-39
1.54539049 -0.058001906 0.82300001 9.665435138e-39
1.54695809 -0.058001906 0.82300001 9.849107532e-39
1.54852572 -0.058001906 0.82300001 9.577189769e-39
1.55009332 -0.058001906 0.82300001 9.305279012e-39
1.55166095 -0.058001906 0.82300001 8.936151773e-39
1.55322856 -0.058001906 0.82300001 8.658822195e-39
1.55479619 -0.058001906 0.82300001 8.38041642e-39
1.55636382 -0.058001906 0.82300001 8.010529678e-39
1.55793142 -0.058001906 0.82300001 8.105561536e-39
1.55842856 -0.058142859 0.82500005 8.200991362e-39
1.55999997 -0.058142859 0.82500005 7.825048208e-39
1.56157139 -0.058142859 0.82500005 7.549187191e-39
1.56314284 -0.058142859 0.82500005 6.900244471e-39
1.56471428 -0.058142859 0.82500005 6.348144086e-39
1.5662857 -0.058142859 0.82500005 5.702773276e-39
1.56890476 -0.058001906 0.82300001 5.057799033e-39
1.56942853 -0.058142859 0.82500005 4.78088424e-39
1.57099998 -0.058142859 0.82500005 4.596139853e-39
1.57153523 -0.05828381 0.82700002 4.503948427e-39
1.57311046 -0.05828381 0.82700002 4.412114332e-39
1.57468569 -0.05828381 0.82700002 3.585238937e-39
1.57626092 -0.05828381 0.82700002 2.758364943e-39
1.57783619 -0.05828381 0.82700002 3.21647043e-39
1.57839426 -0.058424767 0.82900006 3.674549293e-39
1.58098665 -0.05828381 0.82700002 4.041868857e-39
1.58256191 -0.05828381 0.82700002 4.501389656e-39
1.58514282 -0.058142859 0.82500005 5.337580883e-39
1.58671427 -0.058142859 0.82500005 6.265701494e-39
1.58828571 -0.058142859 0.82500005 8.56740849e-39
1.50896758 -0.058148574 0.84800005 1.068353172e-38
1.51231429 -0.05794286 0.84500003 1.105052058e-38
1.51622474 -0.057668574 0.84100002 1.114200155e-38
1.52012002 -0.057394285 0.83700001 1.12345419e-38
1.52285713 -0.057257146 0.83500004 1.114556365e-38
1.52558663 -0.057120007 0.83300006 1.114483778e-38
1.52830854 -0.056982856 0.83100003 1.04998285e-38
1.52989143 -0.056982856 0.83100003 9.853396906e-39
1.53372952 -0.056708574 0.82700002 9.299518274e-39
1.53530475 -0.056708574 0.82700002 8.841059659e-39
1.53688002 -0.056708574 0.82700002 8.75030036e-39
1.5395714 -0.056571428 0.82500005 8.748861227e-39
1.54114285 -0.056571428 0.82500005 8.83925759e-39
1.54271427 -0.056571428 0.82500005 8.931088882e-39
1.54539049 -0.056434285 0.82300001 8.473702261e-39
1.54695809 -0.056434285 0.82300001 8.013805914e-39
1.54852572 -0.056434285 0.82300001 7.553910968e-39
1.55009332 -0.056434285 0.82300001 7.090790233e-39
1.55166095 -0.056434285 0.82300001 6.903536121e-39
1.55214283 -0.056571428 0.82500005 6.718421791e-39
1.55479619 -0.056434285 0.82300001 6.166324209e-39
1.55420762 -0.056708574 0.82700002 5.704976117e-39
1.55793142 -0.056434285 0.82300001 5.702806907e-39
1.55949906 -0.056434285 0.82300001 5.797515065e-39
1.55999997 -0.056571428 0.82500005 5.617075467e-39
1.56157139 -0.056571428 0.82500005 5.523084774e-39
1.56314284 -0.056571428 0.82500005 4.878079702e-39
1.56471428 -0.056571428 0.82500005 4.323473796e-39
1.5662857 -0.056571428 0.82500005 3.858908323e-39
1.56785712 -0.056571428 0.82500005 3.493372612e-39
1.56942853 -0.056571428 0.82500005 3.311507893e-39
1.56995997 -0.056708574 0.82700002 3.126401971e-39
1.57153523 -0.056708574 0.82700002 3.216803939e-39
1.57311046 -0.056708574 0.82700002 3.400109193e-39
1.57468569 -0.056708574 0.82700002 2.11440524e-39
1.57626092 -0.056708574 0.82700002 8.276573198e-40
1.57783619 -0.056708574 0.82700002 2.02082793e-39
1.57839426 -0.056845717 0.82900006 3.219337487e-39
1.57997331 -0.056845717 0.82900006 4.510041272e-39
1.58256191 -0.056708574 0.82700002 5.894398038e-39
1.58413714 -0.056708574 0.82700002 8.564810483e-39
1.58571237 -0.056708574 0.82700002 1.123704321e-38
1.58828571 -0.056571428 0.82500005 1.106237556e-38
1.51577714 -0.055933338 0.83900005 1.095903541e-38
1.51622474 -0.05606667 0.84100002 1.105087651e-38
1.51897332 -0.055933338 0.83900005 1.10519443e-38
1.52171427 -0.055799998 0.83700001 1.105337222e-38
1.52444762 -0.05566667 0.83500004 1.096188565e-38
1.52603808 -0.05566667 0.83500004 1.0407993e-38
1.52989143 -0.055400003 0.83100003 9.945232403e-39
1.53260186 -0.055266667 0.82900006 9.298802211e-39
1.53418091 -0.055266667 0.82900006 8.745992769e-39
1.53688002 -0.055133335 0.82700002 8.560884044e-39
1.53845525 -0.055133335 0.82700002 8.283932817e-39
1.54003045 -0.055133335 0.82700002 8.193165111e-39
1.54160568 -0.055133335 0.82700002 8.194593034e-39
1.54428568 -0.055000003 0.82500005 7.828678972e-39
1.5458571 -0.055000003 0.82500005 7.463126446e-39
1.54742858 -0.055000003 0.82500005 6.814894184e-39
1.54899999 -0.055000003 0.82500005 6.068729376e-39
1.55057141 -0.055000003 0.82500005 5.795375282e-39
1.5499714 -0.055266667 0.82900006 5.614226627e-39
1.55155045 -0.055266667 0.82900006 5.151833166e-39
1.55312952 -0.055266667 0.82900006 4.781619921e-39
1.55470854 -0.055266667 0.82900006 4.689783024e-39
1.55735809 -0.055133335 0.82700002 4.689780221e-39
1.55893332 -0.055133335 0.82700002 4.598660789e-39
1.56050858 -0.055133335 0.82700002 4.416054783e-39
1.56314284 -0.055000003 0.82500005 4.046190461e-39
1.56471428 -0.055000003 0.82500005 3.768171445e-39
1.5652343 -0.055133335 0.82700002 3.30863383e-39
1.56785712 -0.055000003 0.82500005 2.941289043e-39
1.56838477 -0.055133335 0.82700002 2.757975382e-39
1.56891999 -0.055266667 0.82900006 2.483184957e-39
1.570499 -0.055266667 0.82900006 2.390631996e-39
1.57207808 -0.055266667 0.82900006 2.298420952e-39
1.57468569 -0.055133335 0.82700002 3.216760499e-39
1.57523614 -0.055266667 0.82900006 4.224844805e-39
1.57681522 -0.055266667 0.82900006 5.7929118e-39
1.57737711 -0.055400003 0.83100003 7.269087246e-39
1.57997331 -0.055266667 0.82900006 7.922690685e-39
1.58256191 -0.055133335 0.82700002 8.576690691e-39
1.58413714 -0.055133335 0.82700002 9.867800853e-39
1.58571237 -0.055133335 0.82700002 1.106739081e-38
1.50665137 -0.055177148 0.85200006 1.059239828e-38
1.51058286 -0.054918095 0.84800005 1.095938853e-38
1.51507425 -0.05459429 0.84300005 1.095939694e-38
1.51782665 -0.054464761 0.84100002 1.095903961e-38
1.52057141 -0.05433524 0.83900005 1.086971524e-38
1.52330858 -0.054205716 0.83700001 1.086862503e-38
1.52376759 -0.05433524 0.83900005 1.040835734e-38
1.52536568 -0.05433524 0.83900005 1.003850143e-38
1.53147426 -0.053817146 0.83100003 9.389911834e-39
1.53305715 -0.053817146 0.83100003 8.745621425e-39
1.53575999 -0.053687625 0.82900006 8.282851015e-39
1.53733903 -0.053687625 0.82900006 7.913711164e-39
1.53891805 -0.053687625 0.82900006 7.636408211e-39
1.54049712 -0.053687625 0.82900006 7.455961607e-39
1.54428568 -0.053428572 0.82500005 7.183679506e-39
1.54475617 -0.053558096 0.82700002 6.997133049e-39
1.54742858 -0.053428572 0.82500005 6.076262757e-39
1.54899999 -0.053428572 0.82500005 5.150378619e-39
1.5494819 -0.053558096 0.82700002 4.785191831e-39
1.55105713 -0.053558096 0.82700002 4.506093815e-39
1.55155045 -0.053687625 0.82900006 4.135161703e-39
1.55312952 -0.053687625 0.82900006 3.860730011e-39
1.55470854 -0.053687625 0.82900006 3.770328043e-39
1.55628759 -0.053687625 0.82900006 3.678847075e-39
1.55893332 -0.053558096 0.82700002 3.495532013e-39
1.55944568 -0.053687625 0.82900006 3.401179785e-39
1.56208381 -0.053558096 0.82700002 3.30718769e-39
1.56365904 -0.053558096 0.82700002 3.216785722e-39
1.5652343 -0.053558096 0.82700002 2.853031062e-39
1.56785712 -0.053428572 0.82500005 2.482466091e-39
1.56838477 -0.053558096 0.82700002 2.206606475e-39
1.56891999 -0.053687625 0.82900006 1.930371311e-39
1.56946284 -0.053817146 0.83100003 1.56229925e-39
1.5710457 -0.053817146 0.83100003 1.195697151e-39
1.57365713 -0.053687625 0.82900006 4.411038135e-39
1.57421142 -0.053817146 0.83100003 7.728624861e-39
1.57579428 -0.053817146 0.83100003 9.576842247e-39
1.57737711 -0.053817146 0.83100003 1.142073102e-38
1.57997331 -0.053687625 0.82900006 1.133643171e-38
1.58256191 -0.053558096 0.82700002 1.133607858e-38
1.58413714 -0.053558096 0.82700002 1.115205446e-38
1.58571237 -0.053558096 0.82700002 1.096694293e-38
1.50665137 -0.053554289 0.85200006 1.077570213e-38
1.51058286 -0.053302858 0.84800005 1.105121983e-38
1.51507425 -0.052988574 0.84300005 1.105051357e-38
1.51667997 -0.052988574 0.84300005 1.105016325e-38
1.52057141 -0.052737147 0.83900005 1.095869629e-38
1.5221695 -0.052737147 0.83900005 1.086719991e-38
1.52376759 -0.052737147 0.83900005 1.049948098e-38
1.52423427 -0.052862857 0.84100002 1.004029369e-38
1.5269638 -0.052737147 0.83900005 9.484250049e-39
1.53080949 -0.052485716 0.83500004 8.928922474e-39
1.53351995 -0.052360002 0.83300006 8.28104334e-39
1.53622285 -0.052234285 0.83100003 7.72644444e-39
1.53780571 -0.052234285 0.83100003 7.176150329e-39
1.53938854 -0.052234285 0.83100003 6.717688912e-39
1.54207617 -0.052108575 0.82900006 6.351421723e-39
1.54365522 -0.052108575 0.82900006 5.985509063e-39
1.54523426 -0.052108575 0.82900006 5.154679204e-39
1.54681331 -0.052108575 0.82900006 4.323861956e-39
1.54839236 -0.052108575 0.82900006 3.95365852e-39
1.5499714 -0.052108575 0.82900006 3.583427058e-39
1.55046856 -0.052234285 0.83100003 3.400453912e-39
1.55205142 -0.052234285 0.83100003 3.217140251e-39
1.55363426 -0.052234285 0.83100003 3.217497582e-39
1.55521715 -0.052234285 0.83100003 3.217850709e-39
1.55573329 -0.052360002 0.83300006 2.849428323e-39
1.55838284 -0.052234285 0.83100003 2.481011543e-39
1.5599657 -0.052234285 0.83100003 2.664683936e-39
1.5626038 -0.052108575 0.82900006 2.849431126e-39
1.56418282 -0.052108575 0.82900006 2.206941385e-39
1.56680954 -0.051982857 0.82700002 1.56482439e-39
1.56734094 -0.052108575 0.82900006 3.032412679e-39
1.56788 -0.052234285 0.83100003 4.500321866e-39
1.56946284 -0.052234285 0.83100003 5.331841165e-39
1.5710457 -0.052234285 0.83100003 6.163801872e-39
1.57262856 -0.052234285 0.83100003 7.827664432e-39
1.57421142 -0.052234285 0.83100003 9.583669373e-39
1.57579428 -0.052234285 0.83100003 1.068965259e-38
1.57737711 -0.052234285 0.83100003 1.188747411e-38
1.50942853 -0.051809523 0.85000002 1.114269099e-38
1.51392382 -0.051504765 0.84500003 1.114198613e-38
1.51553333 -0.051504765 0.84500003 1.123381042e-38
1.51942858 -0.051260952 0.84100002 1.104905342e-38
1.52103049 -0.051260952 0.84100002 1.095865706e-38
1.52263236 -0.051260952 0.84100002 1.049948518e-38
1.52310282 -0.051382858 0.84300005 1.013178166e-38
1.5269638 -0.051139049 0.83900005 9.57897222e-39
1.52968571 -0.051017143 0.83700001 9.116182192e-39
1.53239998 -0.05089524 0.83500004 8.37106976e-39
1.53287429 -0.051017143 0.83700001 7.632806874e-39
1.5366933 -0.050773337 0.83300006 6.80091483e-39
1.53827998 -0.050773337 0.83300006 5.980842739e-39
1.54097143 -0.050651431 0.83100003 5.521296717e-39
1.54255426 -0.050651431 0.83100003 5.059603905e-39
1.54413715 -0.050651431 0.83100003 4.322404605e-39
1.54571998 -0.050651431 0.83100003 3.587729044e-39
1.54730284 -0.050651431 0.83100003 3.124613914e-39
1.5488857 -0.050651431 0.83100003 2.757612445e-39
1.54938662 -0.050773337 0.83300006 2.66683493e-39
1.55097333 -0.050773337 0.83300006 2.5746393e-39
1.55255997 -0.050773337 0.83300006 2.666473395e-39
1.55307618 -0.05089524 0.83500004 2.849782852e-39
1.55466664 -0.05089524 0.83500004 2.20585678e-39
1.55731997 -0.050773337 0.83300006 1.654846606e-39
1.55890664 -0.050773337 0.83300006 2.022191393e-39
1.56049332 -0.050773337 0.83300006 2.482440867e-39
1.56207997 -0.050773337 0.83300006 1.564800568e-39
1.56471428 -0.050651431 0.83100003 6.453764155e-40
1.56629711 -0.050651431 0.83100003 3.864648041e-39
1.56683999 -0.050773337 0.83300006 7.089317469e-39
1.56739047 -0.05089524 0.83500004 9.120124045e-39
1.56898096 -0.05089524 0.83500004 1.114627691e-38
1.57262856 -0.050651431 0.83100003 1.124424168e-38
1.57421142 -0.050651431 0.83100003 1.14214597e-38
1.57579428 -0.050651431 0.83100003 1.188386857e-38
1.50433519 -0.050544765 0.85600007 1.105011981e-38
1.50827429 -0.050308574 0.85200006 1.123452088e-38
1.51392382 -0.049895242 0.84500003 1.132601165e-38
1.51381332 -0.050072383 0.84800005 1.132598082e-38
1.51714283 -0.049895242 0.84500003 1.12341159e-38
1.51875237 -0.049895242 0.84500003 1.114230983e-38
1.5214971 -0.049777146 0.84300005 1.077499728e-38
1.5219714 -0.049895242 0.84500003 1.040694063e-38
1.5269638 -0.049540952 0.83900005 9.946691154e-39
1.52856186 -0.049540952 0.83900005 9.487112902e-39
1.53128001 -0.049422856 0.83700001 8.836330277e-39
1.53287429 -0.049422856 0.83700001 8.182017781e-39
1.53558093 -0.049304765 0.83500004 7.447707959e-39
1.53606287 -0.049422856 0.83700001 6.621887741e-39
1.54097143 -0.049068574 0.83100003 5.977227389e-39
1.5414533 -0.049186669 0.83300006 5.241105688e-39
1.54303995 -0.049186669 0.83300006 4.505701451e-39
1.54462665 -0.049186669 0.83300006 3.862145322e-39
1.5462133 -0.049186669 0.83300006 3.218230461e-39
1.54779997 -0.049186669 0.83300006 2.666481802e-39
1.54830474 -0.049304765 0.83500004 2.574629491e-39
1.54989523 -0.049304765 0.83500004 2.57319316e-39
1.55041143 -0.049422856 0.83700001 2.666103452e-39
1.55200571 -0.049422856 0.83700001 2.757581617e-39
1.55360001 -0.049422856 0.83700001 2.389882301e-39
1.55519426 -0.049422856 0.83700001 2.022184387e-39
1.55678856 -0.049422856 0.83700001 2.39024804e-39
1.55838287 -0.049422856 0.83700001 2.758659215e-39
1.56102857 -0.049304765 0.83500004 2.207281901e-39
1.56366664 -0.049186669 0.83300006 1.74666949e-39
1.56525329 -0.049186669 0.83300006 5.343679334e-39
1.56683999 -0.049186669 0.83300006 9.029723478e-39
1.56739047 -0.049304765 0.83500004 9.952453294e-39
1.56898096 -0.049304765 0.83500004 1.096730867e-38
1.50433519 -0.048914291 0.85600007 1.132527737e-38
1.50942853 -0.048571426 0.85000002 1.141892615e-38
1.51219809 -0.048457146 0.84800005 1.142325056e-38
1.51381332 -0.048457146 0.84800005 1.151003858e-38
1.51714283 -0.048285715 0.84500003 1.141889532e-38
1.51875237 -0.048285715 0.84500003 1.132635637e-38
1.5203619 -0.048285715 0.84500003 1.09590298e-38
1.5219714 -0.048285715 0.84500003 1.068244712e-38
1.5258362 -0.048057146 0.84100002 1.0314745e-38
1.5274381 -0.048057146 0.84100002 9.945935854e-39
1.53015998 -0.047942862 0.83900005 9.393455718e-39
1.53287429 -0.047828574 0.83700001 8.835270895e-39
1.53446856 -0.047828574 0.83700001 8.093773813e-39
1.53495425 -0.047942862 0.83900005 7.355843035e-39
1.53765714 -0.047828574 0.83700001 6.434599998e-39
1.53815046 -0.047942862 0.83900005 5.515174444e-39
1.54194283 -0.047714286 0.83500004 4.779780016e-39
1.54462665 -0.047600001 0.83300006 4.136930142e-39
1.54512379 -0.047714286 0.83500004 3.40224337e-39
1.54671428 -0.047714286 0.83500004 2.666471993e-39
1.54722285 -0.047828574 0.83700001 2.574267956e-39
1.54881716 -0.047828574 0.83700001 2.574267956e-39
1.54933715 -0.047942862 0.83900005 2.574267956e-39
1.54986477 -0.048057146 0.84100002 2.666106254e-39
1.55146664 -0.048057146 0.84100002 2.482796797e-39
1.55200568 -0.048171431 0.84300005 2.390965505e-39
1.55467048 -0.048057146 0.84100002 2.758311693e-39
1.55627239 -0.048057146 0.84100002 3.125286538e-39
1.55892569 -0.047942862 0.83900005 2.941607138e-39
1.56471428 -0.047485713 0.83100003 2.847990591e-39
1.56629711 -0.047485713 0.83100003 6.914953901e-39
1.56788 -0.047485713 0.83100003 1.095828291e-38
1.50549334 -0.047173332 0.85400003 1.141855761e-38
1.50827429 -0.047062859 0.85200006 1.151185326e-38
1.51219809 -0.046841905 0.84800005 1.151116242e-38
1.51381332 -0.046841905 0.84800005 1.160225943e-38
1.51714283 -0.046676192 0.84500003 1.141856882e-38
1.51875237 -0.046676192 0.84500003 1.132673332e-38
1.5203619 -0.046676192 0.84500003 1.114234627e-38
1.5219714 -0.046676192 0.84500003 1.086647544e-38
1.5258362 -0.046455238 0.84100002 1.049769432e-38
1.5274381 -0.046455238 0.84100002 1.003777555e-38
1.53015998 -0.046344765 0.83900005 9.669693684e-39
1.53175807 -0.046344765 0.83900005 9.211582592e-39
1.53335619 -0.046344765 0.83900005 8.565138387e-39
1.53495425 -0.046344765 0.83900005 7.919041704e-39
1.53765714 -0.046234287 0.83700001 7.181469658e-39
1.53925142 -0.046234287 0.83700001 6.444289976e-39
1.54084572 -0.046234287 0.83700001 5.521647042e-39
1.54244 -0.046234287 0.83700001 4.690808774e-39
1.54403427 -0.046234287 0.83700001 3.77100487e-39
1.54454282 -0.046344765 0.83900005 2.942328806e-39
1.54505903 -0.046455238 0.84100002 2.666818114e-39
1.54666096 -0.046455238 0.84100002 2.483865988e-39
1.54826286 -0.046455238 0.84100002 2.482792593e-39
1.5477238 -0.046676192 0.84500003 2.574630892e-39
1.54933333 -0.046676192 0.84500003 2.4827996e-39
1.55094284 -0.046676192 0.84500003 2.391328441e-39
1.55255237 -0.046676192 0.84500003 2.758317298e-39
1.55416191 -0.046676192 0.84500003 3.127441735e-39
1.55787426 -0.046455238 0.84100002 3.032367838e-39
1.56052381 -0.046344765 0.83900005 3.031316864e-39
1.56212187 -0.046344765 0.83900005 7.097216588e-39
1.56788 -0.045902859 0.83100003 1.105013242e-38
1.50433519 -0.045653336 0.85600007 1.151003717e-38
1.50711995 -0.045546666 0.85400003 1.169372218e-38
1.50989711 -0.04544 0.85200006 1.169373759e-38
1.51266667 -0.045333333 0.85000002 1.169442563e-38
1.51542857 -0.045226667 0.84800005 1.151144268e-38
1.51875237 -0.045066666 0.84500003 1.14185464e-38
1.5203619 -0.045066666 0.84500003 1.123381322e-38
1.5219714 -0.045066666 0.84500003 1.114090433e-38
1.5258362 -0.044853333 0.84100002 1.068101079e-38
1.52631426 -0.044960003 0.84300005 1.022145215e-38
1.52903998 -0.044853333 0.84100002 9.944845644e-39
1.53064188 -0.044853333 0.84100002 9.667544092e-39
1.53335619 -0.044746667 0.83900005 9.115096186e-39
1.53495425 -0.044746667 0.83900005 8.561918203e-39
1.53655237 -0.044746667 0.83900005 7.91762359e-39
1.5370495 -0.044853333 0.84100002 7.363026091e-39
1.53865141 -0.044853333 0.84100002 6.349969978e-39
1.53915998 -0.044960003 0.84300005 5.335099183e-39
1.54076567 -0.044960003 0.84300005 4.231622886e-39
1.54128569 -0.045066666 0.84500003 3.218555562e-39
1.54289523 -0.045066666 0.84500003 2.75865361e-39
1.54558283 -0.044960003 0.84300005 2.391318632e-39
1.54611427 -0.045066666 0.84500003 2.483162536e-39
1.54611808 -0.045226667 0.84800005 2.574637898e-39
1.54666668 -0.045333333 0.85000002 2.482440867e-39
1.54934856 -0.045226667 0.84800005 2.39097111e-39
1.54990476 -0.045333333 0.85000002 2.758320101e-39
1.55046856 -0.04544 0.85200006 3.124577481e-39
1.55419424 -0.045226667 0.84800005 3.215328372e-39
1.5558095 -0.045226667 0.84800005 3.308998168e-39
1.56212187 -0.044746667 0.83900005 7.279847817e-39
1.50107422 -0.044022858 0.85600007 1.077605385e-38
1.50270474 -0.044022858 0.85600007 1.123559988e-38
1.50433519 -0.044022858 0.85600007 1.151075744e-38
1.50596571 -0.044022858 0.85600007 1.17859094e-38
1.50874662 -0.043919999 0.85400003 1.169515431e-38
1.51151997 -0.043817144 0.85200006 1.169977859e-38
1.51314282 -0.043817144 0.85200006 1.142172314e-38
1.51704377 -0.043611433 0.84800005 1.123843891e-38
1.5203619 -0.043457143 0.84500003 1.114555664e-38
1.5219714 -0.043457143 0.84500003 1.114448885e-38
1.52470854 -0.043354288 0.84300005 1.077392808e-38
1.52631426 -0.043354288 0.84300005 1.040656228e-38
1.52903998 -0.043251429 0.84100002 1.003740421e-38
1.52952567 -0.043354288 0.84300005 9.755806277e-39
1.53113139 -0.043354288 0.84300005 9.296635803e-39
1.53273711 -0.043354288 0.84300005 8.929288213e-39
1.53434283 -0.043354288 0.84300005 7.91729989e-39
1.53594854 -0.043354288 0.84300005 6.904231165e-39
1.53645712 -0.043457143 0.84500003 6.0744747e-39
1.53806666 -0.043457143 0.84500003 5.245065757e-39
1.53967616 -0.043457143 0.84500003 4.231628491e-39
1.54128569 -0.043457143 0.84500003 3.311470058e-39
1.54289523 -0.043457143 0.84500003 2.57677628e-39
1.54450476 -0.043457143 0.84500003 1.842106324e-39
1.54450282 -0.043611433 0.84800005 2.208027392e-39
1.54611808 -0.043611433 0.84800005 2.575002236e-39
1.54559997 -0.043817144 0.85200006 2.574636497e-39
1.54828569 -0.043714285 0.85000002 2.574643504e-39
1.54778665 -0.043919999 0.85400003 2.574651911e-39
1.54835808 -0.044022858 0.85600007 2.663610542e-39
1.54998857 -0.044022858 0.85600007 3.858183851e-39
1.5558095 -0.043611433 0.84800005 5.148240237e-39
1.50107422 -0.042392384 0.85600007 1.050126623e-38
1.50270474 -0.042392384 0.85600007 1.123596001e-38
1.50433519 -0.042392384 0.85600007 1.151183504e-38
1.50711995 -0.042293333 0.85400003 1.187954136e-38
1.50874662 -0.042293333 0.85400003 1.178842894e-38
1.51151997 -0.042194288 0.85200006 1.169693396e-38
1.51314282 -0.042194288 0.85200006 1.132993249e-38
1.51476568 -0.042194288 0.85200006 1.105444421e-38
1.51865903 -0.041996192 0.84800005 1.114665666e-38
1.52027425 -0.041996192 0.84800005 1.123561949e-38
1.52358094 -0.04184762 0.84500003 1.086683978e-38
1.52519047 -0.04184762 0.84500003 1.058988014e-38
1.52791998 -0.041748572 0.84300005 1.022216261e-38
1.52952567 -0.041748572 0.84300005 9.853382893e-39
1.53113139 -0.041748572 0.84300005 9.576440074e-39
1.53273711 -0.041748572 0.84300005 9.388460089e-39
1.53323808 -0.04184762 0.84500003 7.917295686e-39
1.53484762 -0.04184762 0.84500003 6.536873766e-39
1.53645712 -0.04184762 0.84500003 5.799301721e-39
1.53642666 -0.041996192 0.84800005 5.151784121e-39
1.53804189 -0.041996192 0.84800005 4.32346679e-39
1.53965715 -0.041996192 0.84800005 3.495861318e-39
1.54127234 -0.041996192 0.84800005 2.395260485e-39
1.5428876 -0.041996192 0.84800005 1.381489709e-39
1.54342854 -0.04209524 0.85000002 2.02470252e-39
1.54504761 -0.04209524 0.85000002 2.666832127e-39
1.54453331 -0.042293333 0.85400003 2.666829324e-39
1.54509711 -0.042392384 0.85600007 2.758314496e-39
1.54566854 -0.042491429 0.85800004 2.482816415e-39
1.54624763 -0.042590477 0.86000001 2.296264353e-39
1.54788572 -0.042590477 0.86000001 4.592859413e-39
1.50107422 -0.040761907 0.85600007 1.096152131e-38
1.50270474 -0.040761907 0.85600007 1.14217848e-38
1.50433519 -0.040761907 0.85600007 1.188025602e-38
1.50711995 -0.040666666 0.85400003 1.233872165e-38
1.50874662 -0.040666666 0.85400003 1.206322216e-38
1.51151997 -0.040571429 0.85200006 1.187955397e-38
1.51314282 -0.040571429 0.85200006 1.151221479e-38
1.51476568 -0.040571429 0.85200006 1.114487981e-38
1.51865903 -0.040380955 0.84800005 1.141931851e-38
1.52027425 -0.040380955 0.84800005 1.160225663e-38
1.52358094 -0.040238094 0.84500003 1.1142705e-38
1.52519047 -0.040238094 0.84500003 1.068136251e-38
1.52791998 -0.040142857 0.84300005 1.012997959e-38
1.52952567 -0.040142857 0.84300005 9.578955405e-39
1.53001904 -0.040238094 0.84500003 9.206221224e-39
