# .PCD v0.7 - Point Cloud Data file format
VERSION 0.7
FIELDS x y z rgb
SIZE 4 4 4 4
TYPE F F F F
COUNT 1 1 1 1
WIDTH 941
HEIGHT 1
VIEWPOINT 0 0 0 1 0 0 0
POINTS 941
DATA ascii
-0.4647924 -0.11696762 2.80800003 1.289369469e-38
-0.46325335 -0.11696762 2.80800003 1.298444979e-38
-0.46057147 -0.1166781 2.80600005 1.34429056e-38
-0.45789716 -0.11638857 2.80400002 1.399032985e-38
-0.45636573 -0.11638857 2.80400002 1.325564448e-38
-0.45596576 -0.1166781 2.80600005 1.252309329e-38
-0.45555812 -0.11696762 2.80800003 1.24326731e-38
-0.45401907 -0.11696762 2.80800003 1.234153405e-38
-0.45247999 -0.11696762 2.80800003 1.188341175e-38
-0.45317337 -0.11754667 2.81200004 1.150925805e-38
-0.45273906 -0.11783619 2.81400001 1.086497885e-38
-0.45118859 -0.11783619 2.81400001 1.021316768e-38
-0.44853336 -0.11754667 2.81200004 9.569966075e-39
-0.44698668 -0.11754667 2.81200004 8.924963806e-39
-0.44544002 -0.11754667 2.81200004 8.279962939e-39
-0.44280002 -0.11725715 2.81000006 7.729661821e-39
-0.44016764 -0.11696762 2.80800003 8.189549761e-39
-0.43862858 -0.11696762 2.80800003 8.649078967e-39
-0.43708956 -0.11696762 2.80800003 8.098417716e-39
-0.43447241 -0.1166781 2.80600005 7.53986155e-39
-0.43078861 -0.11609905 2.80200005 6.522129304e-39
-0.42819047 -0.11580952 2.80000001 5.516958297e-39
-0.42666668 -0.11580952 2.80000001 4.787293779e-39
-0.42514285 -0.11580952 2.80000001 4.049043505e-39
-0.42361906 -0.11580952 2.80000001 3.954000437e-39
-0.42104 -0.11552 2.79800004 3.863227125e-39
-0.42057142 -0.11580952 2.80000001 3.953256347e-39
-0.41904762 -0.11580952 2.80000001 4.136588225e-39
-0.4175238 -0.11580952 2.80000001 4.595427993e-39
-0.41600001 -0.11580952 2.80000001 5.063929714e-39
-0.41447619 -0.11580952 2.80000001 7.369142759e-39
-0.41295239 -0.11580952 2.80000001 9.666458086e-39
-0.41245717 -0.11609905 2.80200005 9.668246143e-39
-0.41092953 -0.11609905 2.80200005 9.666093748e-39
-0.40940192 -0.11609905 2.80200005 9.113287109e-39
-0.40889141 -0.11638857 2.80400002 8.563337718e-39
-0.40837336 -0.1166781 2.80600005 7.921912964e-39
-0.40784764 -0.11696762 2.80800003 7.36837765e-39
-0.4073143 -0.11725715 2.81000006 6.907036564e-39
-0.40577146 -0.11725715 2.81000006 6.535029657e-39
-0.4042286 -0.11725715 2.81000006 5.979711891e-39
-0.40368 -0.11754667 2.81200004 5.425830456e-39
-0.4031238 -0.11783619 2.81400001 4.96414325e-39
-0.40305334 -0.11827048 2.81700003 4.596090807e-39
-0.40248004 -0.11856001 2.81900007 4.411709357e-39
-0.40385714 -0.11942858 2.82500005 4.229490109e-39
-0.40326095 -0.1197181 2.82700002 4.231301988e-39
-0.40265718 -0.12000763 2.82900006 4.323485007e-39
-0.4010781 -0.12000763 2.82900006 3.680984055e-39
-0.40046287 -0.12029715 2.83100003 3.038485907e-39
-0.39984003 -0.12058668 2.83300006 3.494786522e-39
-0.39920953 -0.12087619 2.83500004 4.045814913e-39
-0.39857143 -0.12116572 2.83700001 4.138024556e-39
-0.39792573 -0.12145524 2.83900005 4.322044472e-39
-0.39727238 -0.12174476 2.84100002 4.504269324e-39
-0.39567047 -0.12174476 2.84100002 4.780154163e-39
-0.39594287 -0.12232381 2.84500003 4.137684041e-39
-0.39573336 -0.12275811 2.84800005 3.584860586e-39
-0.39411813 -0.12275811 2.84800005 5.603431024e-39
-0.39250287 -0.12275811 2.84800005 7.64288221e-39
-0.47365716 -0.11571429 2.81000006 1.115061953e-38
-0.47211432 -0.11571429 2.81000006 1.151652799e-38
-0.47057146 -0.11571429 2.81000006 1.188351404e-38
-0.46787047 -0.11542857 2.80800003 1.225014137e-38
-0.46633142 -0.11542857 2.80800003 1.270895311e-38
-0.4647924 -0.11542857 2.80800003 1.270823004e-38
-0.46325335 -0.11542857 2.80800003 1.270750977e-38
-0.46057147 -0.11514287 2.80600005 1.298337359e-38
-0.45789716 -0.11485714 2.80400002 1.325672488e-38
-0.45750099 -0.11514287 2.80600005 1.279826206e-38
-0.45709717 -0.11542857 2.80800003 1.234015097e-38
-0.45668575 -0.11571429 2.81000006 1.224902453e-38
-0.45514289 -0.11571429 2.81000006 1.215861135e-38
-0.45360002 -0.11571429 2.81000006 1.169798773e-38
-0.45317337 -0.116 2.81200004 1.132957375e-38
-0.45273906 -0.11628571 2.81400001 1.06813485e-38
-0.45118859 -0.11628571 2.81400001 1.012565378e-38
-0.4496381 -0.11628571 2.81400001 9.574265259e-39
-0.44808763 -0.11628571 2.81400001 9.02326069e-39
-0.44544002 -0.116 2.81200004 8.561221757e-39
-0.44389334 -0.116 2.81200004 8.099517735e-39
-0.44125718 -0.11571429 2.81000006 8.283173314e-39
-0.43754289 -0.11514287 2.80600005 8.467193229e-39
-0.43708956 -0.11542857 2.80800003 8.375349325e-39
-0.43339431 -0.11485714 2.80400002 8.290678668e-39
-0.43186286 -0.11485714 2.80400002 7.737146157e-39
-0.42926097 -0.11457143 2.80200005 7.183620651e-39
-0.42666668 -0.11428571 2.80000001 6.996721067e-39
-0.42514285 -0.11428571 2.80000001 6.803033594e-39
-0.42361906 -0.11428571 2.80000001 6.803421753e-39
-0.42104 -0.114 2.79800004 6.712286906e-39
-0.42057142 -0.11428571 2.80000001 6.620435996e-39
-0.41904762 -0.11428571 2.80000001 6.620476634e-39
-0.4175238 -0.11428571 2.80000001 7.27018166e-39
-0.41600001 -0.11428571 2.80000001 8.012038876e-39
-0.41447619 -0.11428571 2.80000001 9.20948765e-39
-0.41295239 -0.11428571 2.80000001 1.04987537e-38
-0.41245717 -0.11457143 2.80200005 1.031147857e-38
-0.41092953 -0.11457143 2.80200005 1.021926893e-38
-0.41042286 -0.11485714 2.80400002 9.112924173e-39
-0.40889141 -0.11485714 2.80400002 8.011596066e-39
-0.40837336 -0.11514287 2.80600005 7.644234463e-39
-0.40784764 -0.11542857 2.80800003 7.276891077e-39
-0.4073143 -0.11571429 2.81000006 6.9063191e-39
-0.40577146 -0.11571429 2.81000006 6.629735013e-39
-0.40522668 -0.116 2.81200004 6.443911626e-39
-0.40467429 -0.11628571 2.81400001 6.258446972e-39
-0.40361905 -0.11642858 2.81500006 6.165176546e-39
-0.40305334 -0.11671428 2.81700003 6.163747221e-39
-0.40149716 -0.11671428 2.81700003 5.609871392e-39
-0.40287811 -0.11757143 2.82300001 5.055999766e-39
-0.40228572 -0.11785715 2.82500005 4.964534212e-39
-0.40265718 -0.11842857 2.82900006 4.78157508e-39
-0.4010781 -0.11842857 2.82900006 4.323828325e-39
-0.4014267 -0.11900001 2.83300006 3.863920767e-39
-0.40080002 -0.11928572 2.83500004 4.046504352e-39
-0.40016571 -0.11957143 2.83700001 4.321311593e-39
-0.39857143 -0.11957143 2.83700001 4.230570511e-39
-0.39792573 -0.11985715 2.83900005 4.231985822e-39
-0.39727238 -0.12014285 2.84100002 4.415638597e-39
-0.39567047 -0.12014285 2.84100002 4.599332011e-39
-0.39594287 -0.12071429 2.84500003 4.322414414e-39
-0.39433333 -0.12071429 2.84500003 4.045820518e-39
-0.39411813 -0.12114286 2.84800005 5.51123119e-39
-0.39250287 -0.12114286 2.84800005 6.990694083e-39
-0.39088765 -0.12114286 2.84800005 9.777020535e-39
-0.4759962 -0.11473524 2.81400001 1.124209349e-38
-0.47328001 -0.11445334 2.81200004 1.151652519e-38
-0.47057146 -0.11417144 2.81000006 1.179131421e-38
-0.46787047 -0.11388953 2.80800003 1.215829746e-38
-0.46633142 -0.11388953 2.80800003 1.261675608e-38
-0.4647924 -0.11388953 2.80800003 1.252455905e-38
-0.46325335 -0.11388953 2.80800003 1.252419751e-38
-0.4617143 -0.11388953 2.80800003 1.252383598e-38
-0.45903623 -0.11360763 2.80600005 1.261604001e-38
-0.45750099 -0.11360763 2.80600005 1.243309629e-38
-0.45709717 -0.11388953 2.80800003 1.224940989e-38
-0.45668575 -0.11417144 2.81000006 1.215755898e-38
-0.45514289 -0.11417144 2.81000006 1.206535494e-38
-0.45360002 -0.11417144 2.81000006 1.160294046e-38
-0.45317337 -0.11445334 2.81200004 1.114447764e-38
-0.45273906 -0.11473524 2.81400001 1.058951721e-38
-0.45118859 -0.11473524 2.81400001 1.003454556e-38
-0.4496381 -0.11473524 2.81400001 9.577150532e-39
-0.44698668 -0.11445334 2.81200004 9.115463326e-39
-0.44544002 -0.11445334 2.81200004 8.745611616e-39
-0.44280002 -0.11417144 2.81000006 8.466140854e-39
-0.44125718 -0.11417144 2.81000006 8.371418683e-39
-0.43862858 -0.11388953 2.80800003 8.281009709e-39
-0.43708956 -0.11388953 2.80800003 8.652648074e-39
-0.43447241 -0.11360763 2.80600005 9.11181995e-39
-0.43293718 -0.11360763 2.80600005 9.01998025e-39
-0.42926097 -0.11304381 2.80200005 8.927794429e-39
-0.42773336 -0.11304381 2.80200005 9.298014681e-39
-0.42620572 -0.11304381 2.80200005 9.66464901e-39
-0.42361906 -0.11276191 2.80000001 9.663941354e-39
-0.42209524 -0.11276191 2.80000001 9.664671431e-39
-0.42057142 -0.11276191 2.80000001 9.389895019e-39
-0.41904762 -0.11276191 2.80000001 9.113690683e-39
-0.4175238 -0.11276191 2.80000001 1.003170653e-38
-0.41600001 -0.11276191 2.80000001 1.095364742e-38
-0.41447619 -0.11276191 2.80000001 1.11416218e-38
-0.41295239 -0.11276191 2.80000001 1.13245557e-38
-0.41245717 -0.11304381 2.80200005 1.10468772e-38
-0.41092953 -0.11304381 2.80200005 1.077280004e-38
-0.41042286 -0.11332572 2.80400002 9.112939587e-39
-0.40889141 -0.11332572 2.80400002 7.551000471e-39
-0.40837336 -0.11360763 2.80600005 7.366952529e-39
-0.40784764 -0.11388953 2.80800003 7.182195531e-39
-0.4073143 -0.11417144 2.81000006 6.905603036e-39
-0.40577146 -0.11417144 2.81000006 6.721585923e-39
-0.4042286 -0.11417144 2.81000006 6.905270928e-39
-0.40368 -0.11445334 2.81200004 7.086063654e-39
-0.40361905 -0.1148762 2.81500006 7.361563136e-39
-0.40305334 -0.1151581 2.81700003 7.726761134e-39
-0.40149716 -0.1151581 2.81700003 6.814873164e-39
-0.40189907 -0.1157219 2.82100004 5.976879867e-39
-0.40131047 -0.11600381 2.82300001 5.610619685e-39
-0.40168571 -0.11656762 2.82700002 5.334391528e-39
-0.4010781 -0.11684953 2.82900006 4.966686607e-39
-0.4014267 -0.11741334 2.83300006 4.690455647e-39
-0.40080002 -0.11769524 2.83500004 4.600405405e-39
-0.40016571 -0.11797714 2.83700001 4.600420819e-39
-0.39857143 -0.11797714 2.83700001 4.41676384e-39
-0.39792573 -0.11825905 2.83900005 4.231995631e-39
-0.39727238 -0.11854095 2.84100002 4.325245037e-39
-0.39567047 -0.11854095 2.84100002 4.508576915e-39
-0.39594287 -0.11910477 2.84500003 4.508596534e-39
-0.39573336 -0.11952762 2.84800005 4.597199234e-39
-0.39411813 -0.11952762 2.84800005 5.419409707e-39
-0.39111429 -0.11910477 2.84500003 6.351805679e-39
-0.38950476 -0.11910477 2.84500003 9.503318919e-39
-0.4759962 -0.11318476 2.81400001 1.133356886e-38
-0.47328001 -0.11290666 2.81200004 1.151616505e-38
-0.47057146 -0.11262858 2.81000006 1.178915761e-38
-0.46671242 -0.11207239 2.80600005 1.224797356e-38
-0.46517718 -0.11207239 2.80600005 1.270679371e-38
-0.4647924 -0.11235048 2.80800003 1.261567848e-38
-0.46325335 -0.11235048 2.80800003 1.243272075e-38
-0.4617143 -0.11235048 2.80800003 1.243271654e-38
-0.45903623 -0.11207239 2.80600005 1.234090347e-38
-0.45750099 -0.11207239 2.80600005 1.215761363e-38
-0.45709717 -0.11235048 2.80800003 1.206647458e-38
-0.45555812 -0.11235048 2.80800003 1.178915341e-38
-0.45401907 -0.11235048 2.80800003 1.160475794e-38
-0.45360002 -0.11262858 2.81000006 1.123453909e-38
-0.45428953 -0.11318476 2.81400001 1.086754743e-38
-0.45273906 -0.11318476 2.81400001 1.031186253e-38
-0.45118859 -0.11318476 2.81400001 9.760125079e-39
-0.4496381 -0.11318476 2.81400001 9.392060025e-39
-0.44698668 -0.11290666 2.81200004 9.02399497e-39
-0.44544002 -0.11290666 2.81200004 8.654494986e-39
-0.44389334 -0.11290666 2.81200004 8.282111129e-39
-0.44125718 -0.11262858 2.81000006 8.096268124e-39
-0.43862858 -0.11235048 2.80800003 7.819677031e-39
-0.43708956 -0.11235048 2.80800003 8.738383718e-39
-0.43447241 -0.11207239 2.80600005 9.565620649e-39
-0.43293718 -0.11207239 2.80600005 1.021062152e-38
-0.43140191 -0.11207239 2.80600005 1.085599793e-38
-0.42773336 -0.1115162 2.80200005 1.104506813e-38
-0.42620572 -0.1115162 2.80200005 1.12341103e-38
-0.42467812 -0.1115162 2.80200005 1.095464794e-38
-0.42209524 -0.1112381 2.80000001 1.076743166e-38
-0.42057142 -0.1112381 2.80000001 1.058344398e-38
-0.41904762 -0.1112381 2.80000001 1.039977018e-38
-0.4175238 -0.1112381 2.80000001 1.095365162e-38
-0.41600001 -0.1112381 2.80000001 1.159972588e-38
-0.41447619 -0.1112381 2.80000001 1.141569476e-38
-0.41295239 -0.1112381 2.80000001 1.123200134e-38
-0.41142857 -0.1112381 2.80000001 1.104938553e-38
-0.41092953 -0.1115162 2.80200005 1.077531817e-38
-0.41042286 -0.11179429 2.80400002 9.019327245e-39
-0.40889141 -0.11179429 2.80400002 7.365552632e-39
-0.40837336 -0.11207239 2.80600005 7.180429895e-39
-0.40784764 -0.11235048 2.80800003 7.087499985e-39
-0.40630859 -0.11235048 2.80800003 6.720857248e-39
-0.40476954 -0.11235048 2.80800003 6.44609625e-39
-0.4042286 -0.11262858 2.81000006 6.536883575e-39
-0.40368 -0.11290666 2.81200004 6.627984791e-39
-0.40361905 -0.11332382 2.81500006 6.9027584e-39
-0.40206671 -0.11332382 2.81500006 7.269754264e-39
-0.4005143 -0.11332382 2.81500006 6.624407276e-39
-0.39994097 -0.11360191 2.81700003 5.979406408e-39
-0.40033525 -0.1141581 2.82100004 6.070165707e-39
-0.40168571 -0.11499239 2.82700002 6.16056207e-39
-0.40011048 -0.11499239 2.82700002 5.517710794e-39
-0.40046287 -0.11554857 2.83100003 4.966334881e-39
-0.40080002 -0.11610477 2.83500004 4.875572779e-39
-0.40016571 -0.11638286 2.83700001 4.876301455e-39
-0.39857143 -0.11638286 2.83700001 4.691924208e-39
-0.39792573 -0.11666095 2.83900005 4.599347425e-39
-0.39821717 -0.11721715 2.84300005 4.506054578e-39
-0.39661145 -0.11721715 2.84300005 4.413158299e-39
-0.39594287 -0.11749524 2.84500003 3.954354965e-39
-0.39573336 -0.11791239 2.84800005 3.404062256e-39
-0.39411813 -0.11791239 2.84800005 5.235395396e-39
-0.39250287 -0.11791239 2.84800005 6.99861282e-39
-0.38950476 -0.11749524 2.84500003 9.685567593e-39
-0.4759962 -0.11163428 2.81400001 1.142540435e-38
-0.47328001 -0.11136001 2.81200004 1.160763761e-38
-0.47057146 -0.11108572 2.81000006 1.188241823e-38
-0.46671242 -0.11053715 2.80600005 1.234087124e-38
-0.46633142 -0.11081143 2.80800003 1.289080802e-38
-0.4647924 -0.11081143 2.80800003 1.26149442e-38
-0.46325335 -0.11081143 2.80800003 1.243196965e-38
-0.4617143 -0.11081143 2.80800003 1.224899651e-38
-0.46017525 -0.11081143 2.80800003 1.215647718e-38
-0.45863619 -0.11081143 2.80800003 1.197248108e-38
-0.45709717 -0.11081143 2.80800003 1.188027704e-38
-0.45555812 -0.11081143 2.80800003 1.151292665e-38
-0.45401907 -0.11081143 2.80800003 1.123525796e-38
-0.45360002 -0.11108572 2.81000006 1.0957948e-38
-0.45317337 -0.11136001 2.81200004 1.068135831e-38
-0.45162666 -0.11136001 2.81200004 1.012639367e-38
-0.45008001 -0.11136001 2.81200004 9.574659024e-39
-0.44853336 -0.11136001 2.81200004 9.206954103e-39
-0.44808763 -0.11163428 2.81400001 8.931086079e-39
-0.44544002 -0.11136001 2.81200004 8.56338256e-39
-0.44389334 -0.11136001 2.81200004 8.189551162e-39
-0.44125718 -0.11108572 2.81000006 7.821460884e-39
-0.43862858 -0.11081143 2.80800003 7.45161618e-39
-0.43708956 -0.11081143 2.80800003 8.734809006e-39
-0.43447241 -0.11053715 2.80600005 1.012167269e-38
-0.43293718 -0.11053715 2.80600005 1.150889512e-38
-0.43033144 -0.11026286 2.80400002 1.289037642e-38
-0.42773336 -0.10998858 2.80200005 1.280248978e-38
-0.42620572 -0.10998858 2.80200005 1.279783327e-38
-0.42361906 -0.10971429 2.80000001 1.23365104e-38
-0.42209524 -0.10971429 2.80000001 1.18769966e-38
-0.42057142 -0.10971429 2.80000001 1.178518353e-38
-0.41904762 -0.10971429 2.80000001 1.169263337e-38
-0.4175238 -0.10971429 2.80000001 1.19674252e-38
-0.41600001 -0.10971429 2.80000001 1.224366316e-38
-0.41447619 -0.10971429 2.80000001 1.169661026e-38
-0.41295239 -0.10971429 2.80000001 1.123632575e-38
-0.41245717 -0.10998858 2.80200005 1.105190506e-38
-0.41092953 -0.10998858 2.80200005 1.086572855e-38
-0.41042286 -0.11026286 2.80400002 9.017543392e-39
-0.40889141 -0.11026286 2.80400002 7.180459322e-39
-0.40837336 -0.11053715 2.80600005 7.088248278e-39
-0.40683812 -0.11053715 2.80600005 6.994235164e-39
-0.40530288 -0.11053715 2.80600005 6.625072893e-39
-0.40476954 -0.11081143 2.80800003 6.258828125e-39
-0.40323049 -0.11081143 2.80800003 6.259926743e-39
-0.40368 -0.11136001 2.81200004 6.260281271e-39
-0.40361905 -0.11177143 2.81500006 6.535783556e-39
-0.40206671 -0.11177143 2.81500006 6.810222255e-39
-0.4005143 -0.11177143 2.81500006 6.349978386e-39
-0.39896193 -0.11177143 2.81500006 5.977968676e-39
-0.39740956 -0.11177143 2.81500006 6.437860819e-39
-0.40168571 -0.11341715 2.82700002 6.987786388e-39
-0.40011048 -0.11341715 2.82700002 6.160538248e-39
-0.40046287 -0.11396571 2.83100003 5.333672662e-39
-0.40080002 -0.11451429 2.83500004 5.242925974e-39
-0.39920953 -0.11451429 2.83500004 5.152173682e-39
-0.39761907 -0.11451429 2.83500004 5.057116601e-39
-0.39697716 -0.11478857 2.83700001 4.966329276e-39
-0.39821717 -0.11561143 2.84300005 4.688282233e-39
-0.39661145 -0.11561143 2.84300005 4.412784152e-39
-0.39594287 -0.11588572 2.84500003 3.311125339e-39
-0.39573336 -0.11629715 2.84800005 2.300597168e-39
-0.39411813 -0.11629715 2.84800005 4.959902921e-39
-0.39250287 -0.11629715 2.84800005 7.740482648e-39
-0.46671242 -0.10900191 2.80600005 1.215539257e-38
-0.46633142 -0.10927239 2.80800003 1.261564485e-38
-0.4647924 -0.10927239 2.80800003 1.243089766e-38
-0.46325335 -0.10927239 2.80800003 1.224647277e-38
-0.4617143 -0.10927239 2.80800003 1.206240801e-38
-0.46017525 -0.10927239 2.80800003 1.197061595e-38
-0.45863619 -0.10927239 2.80800003 1.178591361e-38
-0.45822862 -0.10954287 2.81000006 1.160152795e-38
-0.45668575 -0.10954287 2.81000006 1.123311397e-38
-0.45514289 -0.10954287 2.81000006 1.095328868e-38
-0.45472002 -0.10981334 2.81200004 1.058665155e-38
-0.45428953 -0.11008381 2.81400001 1.031185832e-38
-0.45162666 -0.10981334 2.81200004 9.849808181e-39
-0.45008001 -0.10981334 2.81200004 9.387758038e-39
-0.44853336 -0.10981334 2.81200004 9.02149085e-39
-0.44698668 -0.10981334 2.81200004 8.655223661e-39
-0.44544002 -0.10981334 2.81200004 8.008787864e-39
-0.44280002 -0.10954287 2.81000006 7.362308626e-39
-0.44125718 -0.10954287 2.81000006 7.452308422e-39
-0.43862858 -0.10927239 2.80800003 7.534839296e-39
-0.43708956 -0.10927239 2.80800003 9.480627693e-39
-0.43447241 -0.10900191 2.80600005 1.133133519e-38
-0.43293718 -0.10900191 2.80600005 1.206710376e-38
-0.43033144 -0.10873143 2.80400002 1.271101722e-38
-0.42773336 -0.10846096 2.80200005 1.270992981e-38
-0.42620572 -0.10846096 2.80200005 1.280071293e-38
-0.42361906 -0.10819048 2.80000001 1.243016618e-38
-0.42209524 -0.10819048 2.80000001 1.20617494e-38
-0.42057142 -0.10819048 2.80000001 1.187843994e-38
-0.41904762 -0.10819048 2.80000001 1.169513469e-38
-0.4175238 -0.10819048 2.80000001 1.178410873e-38
-0.41600001 -0.10819048 2.80000001 1.187740999e-38
-0.41447619 -0.10819048 2.80000001 1.15108163e-38
-0.41295239 -0.10819048 2.80000001 1.114414974e-38
-0.41245717 -0.10846096 2.80200005 1.040727274e-38
-0.41092953 -0.10846096 2.80200005 9.762636206e-39
-0.40940192 -0.10846096 2.80200005 8.650212618e-39
-0.40889141 -0.10873143 2.80400002 7.453465894e-39
-0.40735999 -0.10873143 2.80400002 7.178304125e-39
-0.4058286 -0.10873143 2.80400002 6.901329076e-39
-0.40530288 -0.10900191 2.80600005 6.534312192e-39
-0.40376765 -0.10900191 2.80600005 6.075866189e-39
-0.40323049 -0.10927239 2.80800003 5.98440484e-39
-0.40368 -0.10981334 2.81200004 5.892935083e-39
-0.40361905 -0.11021905 2.81500006 5.984061522e-39
-0.40206671 -0.11021905 2.81500006 6.075185158e-39
-0.4005143 -0.11021905 2.81500006 5.704261455e-39
-0.39994097 -0.11048953 2.81700003 5.425878101e-39
-0.39838478 -0.11048953 2.81700003 5.518424055e-39
-0.40168571 -0.11184191 2.82700002 5.611317532e-39
-0.40011048 -0.11184191 2.82700002 5.333999164e-39
-0.40046287 -0.11238286 2.83100003 4.966685206e-39
-0.39984003 -0.11265334 2.83300006 4.784118436e-39
-0.39920953 -0.11292382 2.83500004 4.601526444e-39
-0.39761907 -0.11292382 2.83500004 5.059273199e-39
-0.39697716 -0.11319429 2.83700001 5.425145222e-39
-0.39727238 -0.11373524 2.84100002 5.332199897e-39
-0.39661145 -0.11400572 2.84300005 5.147454109e-39
-0.39734861 -0.11468191 2.84800005 4.228383084e-39
-0.39666668 -0.11495239 2.85000002 3.217514397e-39
-0.39504763 -0.11495239 2.85000002 6.626587696e-39
-0.46748576 -0.10800001 2.81000006 1.233872024e-38
-0.4647924 -0.10773333 2.80800003 1.215541639e-38
-0.46325335 -0.10773333 2.80800003 1.206355287e-38
-0.4617143 -0.10773333 2.80800003 1.188021258e-38
-0.46017525 -0.10773333 2.80800003 1.178696878e-38
-0.45863619 -0.10773333 2.80800003 1.160188949e-38
-0.45822862 -0.10800001 2.81000006 1.141677936e-38
-0.45781335 -0.10826667 2.81200004 1.104835697e-38
-0.45514289 -0.10800001 2.81000006 1.068028912e-38
-0.45472002 -0.10826667 2.81200004 1.031257999e-38
-0.45317337 -0.10826667 2.81200004 1.003419804e-38
-0.45162666 -0.10826667 2.81200004 9.665416921e-39
-0.45008001 -0.10826667 2.81200004 9.295561007e-39
-0.4496381 -0.10853333 2.81400001 8.836021991e-39
-0.44808763 -0.10853333 2.81400001 8.466533218e-39
-0.44544002 -0.10826667 2.81200004 7.5463916e-39
-0.44280002 -0.10800001 2.81000006 6.625847811e-39
-0.44125718 -0.10800001 2.81000006 7.175389424e-39
-0.43862858 -0.10773333 2.80800003 7.724639568e-39
-0.43708956 -0.10773333 2.80800003 1.013463471e-38
-0.43447241 -0.10746667 2.80600005 1.261599657e-38
-0.43293718 -0.10746667 2.80600005 1.26228223e-38
-0.43033144 -0.1072 2.80400002 1.261670983e-38
-0.42880002 -0.1072 2.80400002 1.270781385e-38
-0.42620572 -0.10693334 2.80200005 1.279931584e-38
-0.42361906 -0.10666667 2.80000001 1.252383457e-38
-0.42209524 -0.10666667 2.80000001 1.224723507e-38
-0.42057142 -0.10666667 2.80000001 1.19709943e-38
-0.41904762 -0.10666667 2.80000001 1.169405709e-38
-0.4175238 -0.10666667 2.80000001 1.1601151e-38
-0.41600001 -0.10666667 2.80000001 1.150932531e-38
-0.41447619 -0.10666667 2.80000001 1.123383004e-38
-0.41295239 -0.10666667 2.80000001 1.10487059e-38
-0.41245717 -0.10693334 2.80200005 9.84872778e-39
-0.41092953 -0.10693334 2.80200005 8.744193502e-39
-0.40940192 -0.10693334 2.80200005 8.28286783e-39
-0.40889141 -0.1072 2.80400002 7.821525344e-39
-0.40735999 -0.1072 2.80400002 7.362693983e-39
-0.4058286 -0.1072 2.80400002 6.903126942e-39
-0.40429717 -0.1072 2.80400002 6.443561301e-39
-0.40376765 -0.10746667 2.80600005 5.984755165e-39
-0.40323049 -0.10773333 2.80800003 5.709978753e-39
-0.40268573 -0.10800001 2.81000006 5.524165175e-39
-0.4031238 -0.10853333 2.81400001 5.431263291e-39
-0.40157333 -0.10853333 2.81400001 5.428407444e-39
-0.4005143 -0.10866667 2.81500006 5.150403842e-39
-0.39896193 -0.10866667 2.81500006 4.873089679e-39
-0.39740956 -0.10866667 2.81500006 4.596135649e-39
-0.39585716 -0.10866667 2.81500006 4.322047274e-39
-0.39817524 -0.10973334 2.82300001 4.507496514e-39
-0.39853525 -0.11026667 2.82700002 4.692617851e-39
-0.39888 -0.11080001 2.83100003 4.419280572e-39
-0.39825338 -0.11106668 2.83300006 4.143790899e-39
-0.39761907 -0.11133334 2.83500004 5.062164078e-39
-0.39792573 -0.11186668 2.83900005 5.979044873e-39
-0.39727238 -0.11213334 2.84100002 5.977572109e-39
-0.39567047 -0.11213334 2.84100002 5.977207771e-39
-0.39594287 -0.11266667 2.84500003 5.058488472e-39
-0.39433333 -0.11266667 2.84500003 4.231301988e-39
-0.39597717 -0.11360001 2.85200006 8.201445383e-39
-0.47134477 -0.10698286 2.81400001 1.160224401e-38
-0.46748576 -0.10645715 2.81000006 1.187704985e-38
-0.46594289 -0.10645715 2.81000006 1.178523117e-38
-0.46440002 -0.10645715 2.81000006 1.169373339e-38
-0.46285716 -0.10645715 2.81000006 1.141605349e-38
-0.46131432 -0.10645715 2.81000006 1.123023851e-38
-0.45977145 -0.10645715 2.81000006 1.113913029e-38
-0.46049142 -0.10698286 2.81400001 1.104835838e-38
-0.45894095 -0.10698286 2.81400001 1.077284068e-38
-0.45626667 -0.10672001 2.81200004 1.049661392e-38
-0.45584002 -0.10698286 2.81400001 1.012747547e-38
-0.45428953 -0.10698286 2.81400001 9.848733385e-39
-0.45273906 -0.10698286 2.81400001 9.389190165e-39
-0.45118859 -0.10698286 2.81400001 9.019692984e-39
-0.4496381 -0.10698286 2.81400001 8.651630732e-39
-0.44808763 -0.10698286 2.81400001 8.283583894e-39
-0.44544002 -0.10672001 2.81200004 7.546042677e-39
-0.44389334 -0.10672001 2.81200004 6.899936185e-39
-0.44125718 -0.10645715 2.81000006 7.635308192e-39
-0.43862858 -0.10619429 2.80800003 8.37361732e-39
-0.43600765 -0.10593143 2.80600005 1.041018043e-38
-0.43447241 -0.10593143 2.80600005 1.252348425e-38
-0.43186286 -0.10566857 2.80400002 1.252313673e-38
-0.43033144 -0.10566857 2.80400002 1.261459668e-38
-0.42773336 -0.10540573 2.80200005 1.298299804e-38
-0.42514285 -0.10514285 2.80000001 1.344220215e-38
-0.42361906 -0.10514285 2.80000001 1.307488679e-38
-0.42209524 -0.10514285 2.80000001 1.27078685e-38
-0.42057142 -0.10514285 2.80000001 1.224614486e-38
-0.42009526 -0.10540573 2.80200005 1.178517512e-38
-0.41856766 -0.10540573 2.80200005 1.16011468e-38
-0.41600001 -0.10514285 2.80000001 1.141603107e-38
-0.41551241 -0.10540573 2.80200005 1.114015604e-38
-0.41398478 -0.10540573 2.80200005 1.095326066e-38
-0.41245717 -0.10540573 2.80200005 1.012423567e-38
-0.41092953 -0.10540573 2.80200005 9.294130282e-39
-0.40940192 -0.10540573 2.80200005 8.649490949e-39
-0.40889141 -0.10566857 2.80400002 8.005913801e-39
-0.40837336 -0.10593143 2.80600005 7.454172149e-39
-0.40683812 -0.10593143 2.80600005 6.902773814e-39
-0.40530288 -0.10593143 2.80600005 6.350299283e-39
-0.40376765 -0.10593143 2.80600005 5.705668358e-39
-0.40323049 -0.10619429 2.80800003 5.430531813e-39
-0.40268573 -0.10645715 2.81000006 5.155754e-39
-0.4031238 -0.10698286 2.81400001 5.062136052e-39
-0.40206671 -0.10711429 2.81500006 4.965300723e-39
-0.4005143 -0.10711429 2.81500006 4.688383127e-39
-0.39896193 -0.10711429 2.81500006 4.503614918e-39
-0.39838478 -0.10737714 2.81700003 4.045135283e-39
-0.39682859 -0.10737714 2.81700003 3.678496751e-39
-0.39817524 -0.10816572 2.82300001 4.140171345e-39
-0.39853525 -0.10869142 2.82700002 4.694417118e-39
-0.39888 -0.10921714 2.83100003 4.602585826e-39
-0.39825338 -0.10948001 2.83300006 4.602616654e-39
-0.39761907 -0.10974286 2.83500004 5.246573554e-39
-0.39697716 -0.11000571 2.83700001 5.983367879e-39
-0.39632761 -0.11026858 2.83900005 6.075161336e-39
-0.39567047 -0.11053143 2.84100002 6.258818316e-39
-0.39594287 -0.11105714 2.84500003 5.614163569e-39
-0.39760002 -0.11197715 2.85200006 4.969584492e-39
-0.39597717 -0.11197715 2.85200006 8.66566894e-39
-0.47619432 -0.10582096 2.81700003 1.105339885e-38
-0.4746381 -0.10582096 2.81700003 1.114271621e-38
-0.47134477 -0.10543238 2.81400001 1.132494667e-38
-0.46979427 -0.10543238 2.81400001 1.150754847e-38
-0.46594289 -0.10491429 2.81000006 1.141500251e-38
-0.4655467 -0.10517334 2.81200004 1.141534723e-38
-0.46514285 -0.10543238 2.81400001 1.10487101e-38
-0.46245334 -0.10517334 2.81200004 1.06810234e-38
-0.46204191 -0.10543238 2.81400001 1.068103881e-38
-0.46049142 -0.10543238 2.81400001 1.077285329e-38
-0.45894095 -0.10543238 2.81400001 1.049732718e-38
-0.45739049 -0.10543238 2.81400001 1.031221565e-38
-0.45584002 -0.10543238 2.81400001 9.942715671e-39
-0.45428953 -0.10543238 2.81400001 9.66433652e-39
-0.45273906 -0.10543238 2.81400001 9.204796103e-39
-0.45118859 -0.10543238 2.81400001 8.742733349e-39
-0.4496381 -0.10543238 2.81400001 8.373582288e-39
-0.44808763 -0.10543238 2.81400001 8.099528946e-39
-0.44653714 -0.10543238 2.81400001 7.637501224e-39
-0.44389334 -0.10517334 2.81200004 7.269423558e-39
-0.44125718 -0.10491429 2.81000006 8.095567475e-39
-0.43862858 -0.10465524 2.80800003 9.016114067e-39
-0.43600765 -0.10439619 2.80600005 1.077788815e-38
-0.43447241 -0.10439619 2.80600005 1.252240665e-38
-0.43186286 -0.10413714 2.80400002 1.252240805e-38
-0.43033144 -0.10413714 2.80400002 1.261495261e-38
-0.42773336 -0.1038781 2.80200005 1.335034563e-38
-0.42620572 -0.1038781 2.80200005 1.417688051e-38
-0.42361906 -0.10361905 2.80000001 1.362588435e-38
-0.42209524 -0.10361905 2.80000001 1.316631731e-38
-0.4216229 -0.1038781 2.80200005 1.252164575e-38
-0.42009526 -0.1038781 2.80200005 1.187700361e-38
-0.4175238 -0.10361905 2.80000001 1.160113839e-38
-0.41600001 -0.10361905 2.80000001 1.132383263e-38
-0.41447619 -0.10361905 2.80000001 1.113872251e-38
-0.41398478 -0.1038781 2.80200005 1.095254039e-38
-0.41245717 -0.1038781 2.80200005 1.039973515e-38
-0.41092953 -0.1038781 2.80200005 9.845136252e-39
-0.40940192 -0.1038781 2.80200005 9.016107061e-39
-0.40990859 -0.10439619 2.80600005 8.188148462e-39
-0.40837336 -0.10439619 2.80600005 7.539197334e-39
-0.40683812 -0.10439619 2.80600005 6.989952796e-39
-0.40530288 -0.10439619 2.80600005 6.257038667e-39
-0.40376765 -0.10439619 2.80600005 5.522005774e-39
-0.40323049 -0.10465524 2.80800003 5.154673598e-39
-0.40268573 -0.10491429 2.81000006 4.878090913e-39
-0.40213335 -0.10517334 2.81200004 4.693343723e-39
-0.40157333 -0.10543238 2.81400001 4.505012012e-39
-0.4005143 -0.10556191 2.81500006 4.320627759e-39
-0.39896193 -0.10556191 2.81500006 4.22843353e-39
-0.39740956 -0.10556191 2.81500006 3.585945191e-39
-0.39780003 -0.10608001 2.81900007 3.0359958e-39
-0.39914289 -0.10685714 2.82500005 3.864655048e-39
-0.39853525 -0.10711619 2.82700002 4.692254914e-39
-0.39792004 -0.10737525 2.82900006 4.87736504e-39
-0.39729714 -0.10763429 2.83100003 5.152536618e-39
-0.39666671 -0.10789334 2.83300006 5.522772284e-39
-0.39697716 -0.10841143 2.83700001 5.982639204e-39
-0.39632761 -0.10867048 2.83900005 6.259193864e-39
-0.39472955 -0.10867048 2.83900005 6.533968874e-39
-0.39500573 -0.10918858 2.84300005 6.164460482e-39
-0.39340004 -0.10918858 2.84300005 5.797892014e-39
-0.39504763 -0.11009524 2.85000002 9.130214795e-39
-0.39342856 -0.11009524 2.85000002 1.244169046e-38
-0.47775051 -0.10426477 2.81700003 1.087082647e-38
-0.4750286 -0.10400953 2.81500006 1.06853436e-38
-0.4746381 -0.10426477 2.81700003 1.040660151e-38
-0.47192383 -0.10400953 2.81500006 1.095689142e-38
-0.46979427 -0.10388191 2.81400001 1.159901963e-38
-0.46709335 -0.10362667 2.81200004 1.141534583e-38
-0.46669334 -0.10388191 2.81400001 1.132350333e-38
-0.46514285 -0.10388191 2.81400001 1.095615574e-38
-0.46359238 -0.10388191 2.81400001 1.06810276e-38
-0.46204191 -0.10388191 2.81400001 1.049737763e-38
-0.46049142 -0.10388191 2.81400001 1.040694904e-38
-0.45950478 -0.10400953 2.81500006 1.022145636e-38
-0.45795241 -0.10400953 2.81500006 1.003634203e-38
-0.45640004 -0.10400953 2.81500006 9.665045577e-39
-0.45428953 -0.10388191 2.81400001 9.388462892e-39
-0.45273906 -0.10388191 2.81400001 9.018968512e-39
-0.45118859 -0.10388191 2.81400001 8.649444706e-39
-0.45019051 -0.10400953 2.81500006 8.46610442e-39
-0.44863814 -0.10400953 2.81500006 8.37465288e-39
-0.44708574 -0.10400953 2.81500006 8.099171615e-39
-0.44389334 -0.10362667 2.81200004 7.915495017e-39
-0.44125718 -0.10337143 2.81000006 8.463273797e-39
-0.43862858 -0.10311619 2.80800003 8.923926845e-39
-0.43600765 -0.10286096 2.80600005 1.05935081e-38
-0.43447241 -0.10286096 2.80600005 1.215506327e-38
-0.43186286 -0.10260572 2.80400002 1.215505626e-38
-0.43033144 -0.10260572 2.80400002 1.215613105e-38
-0.42880002 -0.10260572 2.80400002 1.26149498e-38
-0.42620572 -0.10235048 2.80200005 1.307377416e-38
-0.42361906 -0.10209524 2.80000001 1.270643778e-38
-0.42209524 -0.10209524 2.80000001 1.224759381e-38
-0.4216229 -0.10235048 2.80200005 1.187843434e-38
-0.42009526 -0.10235048 2.80200005 1.141782052e-38
-0.4175238 -0.10209524 2.80000001 1.095577178e-38
-0.41600001 -0.10209524 2.80000001 1.040224628e-38
-0.41551241 -0.10235048 2.80200005 1.058519981e-38
-0.41398478 -0.10235048 2.80200005 1.067631363e-38
-0.41348571 -0.10260572 2.80400002 1.058304041e-38
-0.41092953 -0.10235048 2.80200005 1.039649955e-38
-0.40940192 -0.10235048 2.80200005 9.477428528e-39
-0.40990859 -0.10286096 2.80600005 8.554412848e-39
-0.40837336 -0.10286096 2.80600005 7.999458019e-39
-0.40683812 -0.10286096 2.80600005 7.447345022e-39
-0.40530288 -0.10286096 2.80600005 6.529326372e-39
-0.40376765 -0.10286096 2.80600005 5.70353278e-39
-0.40323049 -0.10311619 2.80800003 5.151452013e-39
-0.40169144 -0.10311619 2.80800003 4.691187125e-39
-0.40213335 -0.10362667 2.81200004 4.413875764e-39
-0.40157333 -0.10388191 2.81400001 4.136918932e-39
-0.4005143 -0.10400953 2.81500006 4.136544785e-39
-0.39896193 -0.10400953 2.81500006 4.136207072e-39
-0.39838478 -0.10426477 2.81700003 3.769244839e-39
-0.39780003 -0.10452001 2.81900007 3.404044039e-39
-0.39817524 -0.10503048 2.82300001 3.86321171e-39
-0.39853525 -0.10554095 2.82700002 4.414586222e-39
-0.39792004 -0.1057962 2.82900006 4.415666623e-39
-0.39729714 -0.10605143 2.83100003 4.508593731e-39
-0.39666671 -0.10630667 2.83300006 4.96814676e-39
-0.39508003 -0.10630667 2.83300006 5.519504456e-39
-0.39538285 -0.10681715 2.83700001 5.614913263e-39
-0.39472955 -0.10707238 2.83900005 5.798928975e-39
-0.39406857 -0.10732762 2.84100002 5.156425222e-39
-0.39433333 -0.10783809 2.84500003 4.606178755e-39
-0.39272383 -0.10783809 2.84500003 8.019925384e-39
-0.39342856 -0.10847619 2.85000002 1.143293353e-38
-0.47775051 -0.10270857 2.81700003 1.077932729e-38
-0.47619432 -0.10270857 2.81700003 1.022578076e-38
-0.4746381 -0.10270857 2.81700003 9.764096359e-39
-0.47192383 -0.10245715 2.81500006 1.0681022e-38
-0.47037145 -0.10245715 2.81500006 1.169049219e-38
-0.46824381 -0.10233142 2.81400001 1.150538206e-38
-0.46726671 -0.10245715 2.81500006 1.13220656e-38
-0.46571431 -0.10245715 2.81500006 1.095543687e-38
-0.46416193 -0.10245715 2.81500006 1.068030033e-38
-0.46260953 -0.10245715 2.81500006 1.040552392e-38
-0.46105719 -0.10245715 2.81500006 1.013179147e-38
-0.45950478 -0.10245715 2.81500006 9.942362543e-39
-0.45795241 -0.10245715 2.81500006 9.75688808e-39
-0.45640004 -0.10245715 2.81500006 9.479579522e-39
-0.45484763 -0.10245715 2.81500006 9.204791899e-39
-0.45273906 -0.10233142 2.81400001 8.924621889e-39
-0.45118859 -0.10233142 2.81400001 8.650176184e-39
-0.45019051 -0.10245715 2.81500006 8.651594298e-39
-0.45084006 -0.10296001 2.81900007 8.65125098e-39
-0.44818285 -0.10270857 2.81700003 8.651266394e-39
-0.44498664 -0.10233142 2.81400001 8.650553133e-39
-0.44125718 -0.10182858 2.81000006 8.739164242e-39
-0.43862858 -0.10157715 2.80800003 8.924286979e-39
-0.43600765 -0.10132572 2.80600005 1.040945596e-38
-0.43447241 -0.10132572 2.80600005 1.187846376e-38
-0.43293718 -0.10132572 2.80600005 1.178662687e-38
-0.43033144 -0.10107429 2.80400002 1.178552545e-38
-0.42880002 -0.10107429 2.80400002 1.187625952e-38
-0.42620572 -0.10082286 2.80200005 1.206103334e-38
-0.42361906 -0.10057142 2.80000001 1.168726219e-38
-0.42209524 -0.10057142 2.80000001 1.141101582e-38
-0.42057142 -0.10057142 2.80000001 1.122696367e-38
-0.41904762 -0.10057142 2.80000001 1.10400795e-38
-0.4175238 -0.10057142 2.80000001 1.030254109e-38
-0.41600001 -0.10057142 2.80000001 9.574673037e-39
-0.41447619 -0.10057142 2.80000001 1.003169952e-38
-0.41295239 -0.10057142 2.80000001 1.049085879e-38
-0.41348571 -0.10107429 2.80400002 1.076634706e-38
-0.41092953 -0.10082286 2.80200005 1.10414794e-38
-0.40940192 -0.10082286 2.80200005 1.00309148e-38
-0.40889141 -0.10107429 2.80400002 9.015709092e-39
-0.40735999 -0.10107429 2.80400002 8.460038199e-39
-0.40683812 -0.10132572 2.80600005 7.905435096e-39
-0.40530288 -0.10132572 2.80600005 6.892014645e-39
-0.40376765 -0.10132572 2.80600005 5.887206575e-39
-0.40223241 -0.10132572 2.80600005 5.146425556e-39
-0.40169144 -0.10157715 2.80800003 4.502854013e-39
-0.40213335 -0.10208 2.81200004 4.135149092e-39
-0.40157333 -0.10233142 2.81400001 3.861069125e-39
-0.4005143 -0.10245715 2.81500006 3.952178749e-39
-0.39896193 -0.10245715 2.81500006 4.044378582e-39
-0.39936003 -0.10296001 2.81900007 3.952550093e-39
-0.39877144 -0.10321143 2.82100004 3.862143921e-39
-0.39817524 -0.10346286 2.82300001 3.954691277e-39
-0.39853525 -0.10396571 2.82700002 4.138000734e-39
-0.39792004 -0.10421715 2.82900006 3.953969608e-39
-0.39729714 -0.10446857 2.83100003 3.86250966e-39
-0.39666671 -0.10472 2.83300006 4.414256917e-39
-0.39508003 -0.10472 2.83300006 5.058175982e-39
-0.39538285 -0.10522286 2.83700001 5.062833898e-39
-0.39472955 -0.10547429 2.83900005 5.061036032e-39
-0.39313143 -0.10547429 2.83900005 4.233078835e-39
-0.39340004 -0.10597715 2.84300005 3.498420089e-39
-0.39179432 -0.10597715 2.84300005 6.909990502e-39
-0.47892001 -0.10140001 2.81900007 1.08714991e-38
-0.47619432 -0.10115238 2.81700003 1.050126063e-38
-0.4746381 -0.10115238 2.81700003 1.022361856e-38
-0.47192383 -0.10090476 2.81500006 1.086540765e-38
-0.47037145 -0.10090476 2.81500006 1.141462276e-38
-0.46824381 -0.10078095 2.81400001 1.12302301e-38
-0.46726671 -0.10090476 2.81500006 1.113803307e-38
-0.46571431 -0.10090476 2.81500006 1.086180631e-38
-0.46416193 -0.10090476 2.81500006 1.067777939e-38
-0.46260953 -0.10090476 2.81500006 1.040407077e-38
-0.46105719 -0.10090476 2.81500006 1.013250053e-38
-0.45950478 -0.10090476 2.81500006 9.943797473e-39
-0.45795241 -0.10090476 2.81500006 9.847288646e-39
-0.45640004 -0.10090476 2.81500006 9.847280239e-39
-0.45484763 -0.10090476 2.81500006 9.939475868e-39
-0.45329526 -0.10090476 2.81500006 9.480299789e-39
-0.45174289 -0.10090476 2.81500006 9.1129536e-39
-0.45129526 -0.10115238 2.81700003 9.021115302e-39
-0.45084006 -0.10140001 2.81900007 9.021479639e-39
-0.44928005 -0.10140001 2.81900007 9.01933285e-39
-0.44662666 -0.10115238 2.81700003 9.018627997e-39
-0.44125718 -0.10028572 2.81000006 9.109401309e-39
-0.43862858 -0.1000381 2.80800003 9.200153601e-39
-0.43600765 -0.099790484 2.80600005 1.003850563e-38
-0.43447241 -0.099790484 2.80600005 1.095722213e-38
-0.43293718 -0.099790484 2.80600005 1.114089732e-38
-0.43140191 -0.099790484 2.80600005 1.14167121e-38
-0.42880002 -0.099542864 2.80400002 1.150813982e-38
-0.42620572 -0.099295244 2.80200005 1.169150112e-38
-0.42467812 -0.099295244 2.80200005 1.159541128e-38
-0.42315048 -0.099295244 2.80200005 1.159144421e-38
-0.4216229 -0.099295244 2.80200005 1.159070572e-38
-0.41904762 -0.099047616 2.80000001 1.159002049e-38
-0.4175238 -0.099047616 2.80000001 1.150036962e-38
-0.41600001 -0.099047616 2.80000001 1.141068792e-38
-0.41447619 -0.099047616 2.80000001 1.159615537e-38
-0.41295239 -0.099047616 2.80000001 1.187378062e-38
-0.41245717 -0.099295244 2.80200005 1.196917121e-38
-0.40990475 -0.099047616 2.80000001 1.215675744e-38
-0.40838096 -0.099047616 2.80000001 1.150849715e-38
-0.40787432 -0.099295244 2.80200005 1.086063483e-38
-0.40735999 -0.099542864 2.80400002 9.480242336e-39
-0.4058286 -0.099542864 2.80400002 8.099858251e-39
-0.40429717 -0.099542864 2.80400002 7.36088771e-39
-0.40376765 -0.099790484 2.80600005 6.714087575e-39
-0.40223241 -0.099790484 2.80600005 6.067288841e-39
-0.40169144 -0.1000381 2.80800003 5.420853044e-39
-0.4011429 -0.10028572 2.81000006 4.962035697e-39
-0.40157333 -0.10078095 2.81400001 4.412097516e-39
-0.4005143 -0.10090476 2.81500006 4.136232295e-39
-0.39994097 -0.10115238 2.81700003 3.952551494e-39
-0.39936003 -0.10140001 2.81900007 3.86070759e-39
-0.39877144 -0.10164762 2.82100004 3.769588157e-39
-0.39914289 -0.10214286 2.82500005 3.95325915e-39
-0.39853525 -0.10239048 2.82700002 4.136923135e-39
-0.39792004 -0.1026381 2.82900006 4.136916129e-39
-0.39729714 -0.10288572 2.83100003 4.139085339e-39
-0.39666671 -0.10313334 2.83300006 4.505369343e-39
-0.39602858 -0.10338096 2.83500004 4.780518501e-39
-0.39538285 -0.10362858 2.83700001 4.7815975e-39
-0.39378858 -0.10362858 2.83700001 4.69120394e-39
-0.39313143 -0.1038762 2.83900005 3.864332749e-39
-0.39340004 -0.10437143 2.84300005 3.125704125e-39
-0.39179432 -0.10437143 2.84300005 6.629087613e-39
-0.47775051 -0.099596195 2.81700003 1.096549259e-38
-0.47619432 -0.099596195 2.81700003 1.086897816e-38
-0.4746381 -0.099596195 2.81700003 1.077464415e-38
-0.47192383 -0.09935239 2.81500006 1.095832775e-38
-0.47037145 -0.09935239 2.81500006 1.123167204e-38
-0.46824381 -0.099230476 2.81400001 1.105408969e-38
-0.46726671 -0.09935239 2.81500006 1.095184254e-38
-0.46571431 -0.09935239 2.81500006 1.085892384e-38
-0.46416193 -0.09935239 2.81500006 1.076961209e-38
-0.46260953 -0.09935239 2.81500006 1.049483707e-38
-0.46105719 -0.09935239 2.81500006 1.022003964e-38
-0.45950478 -0.09935239 2.81500006 1.003707771e-38
-0.45795241 -0.09935239 2.81500006 9.944160409e-39
-0.45752001 -0.099596195 2.81700003 1.031042059e-38
-0.45596382 -0.099596195 2.81700003 1.076959527e-38
-0.45329526 -0.09935239 2.81500006 1.012674399e-38
-0.45174289 -0.09935239 2.81500006 9.574291883e-39
-0.45129526 -0.099596195 2.81700003 9.481375986e-39
-0.45084006 -0.099840008 2.81900007 9.389183159e-39
-0.44928005 -0.099840008 2.81900007 9.3873923e-39
-0.44662666 -0.099596195 2.81700003 9.478157204e-39
-0.44343618 -0.099230476 2.81400001 9.477088013e-39
-0.43971431 -0.098742865 2.81000006 9.47887607e-39
-0.43600765 -0.098255247 2.80600005 9.759400608e-39
-0.43555048 -0.098499052 2.80800003 1.012818733e-38
-0.43293718 -0.098255247 2.80600005 1.058881095e-38
-0.43140191 -0.098255247 2.80600005 1.104545489e-38
-0.42880002 -0.098011427 2.80400002 1.113475683e-38
-0.42620572 -0.097767621 2.80200005 1.132597662e-38
-0.42467812 -0.097767621 2.80200005 1.151253289e-38
-0.42315048 -0.097767621 2.80200005 1.178874283e-38
-0.42057142 -0.097523808 2.80000001 1.197311867e-38
-0.41904762 -0.097523808 2.80000001 1.224864338e-38
-0.4175238 -0.097523808 2.80000001 1.279967457e-38
-0.41600001 -0.097523808 2.80000001 1.335249663e-38
-0.41447619 -0.097523808 2.80000001 1.326247021e-38
-0.41295239 -0.097523808 2.80000001 1.326208345e-38
-0.41142857 -0.097523808 2.80000001 1.326169669e-38
-0.40990475 -0.097523808 2.80000001 1.335210006e-38
-0.40838096 -0.097523808 2.80000001 1.307552158e-38
-0.40787432 -0.097767621 2.80200005 1.279568367e-38
-0.40634668 -0.097767621 2.80200005 1.058730175e-38
-0.4058286 -0.098011427 2.80400002 8.379320605e-39
-0.40429717 -0.098011427 2.80400002 7.914778954e-39
-0.40376765 -0.098255247 2.80600005 7.546723708e-39
-0.40223241 -0.098255247 2.80600005 7.001813386e-39
-0.40169144 -0.098499052 2.80800003 6.439665692e-39
-0.4011429 -0.098742865 2.81000006 5.697075596e-39
-0.40058669 -0.09898667 2.81200004 5.054587257e-39
-0.4005143 -0.09935239 2.81500006 4.409589192e-39
-0.39994097 -0.099596195 2.81700003 3.859634195e-39
-0.39936003 -0.099840008 2.81900007 3.768858081e-39
-0.39877144 -0.10008381 2.82100004 3.769228024e-39
-0.39914289 -0.10057143 2.82500005 3.953629092e-39
-0.39853525 -0.10081524 2.82700002 4.136924537e-39
-0.39792004 -0.10105906 2.82900006 4.320221382e-39
-0.39729714 -0.10130286 2.83100003 4.506062986e-39
-0.39666671 -0.10154667 2.83300006 4.505003604e-39
-0.39602858 -0.10179048 2.83500004 4.596476164e-39
-0.39538285 -0.10203429 2.83700001 4.504637865e-39
-0.39472955 -0.1022781 2.83900005 4.415670827e-39
-0.39406857 -0.1025219 2.84100002 3.587716432e-39
-0.39340004 -0.10276572 2.84300005 2.758334114e-39
-0.39272383 -0.10300953 2.84500003 6.256699552e-39
-0.39111429 -0.10300953 2.84500003 9.862739363e-39
-0.47775051 -0.09804 2.81700003 1.105948609e-38
-0.47619432 -0.09804 2.81700003 1.077751821e-38
-0.4746381 -0.09804 2.81700003 1.05913445e-38
-0.47192383 -0.097800009 2.81500006 1.068247094e-38
-0.47152573 -0.09804 2.81700003 1.086540905e-38
-0.46881908 -0.097800009 2.81500006 1.086682857e-38
-0.46726671 -0.097800009 2.81500006 1.094968314e-38
-0.46571431 -0.097800009 2.81500006 1.113513518e-38
-0.46416193 -0.097800009 2.81500006 1.132062366e-38
-0.46374476 -0.09804 2.81700003 1.076999324e-38
-0.46105719 -0.097800009 2.81500006 1.031116608e-38
-0.45950478 -0.097800009 2.81500006 1.012928175e-38
-0.45907623 -0.09804 2.81700003 9.946326817e-39
-0.45864004 -0.098280005 2.81900007 1.003529105e-38
-0.45708004 -0.098280005 2.81900007 1.022002983e-38
-0.45440763 -0.09804 2.81700003 9.576098157e-39
-0.45174289 -0.097800009 2.81500006 9.024003378e-39
-0.45019051 -0.097800009 2.81500006 9.298788198e-39
-0.45084006 -0.098280005 2.81900007 9.481740324e-39
-0.44928005 -0.098280005 2.81900007 9.848722175e-39
-0.44662666 -0.09804 2.81700003 1.021606276e-38
-0.44398096 -0.097800009 2.81500006 9.849079506e-39
-0.44080001 -0.097440004 2.81200004 9.573928947e-39
-0.43708956 -0.096960008 2.80800003 9.573567412e-39
-0.43555048 -0.096960008 2.80800003 9.573225495e-39
-0.43293718 -0.096720003 2.80600005 1.049052108e-38
-0.43140191 -0.096720003 2.80600005 1.140780404e-38
-0.42880002 -0.096479997 2.80400002 1.205675657e-38
-0.42514285 -0.096000001 2.80000001 1.270568388e-38
-0.42361906 -0.096000001 2.80000001 1.280072975e-38
-0.42315048 -0.096239999 2.80200005 1.2987265e-38
-0.42057142 -0.096000001 2.80000001 1.280035981e-38
-0.41904762 -0.096000001 2.80000001 1.261812795e-38
-0.4175238 -0.096000001 2.80000001 1.289184498e-38
-0.41600001 -0.096000001 2.80000001 1.316809836e-38
-0.41447619 -0.096000001 2.80000001 1.325852835e-38
-0.41295239 -0.096000001 2.80000001 1.334926383e-38
-0.41142857 -0.096000001 2.80000001 1.325955831e-38
-0.40990475 -0.096000001 2.80000001 1.32635408e-38
-0.40838096 -0.096000001 2.80000001 1.261570791e-38
-0.40685716 -0.096000001 2.80000001 1.206355848e-38
-0.40634668 -0.096239999 2.80200005 1.003379026e-38
-0.40481907 -0.096239999 2.80200005 8.107769982e-39
-0.40429717 -0.096479997 2.80400002 7.727529045e-39
-0.40376765 -0.096720003 2.80600005 7.362352067e-39
-0.40223241 -0.096720003 2.80600005 7.089011986e-39
-0.40169144 -0.096960008 2.80800003 6.723792968e-39
-0.4011429 -0.097200006 2.81000006 6.438572679e-39
-0.3996 -0.097200006 2.81000006 6.248450108e-39
-0.40002286 -0.097680002 2.81400001 5.423012445e-39
-0.39896193 -0.097800009 2.81500006 4.597901285e-39
-0.39936003 -0.098280005 2.81900007 3.863190691e-39
-0.39877144 -0.098520003 2.82100004 3.220724772e-39
-0.39914289 -0.099000007 2.82500005 3.585939586e-39
-0.39949906 -0.099480011 2.82900006 4.044015646e-39
-0.39792004 -0.099480011 2.82900006 3.952873793e-39
-0.39729714 -0.099720001 2.83100003 3.863207506e-39
-0.39666671 -0.099960007 2.83300006 4.229491511e-39
-0.39602858 -0.1002 2.83500004 4.596106221e-39
-0.39538285 -0.10044 2.83700001 4.322024854e-39
-0.39472955 -0.10068 2.83900005 4.140139115e-39
-0.39313143 -0.10068 2.83900005 3.58732547e-39
-0.39340004 -0.10116 2.84300005 3.126006805e-39
-0.39272383 -0.1014 2.84500003 6.533258416e-39
-0.39111429 -0.1014 2.84500003 9.951336459e-39
-0.47619432 -0.096483812 2.81700003 1.077822447e-38
-0.4746381 -0.096483812 2.81700003 1.040336171e-38
-0.47192383 -0.096247621 2.81500006 1.049269869e-38
-0.47037145 -0.096247621 2.81500006 1.058631524e-38
-0.46881908 -0.096247621 2.81500006 1.077176868e-38
-0.46726671 -0.096247621 2.81500006 1.09536362e-38
-0.46571431 -0.096247621 2.81500006 1.141137035e-38
-0.46416193 -0.096247621 2.81500006 1.187306736e-38
-0.46374476 -0.096483812 2.81700003 1.113982673e-38
-0.46218857 -0.096483812 2.81700003 1.040514557e-38
-0.46063241 -0.096483812 2.81700003 1.013000061e-38
-0.45907623 -0.096483812 2.81700003 9.945613556e-39
-0.45864004 -0.096720003 2.81900007 9.760510436e-39
-0.45708004 -0.096720003 2.81900007 9.66866373e-39
-0.45440763 -0.096483812 2.81700003 9.117639543e-39
-0.45285144 -0.096483812 2.81700003 8.564827298e-39
-0.45129526 -0.096483812 2.81700003 9.111888614e-39
-0.45084006 -0.096720003 2.81900007 9.666844844e-39
-0.44928005 -0.096720003 2.81900007 1.031148558e-38
-0.44662666 -0.096483812 2.81700003 1.095432985e-38
-0.44398096 -0.096247621 2.81500006 1.03118359e-38
-0.44080001 -0.095893338 2.81200004 9.666123176e-39
-0.43708956 -0.095420949 2.80800003 9.390622292e-39
-0.43662858 -0.095657155 2.81000006 9.111535486e-39
-0.43401143 -0.095420949 2.80800003 1.039401225e-38
-0.43033144 -0.094948567 2.80400002 1.178267801e-38
-0.42773336 -0.094712384 2.80200005 1.298946644e-38
-0.42514285 -0.094476193 2.80000001 1.418188175e-38
-0.42361906 -0.094476193 2.80000001 1.418079574e-38
-0.42209524 -0.094476193 2.80000001 1.417970973e-38
-0.42057142 -0.094476193 2.80000001 1.362761075e-38
-0.41904762 -0.094476193 2.80000001 1.307729982e-38
-0.4175238 -0.094476193 2.80000001 1.298401538e-38
-0.41600001 -0.094476193 2.80000001 1.298297562e-38
-0.41447619 -0.094476193 2.80000001 1.325708361e-38
-0.41295239 -0.094476193 2.80000001 1.353293762e-38
-0.41142857 -0.094476193 2.80000001 1.334961415e-38
-0.40990475 -0.094476193 2.80000001 1.316595858e-38
-0.40838096 -0.094476193 2.80000001 1.224761903e-38
-0.40685716 -0.094476193 2.80000001 1.142106453e-38
-0.40634668 -0.094712384 2.80200005 9.572122673e-39
-0.4058286 -0.094948567 2.80400002 7.829402042e-39
-0.40429717 -0.094948567 2.80400002 7.540625257e-39
-0.40376765 -0.095184766 2.80600005 7.267271163e-39
-0.40323049 -0.095420949 2.80800003 7.177588062e-39
-0.40169144 -0.095420949 2.80800003 7.086813348e-39
-0.4011429 -0.095657155 2.81000006 7.271905257e-39
-0.3996 -0.095657155 2.81000006 7.446264621e-39
-0.40002286 -0.096129529 2.81400001 6.436807043e-39
