# .PCD v0.7 - Point Cloud Data file format
VERSION 0.7
FIELDS x y z rgb
SIZE 4 4 4 4
TYPE F F F F
COUNT 1 1 1 1
WIDTH 970
HEIGHT 1
VIEWPOINT 0 0 0 1 0 0 0
POINTS 970
DATA ascii
0.24533334 2.032000002 0.70000005 1.445127017e-38
0.2466667 2.032000002 0.70000005 1.426723904e-38
0.24729143 2.031908572 0.69800001 1.417540354e-38
0.24826477 2.031862859 0.69700003 1.417324554e-38
0.24959239 2.031862859 0.69700003 1.398598302e-38
0.25127998 2.031908572 0.69800001 1.389485939e-38
0.25224763 2.031862859 0.69700003 1.389593138e-38
0.25357524 2.031862859 0.69700003 1.398812e-38
0.25490287 2.031862859 0.69700003 1.408030863e-38
0.2562305 2.031862859 0.69700003 1.417034486e-38
0.25755811 2.031862859 0.69700003 1.435401164e-38
0.25888574 2.031862859 0.69700003 1.453803436e-38
0.26021332 2.031862859 0.69700003 1.426323833e-38
0.26191619 2.031908572 0.69800001 1.398737031e-38
0.26324573 2.031908572 0.69800001 1.380333778e-38
0.26533332 2.032000002 0.70000005 1.371150789e-38
0.26666668 2.032000002 0.70000005 1.334417151e-38
0.26800001 2.032000002 0.70000005 1.306901675e-38
0.26971811 2.032045718 0.70100003 1.325303947e-38
0.27066669 2.032000002 0.70000005 1.352747536e-38
0.27238861 2.032045718 0.70100003 1.325125701e-38
0.27450478 2.032137141 0.70300001 1.306614969e-38
0.27584383 2.032137141 0.70300001 1.352389084e-38
0.27757716 2.032182861 0.70400006 1.398307393e-38
0.27891812 2.032182861 0.70400006 1.425894615e-38
0.28025907 2.032182861 0.70400006 1.462628253e-38
0.28160003 2.032182861 0.70400006 1.425893635e-38
0.28334287 2.032228574 0.70500004 1.398414592e-38
0.28468573 2.032228574 0.70500004 1.380154972e-38
0.28602859 2.032228574 0.70500004 1.370971563e-38
0.28737146 2.032228574 0.70500004 1.371007576e-38
0.28953335 2.03232 0.70700002 1.370899816e-38
0.29087999 2.03232 0.70700002 1.379975606e-38
0.29222667 2.03232 0.70700002 1.38908825e-38
0.29357335 2.03232 0.70700002 1.379869528e-38
0.29492 2.03232 0.70700002 1.379976167e-38
0.2966857 2.032365713 0.708 1.389266355e-38
0.29803428 2.032365713 0.708 1.398448504e-38
0.3002286 2.032457143 0.71000004 1.398482975e-38
0.30158097 2.032457143 0.71000004 1.407308633e-38
0.30293334 2.032457143 0.71000004 1.398054178e-38
0.30471429 2.03250286 0.71100003 1.398126765e-38
0.30606857 2.03250286 0.71100003 1.370648704e-38
0.30742285 2.03250286 0.71100003 1.352281464e-38
0.30877715 2.03250286 0.71100003 1.28803249e-38
0.31100383 2.03259429 0.71300006 1.232930632e-38
0.31280002 2.032640003 0.71400005 1.269736017e-38
0.31416002 2.032640003 0.71400005 1.315581458e-38
0.31552002 2.032640003 0.71400005 1.297178065e-38
0.31776762 2.032731429 0.71600002 1.287922629e-38
0.31913143 2.032731429 0.71600002 1.287635503e-38
0.32049525 2.032731429 0.71600002 1.287634942e-38
0.32230857 2.032777142 0.71700001 1.306001621e-38
0.32367429 2.032777142 0.71700001 1.333373464e-38
0.32640001 2.032914288 0.72000003 1.268981557e-38
0.32868192 2.033005714 0.72200006 1.204697131e-38
0.33005717 2.033005714 0.72200006 1.177182775e-38
0.33189145 2.033051431 0.72300005 1.158887282e-38
0.33326861 2.033051431 0.72300005 1.21409606e-38
0.33557144 2.033142861 0.72500002 1.278273007e-38
0.33695239 2.033142861 0.72500002 1.232355119e-38
0.33879998 2.03318857 0.72600001 1.18654443e-38
0.34112003 2.03328 0.72800004 1.168248517e-38
0.34250668 2.03328 0.72800004 1.149630165e-38
0.34389335 2.03328 0.72800004 1.131334812e-38
0.34528002 2.03328 0.72800004 1.112895966e-38
0.34714288 2.033325713 0.72900003 1.076090161e-38
0.34948763 2.033417143 0.73100001 1.039356523e-38
0.35136002 2.03346286 0.73200005 1.030209408e-38
0.35275429 2.03346286 0.73200005 1.020918238e-38
0.35511619 2.033554286 0.73400003 1.011698956e-38
0.35748574 2.033645716 0.73600006 1.002515686e-38
0.35888764 2.033645716 0.73600006 9.93332557e-39
0.36175811 2.033782858 0.73900002 9.932598296e-39
0.36316571 2.033782858 0.73900002 9.840394258e-39
0.36506668 2.033828571 0.74000001 9.748201431e-39
0.36647621 2.033828571 0.74000001 9.839680997e-39
0.36888003 2.033920001 0.74200004 9.930445901e-39
0.37278858 2.034148574 0.74700004 9.654228954e-39
0.37421146 2.034148574 0.74700004 9.471272624e-39
0.37714288 2.034285717 0.75000006 9.013169939e-39
0.37958097 2.034377143 0.75200003 8.551834459e-39
0.38152 2.03442286 0.75300002 7.263980914e-39
0.3829543 2.03442286 0.75300002 5.974005804e-39
0.38540953 2.034514286 0.75500005 5.877892144e-39
0.38684765 2.034514286 0.75500005 5.893340058e-39
0.38828576 2.034514286 0.75500005 9.398535425e-39
0.38972384 2.034514286 0.75500005 1.299595445e-38
0.3927162 2.034651432 0.75800002 1.521619976e-38
0.39416 2.034651432 0.75800002 1.750994318e-38
0.08473143 2.032095239 0.67400002 1.31501155e-38
0.086015239 2.032095239 0.67400002 1.342204587e-38
0.087299049 2.032095239 0.67400002 1.370509695e-38
0.088582858 2.032095239 0.67400002 1.407926606e-38
0.089866668 2.032095239 0.67400002 1.444733812e-38
0.091150478 2.032095239 0.67400002 1.490685332e-38
0.09257143 2.032142855 0.67500001 1.426398382e-38
0.093857147 2.032142855 0.67500001 1.362220594e-38
0.095142856 2.032142855 0.67500001 1.297504707e-38
0.096571438 2.032190479 0.67600006 1.242078729e-38
0.098148577 2.032285716 0.67800003 1.278954739e-38
0.099586666 2.032333333 0.67900002 1.315798379e-38
0.10132572 2.03247619 0.68200004 1.297361495e-38
0.10277524 2.032523811 0.68300003 1.278957682e-38
0.10407619 2.032523811 0.68300003 1.269845038e-38
0.10537715 2.032523811 0.68300003 1.26988035e-38
0.10683428 2.032571428 0.68400002 1.259943042e-38
0.10813715 2.032571428 0.68400002 1.250472647e-38
0.10944 2.032571428 0.68400002 1.250867533e-38
0.11074285 2.032571428 0.68400002 1.260445688e-38
0.11204571 2.032571428 0.68400002 1.24154049e-38
0.11368001 2.032666668 0.68600005 1.231854715e-38
0.11498667 2.032666668 0.68600005 1.2041247e-38
0.11629334 2.032666668 0.68600005 1.185613267e-38
0.11777143 2.032714289 0.68700004 1.204230638e-38
0.11908 2.032714289 0.68700004 1.22284815e-38
0.12073905 2.032809526 0.68900001 1.195583786e-38
0.12205143 2.032809526 0.68900001 1.168140617e-38
0.12336381 2.032809526 0.68900001 1.149773377e-38
0.12467619 2.032809526 0.68900001 1.131406418e-38
0.12598856 2.032809526 0.68900001 1.140554375e-38
0.12730095 2.032809526 0.68900001 1.158921895e-38
0.12861334 2.032809526 0.68900001 1.140411863e-38
0.12992571 2.032809526 0.68900001 1.131120974e-38
0.1312381 2.032809526 0.68900001 1.103642352e-38
0.13255048 2.032809526 0.68900001 1.076163029e-38
0.13386285 2.032809526 0.68900001 1.067266185e-38
0.13517524 2.032809526 0.68900001 1.058369481e-38
0.13668573 2.032857146 0.69000006 1.094852567e-38
0.13800001 2.032857146 0.69000006 1.131336634e-38
0.13931429 2.032857146 0.69000006 1.140485291e-38
0.14062859 2.032857146 0.69000006 1.158853091e-38
0.14194286 2.032857146 0.69000006 1.149778002e-38
0.14325716 2.032857146 0.69000006 1.149885621e-38
0.14457144 2.032857146 0.69000006 1.159212664e-38
0.14588572 2.032857146 0.69000006 1.168538726e-38
0.1472 2.032857146 0.69000006 1.196196153e-38
0.1485143 2.032857146 0.69000006 1.223675336e-38
0.14982858 2.032857146 0.69000006 1.232895039e-38
0.1509238 2.032809526 0.68900001 1.251333885e-38
0.15223619 2.032809526 0.68900001 1.232930912e-38
0.15354857 2.032809526 0.68900001 1.223747363e-38
0.15486096 2.032809526 0.68900001 1.232966786e-38
0.15617335 2.032809526 0.68900001 1.242220961e-38
0.15748571 2.032809526 0.68900001 1.260658826e-38
0.1587981 2.032809526 0.68900001 1.288281641e-38
0.16011047 2.032809526 0.68900001 1.279134385e-38
0.16142286 2.032809526 0.68900001 1.269844197e-38
0.16273524 2.032809526 0.68900001 1.269701825e-38
0.16404761 2.032809526 0.68900001 1.269559873e-38
0.16536 2.032809526 0.68900001 1.242082653e-38
0.16667238 2.032809526 0.68900001 1.214637942e-38
0.16798477 2.032809526 0.68900001 1.196089795e-38
0.16929714 2.032809526 0.68900001 1.177579203e-38
0.17060952 2.032809526 0.68900001 1.177292357e-38
0.17142285 2.032714289 0.68700004 1.186510098e-38
0.17273144 2.032714289 0.68700004 1.186364924e-38
0.17404 2.032714289 0.68700004 1.186258705e-38
0.17534858 2.032714289 0.68700004 1.204806572e-38
0.17665714 2.032714289 0.68700004 1.223353738e-38
0.17796573 2.032714289 0.68700004 1.251084454e-38
0.17927429 2.032714289 0.68700004 1.278851463e-38
0.18058287 2.032714289 0.68700004 1.306654486e-38
0.18189144 2.032714289 0.68700004 1.334453585e-38
0.18320002 2.032714289 0.68700004 1.371185121e-38
0.18450858 2.032714289 0.68700004 1.407956594e-38
0.18581715 2.032714289 0.68700004 1.426360968e-38
0.18712573 2.032714289 0.68700004 1.444835967e-38
0.1884343 2.032714289 0.68700004 1.426469288e-38
0.19029523 2.032809526 0.68900001 1.408138763e-38
0.19188572 2.032857146 0.69000006 1.41728714e-38
0.19320001 2.032857146 0.69000006 1.435617945e-38
0.1945143 2.032857146 0.69000006 1.407959396e-38
0.19582857 2.032857146 0.69000006 1.380334479e-38
0.19714287 2.032857146 0.69000006 1.352924801e-38
0.19845717 2.032857146 0.69000006 1.33452421e-38
0.19977143 2.032857146 0.69000006 1.316087747e-38
0.20079428 2.032809526 0.68900001 1.306867343e-38
0.20210667 2.032809526 0.68900001 1.325341081e-38
0.20371431 2.032857146 0.69000006 1.353033261e-38
0.20502858 2.032857146 0.69000006 1.352995566e-38
0.20634288 2.032857146 0.69000006 1.362181358e-38
0.20795812 2.032904763 0.69100004 1.352928444e-38
0.20927429 2.032904763 0.69100004 1.334561905e-38
0.21028572 2.032857146 0.69000006 1.352965578e-38
0.21190667 2.032904763 0.69100004 1.362184721e-38
0.21322288 2.032904763 0.69100004 1.380515667e-38
0.21422859 2.032857146 0.69000006 1.398880244e-38
0.21648 2.033 0.69300002 1.398949468e-38
0.21780001 2.033 0.69300002 1.399239817e-38
0.2194362 2.03304762 0.69400001 1.417502659e-38
0.22107621 2.033095241 0.69500005 1.435797872e-38
0.22240001 2.033095241 0.69500005 1.435797872e-38
0.22436763 2.033190478 0.69700003 1.444945969e-38
0.22601905 2.033238098 0.69800001 1.444982403e-38
0.22702286 2.033190478 0.69700003 1.445054289e-38
0.22769526 2.033095241 0.69500005 1.472605218e-38
0.22967809 2.033190478 0.69700003 1.50019132e-38
0.23100573 2.033190478 0.69700003 1.463528588e-38
0.23233335 2.033190478 0.69700003 1.436048985e-38
0.23366097 2.033190478 0.69700003 1.436120031e-38
0.23498857 2.033190478 0.69700003 1.427006966e-38
0.23631619 2.033190478 0.69700003 1.426862352e-38
0.23798476 2.033238098 0.69800001 1.426720681e-38
0.23897144 2.033190478 0.69700003 1.435798433e-38
0.24064381 2.033238098 0.69800001 1.444910516e-38
0.24162666 2.033190478 0.69700003 1.435691513e-38
0.24330285 2.033238098 0.69800001 1.4356555e-38
0.24463239 2.033238098 0.69800001 1.417216654e-38
0.2459619 2.033238098 0.69800001 1.407996951e-38
0.24729143 2.033238098 0.69800001 1.398813121e-38
0.24755239 2.033095241 0.69500005 1.389629151e-38
0.2488762 2.033095241 0.69500005 1.371046532e-38
0.25092 2.033190478 0.69700003 1.361862983e-38
0.25152382 2.033095241 0.69500005 1.371154292e-38
0.25284764 2.033095241 0.69500005 1.389556564e-38
0.25417143 2.033095241 0.69500005 1.398667667e-38
0.25549525 2.033095241 0.69500005 1.416998612e-38
0.25681907 2.033095241 0.69500005 1.453768544e-38
0.25814286 2.033095241 0.69500005 1.490537354e-38
0.25946671 2.033095241 0.69500005 1.453873781e-38
0.2607905 2.033095241 0.69500005 1.408063513e-38
0.26286858 2.033190478 0.69700003 1.389552781e-38
0.26419619 2.033190478 0.69700003 1.371149528e-38
0.26590478 2.033238098 0.69800001 1.352710542e-38
0.2672343 2.033238098 0.69800001 1.334236384e-38
0.26933336 2.033333335 0.70000005 1.343384761e-38
0.27066669 2.033333335 0.70000005 1.36175256e-38
0.27200001 2.033333335 0.70000005 1.361609768e-38
0.27450478 2.033476193 0.70300001 1.370649685e-38
0.27584383 2.033476193 0.70300001 1.379869108e-38
0.27718285 2.033476193 0.70300001 1.398451867e-38
0.2785219 2.033476193 0.70300001 1.41674778e-38
0.27986094 2.033476193 0.70300001 1.435078025e-38
0.28160003 2.033523813 0.70400006 1.416674072e-38
0.28294095 2.033523813 0.70400006 1.389231183e-38
0.28428194 2.033523813 0.70400006 1.370900237e-38
0.28602859 2.033571433 0.70500004 1.361754382e-38
0.28737146 2.033571433 0.70500004 1.370796261e-38
0.28871432 2.033571433 0.70500004 1.379762609e-38
0.29087999 2.03366667 0.70700002 1.398091873e-38
0.29222667 2.03366667 0.70700002 1.425642522e-38
0.29274285 2.033571433 0.70500004 1.407239549e-38
0.29492 2.03366667 0.70700002 1.38887189e-38
0.29626667 2.03366667 0.70700002 1.379616173e-38
0.29803428 2.033714287 0.708 1.370395209e-38
0.29938284 2.033714287 0.708 1.379577357e-38
0.30158097 2.033809524 0.71000004 1.388797621e-38
0.30293334 2.033809524 0.71000004 1.379579179e-38
0.30428573 2.033809524 0.71000004 1.379544427e-38
0.30606857 2.033857144 0.71100003 1.379581421e-38
0.30742285 2.033857144 0.71100003 1.379652467e-38
0.30877715 2.033857144 0.71100003 1.324658228e-38
0.31100383 2.033952381 0.71300006 1.269628677e-38
0.31280002 2.034000002 0.71400005 1.287995776e-38
0.31416002 2.034000002 0.71400005 1.306147216e-38
0.31552002 2.034000002 0.71400005 1.287923329e-38
0.31776762 2.034095235 0.71600002 1.26955595e-38
0.31913143 2.034095235 0.71600002 1.269412317e-38
0.32094285 2.034142856 0.71700001 1.278487406e-38
0.32230857 2.034142856 0.71700001 1.278486565e-38
0.32457718 2.034238096 0.71900004 1.278164126e-38
0.32594669 2.034238096 0.71900004 1.223063249e-38
0.32777143 2.034285713 0.72000003 1.177181935e-38
0.33005717 2.034380954 0.72200006 1.158815396e-38
0.3314324 2.034380954 0.72200006 1.149667579e-38
0.33326861 2.034428574 0.72300005 1.186401638e-38
0.33464572 2.034428574 0.72300005 1.223171569e-38
0.33695239 2.034523807 0.72500002 1.186437231e-38
0.33879998 2.034571428 0.72600001 1.158921895e-38
0.34018287 2.034571428 0.72600001 1.140518502e-38
0.34250668 2.034666669 0.72800004 1.122151402e-38
0.34389335 2.034666669 0.72800004 1.094529007e-38
0.3457543 2.034714285 0.72900003 1.075982822e-38
0.34714288 2.034714285 0.72900003 1.039248904e-38
0.34948763 2.034809522 0.73100001 1.011734549e-38
0.35136002 2.034857146 0.73200005 1.002587293e-38
0.3537181 2.03495238 0.73400003 1.002623166e-38
0.35608384 2.035047621 0.73600006 9.841125736e-39
0.35797146 2.035095241 0.73700005 9.748583985e-39
0.36035049 2.035190478 0.73900002 9.656759699e-39
0.36224762 2.035238095 0.74000001 9.564905986e-39
0.36365715 2.035238095 0.74000001 9.473053675e-39
0.36506668 2.035238095 0.74000001 9.473056477e-39
0.36746669 2.035333335 0.74200004 9.47162435e-39
0.37186289 2.03561905 0.74800003 9.468401364e-39
0.37328765 2.03561905 0.74800003 9.102501315e-39
0.37471241 2.03561905 0.74800003 8.736595662e-39
0.37865144 2.035857145 0.75300002 7.906490273e-39
0.38008571 2.035857145 0.75300002 6.984533975e-39
0.38152 2.035857145 0.75300002 7.900365198e-39
0.38397145 2.035952386 0.75500005 8.724792525e-39
0.38540953 2.035952386 0.75500005 1.003207507e-38
0.38684765 2.035952386 0.75500005 1.124750391e-38
0.38828576 2.035952386 0.75500005 1.300461868e-38
0.38972384 2.035952386 0.75500005 1.485355072e-38
0.39168003 2.036000002 0.75600004 1.595058105e-38
0.39312002 2.036000002 0.75600004 1.705295873e-38
0.08448001 2.033280004 0.67200005 1.232395897e-38
0.085760005 2.033280004 0.67200005 1.305900867e-38
0.087040007 2.033280004 0.67200005 1.351855189e-38
0.088320009 2.033280004 0.67200005 1.398491103e-38
0.089600012 2.033280004 0.67200005 1.47228306e-38
0.090879999 2.033280004 0.67200005 1.545785929e-38
0.09257143 2.033428572 0.67500001 1.463168454e-38
0.093857147 2.033428572 0.67500001 1.380479934e-38
0.095142856 2.033428572 0.67500001 1.334453865e-38
0.096428573 2.033428572 0.67500001 1.297252193e-38
0.097859055 2.0334781 0.67600006 1.27884824e-38
0.099146679 2.0334781 0.67600006 1.269701685e-38
0.10088 2.033626668 0.67900002 1.269774552e-38
0.10232381 2.033676192 0.68000001 1.269773992e-38
0.10392382 2.03377524 0.68200004 1.260625615e-38
0.10522287 2.03377524 0.68200004 1.260517014e-38
0.10652191 2.03377524 0.68200004 1.260408273e-38
0.10782096 2.03377524 0.68200004 1.269807903e-38
0.10928001 2.033824764 0.68300003 1.279243266e-38
0.11058096 2.033824764 0.68300003 1.288426956e-38
0.11188191 2.033824764 0.68300003 1.279243546e-38
0.11318286 2.033824764 0.68300003 1.279243406e-38
0.11465143 2.033874284 0.68400002 1.279279139e-38
0.11595428 2.033874284 0.68400002 1.279278719e-38
0.11760001 2.033973332 0.68600005 1.270130482e-38
0.11908 2.03402286 0.68700004 1.269663289e-38
0.12038857 2.03402286 0.68700004 1.214130672e-38
0.12205143 2.034121905 0.68900001 1.158993641e-38
0.12300572 2.03402286 0.68700004 1.12222385e-38
0.1243143 2.03402286 0.68700004 1.085453638e-38
0.12598856 2.034121905 0.68900001 1.103820737e-38
0.12693143 2.03402286 0.68700004 1.131264046e-38
0.12861334 2.034121905 0.68900001 1.112502482e-38
0.12954856 2.03402286 0.68700004 1.094063496e-38
0.1312381 2.034121905 0.68900001 1.057257411e-38
0.13255048 2.034121905 0.68900001 1.029670608e-38
0.13405715 2.034171432 0.69000006 9.837167068e-39
0.13537145 2.034171432 0.69000006 9.470905484e-39
0.13668573 2.034171432 0.69000006 1.002299886e-38
0.13800001 2.034171432 0.69000006 1.06665648e-38
0.13951619 2.034220956 0.69100004 1.085095466e-38
0.14062859 2.034171432 0.69000006 1.112934082e-38
0.14194286 2.034171432 0.69000006 1.103787526e-38
0.14325716 2.034171432 0.69000006 1.103894726e-38
0.14457144 2.034171432 0.69000006 1.122369024e-38
0.14588572 2.034171432 0.69000006 1.141094295e-38
0.1472 2.034171432 0.69000006 1.187083089e-38
0.14829905 2.034121905 0.68900001 1.232929511e-38
0.14982858 2.034171432 0.69000006 1.242041735e-38
0.1509238 2.034121905 0.68900001 1.26048072e-38
0.15223619 2.034121905 0.68900001 1.223818549e-38
0.15354857 2.034121905 0.68900001 1.196232167e-38
0.15486096 2.034121905 0.68900001 1.205379983e-38
0.15617335 2.034121905 0.68900001 1.214598706e-38
0.15748571 2.034121905 0.68900001 1.242184527e-38
0.1587981 2.034121905 0.68900001 1.279026345e-38
0.15964572 2.03402286 0.68700004 1.260766866e-38
0.16142286 2.034121905 0.68900001 1.242185508e-38
0.16273524 2.034121905 0.68900001 1.242007123e-38
0.16404761 2.034121905 0.68900001 1.251191793e-38
0.16536 2.034121905 0.68900001 1.20531118e-38
0.16667238 2.034121905 0.68900001 1.168540267e-38
0.16798477 2.034121905 0.68900001 1.150172327e-38
0.16929714 2.034121905 0.68900001 1.140701651e-38
0.17011429 2.03402286 0.68700004 1.149741708e-38
0.17142285 2.03402286 0.68700004 1.168143279e-38
0.17273144 2.03402286 0.68700004 1.167998385e-38
0.17378667 2.033973332 0.68600005 1.168035379e-38
0.17509334 2.033973332 0.68600005 1.186439613e-38
0.17640002 2.033973332 0.68600005 1.214241935e-38
0.17770667 2.033973332 0.68600005 1.241793284e-38
0.17901336 2.033973332 0.68600005 1.269667633e-38
0.18032001 2.033973332 0.68600005 1.297506109e-38
0.18162668 2.033973332 0.68600005 1.334346386e-38
0.18320002 2.03402286 0.68700004 1.371186662e-38
0.18450858 2.03402286 0.68700004 1.407921421e-38
0.18581715 2.03402286 0.68700004 1.407921982e-38
0.18712573 2.03402286 0.68700004 1.417320911e-38
0.1884343 2.03402286 0.68700004 1.408280994e-38
0.18974286 2.03402286 0.68700004 1.399026399e-38
0.19160762 2.034121905 0.68900001 1.399063113e-38
0.19292001 2.034121905 0.68900001 1.40799527e-38
0.19423237 2.034121905 0.68900001 1.389663763e-38
0.19554476 2.034121905 0.68900001 1.371294983e-38
0.19714287 2.034171432 0.69000006 1.362109892e-38
0.19816953 2.034121905 0.68900001 1.352856417e-38
0.1994819 2.034121905 0.68900001 1.334455407e-38
0.20079428 2.034121905 0.68900001 1.325306469e-38
0.20210667 2.034121905 0.68900001 1.334524491e-38
0.20341904 2.034121905 0.68900001 1.352997948e-38
0.20502858 2.034171432 0.69000006 1.352781448e-38
0.20604381 2.034121905 0.68900001 1.352818862e-38
0.20765716 2.034171432 0.69000006 1.334525191e-38
0.20897144 2.034171432 0.69000006 1.316195086e-38
0.21028572 2.034171432 0.69000006 1.334635193e-38
0.21160002 2.034171432 0.69000006 1.362185001e-38
0.2129143 2.034171432 0.69000006 1.371403723e-38
0.21391809 2.034121905 0.68900001 1.389733688e-38
0.21585524 2.034220956 0.69100004 1.389732427e-38
0.21717145 2.034220956 0.69100004 1.389805995e-38
0.21912 2.034320001 0.69300002 1.408282676e-38
0.2207581 2.034369525 0.69400001 1.426649635e-38
0.22240001 2.034419049 0.69500005 1.417501678e-38
0.22372383 2.034419049 0.69500005 1.417502379e-38
0.22569525 2.034518097 0.69700003 1.42668677e-38
0.22637144 2.034419049 0.69500005 1.435941785e-38
0.22769526 2.034419049 0.69500005 1.436013392e-38
0.22901906 2.034419049 0.69500005 1.435905352e-38
0.23001143 2.034369525 0.69400001 1.435833185e-38
0.23166668 2.034419049 0.69500005 1.435797031e-38
0.23299049 2.034419049 0.69500005 1.426613201e-38
0.23431429 2.034419049 0.69500005 1.417321331e-38
0.23563811 2.034419049 0.69500005 1.417248884e-38
0.23764382 2.034518097 0.69700003 1.417178679e-38
0.23897144 2.034518097 0.69700003 1.417108474e-38
0.24029906 2.034518097 0.69700003 1.417108474e-38
0.24093336 2.034419049 0.69500005 1.407960798e-38
0.24295428 2.034518097 0.69700003 1.407924364e-38
0.2442819 2.034518097 0.69700003 1.398704381e-38
0.24560954 2.034518097 0.69700003 1.389520831e-38
0.24693714 2.034518097 0.69700003 1.371189605e-38
0.24719618 2.034369525 0.69400001 1.361933188e-38
0.24851809 2.034369525 0.69400001 1.352676771e-38
0.2502 2.034419049 0.69500005 1.343494342e-38
0.2511619 2.034369525 0.69400001 1.361934169e-38
0.25248381 2.034369525 0.69400001 1.380300707e-38
0.25380573 2.034369525 0.69400001 1.398667246e-38
0.25512761 2.034369525 0.69400001 1.426217895e-38
0.25644952 2.034369525 0.69400001 1.481462686e-38
0.25777143 2.034369525 0.69400001 1.536491396e-38
0.25909334 2.034369525 0.69400001 1.481425271e-38
0.26041523 2.034369525 0.69400001 1.426323693e-38
0.26211432 2.034419049 0.69500005 1.398772764e-38
0.26419619 2.034518097 0.69700003 1.380298045e-38
0.26552382 2.034518097 0.69700003 1.371006876e-38
0.26685143 2.034518097 0.69700003 1.361787733e-38
0.26856381 2.034567621 0.69800001 1.361572774e-38
0.26989332 2.034567621 0.69800001 1.370792757e-38
0.27200001 2.034666669 0.70000005 1.398200614e-38
0.27372381 2.034716193 0.70100003 1.434934532e-38
0.27505904 2.034716193 0.70100003 1.416567153e-38
0.27639431 2.034716193 0.70100003 1.407599683e-38
0.27772954 2.034716193 0.70100003 1.407672411e-38
0.27986094 2.034815237 0.70300001 1.416746799e-38
0.28119999 2.034815237 0.70300001 1.398306552e-38
0.28294095 2.034864765 0.70400006 1.389266916e-38
0.28387809 2.034815237 0.70300001 1.370900097e-38
0.28562286 2.034864765 0.70400006 1.352533698e-38
0.28696382 2.034864765 0.70400006 1.370650245e-38
0.28871432 2.034914289 0.70500004 1.388980771e-38
0.29005715 2.034914289 0.70500004 1.425642382e-38
0.29140002 2.034914289 0.70500004 1.47156069e-38
0.29274285 2.034914289 0.70500004 1.434827052e-38
0.29408571 2.034914289 0.70500004 1.40724011e-38
0.29626667 2.035013333 0.70700002 1.379617434e-38
0.29803428 2.035062857 0.708 1.35213671e-38
0.3002286 2.035161905 0.71000004 1.361390325e-38
0.30073142 2.035062857 0.708 1.370466955e-38
0.30293334 2.035161905 0.71000004 1.370359896e-38
0.30428573 2.035161905 0.71000004 1.370361297e-38
0.3056381 2.035161905 0.71000004 1.388622318e-38
0.3069905 2.035161905 0.71000004 1.416351212e-38
0.30834287 2.035161905 0.71000004 1.36132054e-38
0.31013143 2.035211429 0.71100003 1.315438105e-38
0.31236196 2.035310481 0.71300006 1.306290008e-38
0.31372002 2.035310481 0.71300006 1.297070305e-38
0.31552002 2.035360001 0.71400005 1.278703066e-38
0.31776762 2.035459049 0.71600002 1.260335966e-38
0.31913143 2.035459049 0.71600002 1.260335966e-38
0.32094285 2.035508573 0.71700001 1.269304136e-38
0.32230857 2.035508573 0.71700001 1.241789081e-38
0.32457718 2.035607617 0.71900004 1.223314782e-38
0.32594669 2.035607617 0.71900004 1.186509257e-38
0.32777143 2.035657145 0.72000003 1.158922875e-38
0.33005717 2.035756193 0.72200006 1.149739606e-38
0.3314324 2.035756193 0.72200006 1.140555776e-38
0.33326861 2.035805713 0.72300005 1.149739046e-38
0.33557144 2.035904761 0.72500002 1.168106005e-38
0.33741713 2.035954285 0.72600001 1.149738765e-38
0.33973336 2.036053337 0.72800004 1.131371246e-38
0.34112003 2.036053337 0.72800004 1.113003866e-38
0.34297714 2.036102857 0.72900003 1.09456488e-38
0.34436572 2.036102857 0.72900003 1.066906472e-38
0.34670284 2.036201905 0.73100001 1.039284216e-38
0.34809524 2.036201905 0.73100001 1.011697834e-38
0.34996572 2.036251429 0.73200005 9.841474659e-39
0.35232002 2.036350477 0.73400003 9.84147606e-39
0.35468191 2.036449526 0.73600006 9.841118729e-39
0.35608384 2.036449526 0.73600006 9.65745054e-39
0.35797146 2.03649905 0.73700005 9.565261916e-39
0.36083809 2.036647618 0.74000001 9.381237797e-39
0.36224762 2.036647618 0.74000001 9.289393893e-39
0.36365715 2.036647618 0.74000001 9.197548587e-39
0.36605334 2.03674667 0.74200004 9.196476594e-39
0.36746669 2.03674667 0.74200004 9.103929238e-39
0.37285715 2.037142862 0.75000006 9.101059379e-39
0.37428573 2.037142862 0.75000006 8.550765268e-39
0.37671623 2.037241906 0.75200003 8.086562731e-39
0.37865144 2.03729143 0.75300002 6.796199461e-39
0.38109526 2.037390478 0.75500005 5.522737252e-39
0.38253337 2.037390478 0.75500005 8.560521108e-39
0.38397145 2.037390478 0.75500005 1.160872082e-38
0.38540953 2.037390478 0.75500005 1.410626628e-38
0.38684765 2.037390478 0.75500005 1.667911472e-38
0.38828576 2.037390478 0.75500005 1.66809294e-38
0.39024001 2.037440002 0.75600004 1.668309581e-38
0.39168003 2.037440002 0.75600004 1.659342672e-38
0.39312002 2.037440002 0.75600004 1.659198478e-38
0.081798092 2.034508571 0.671 1.186514442e-38
0.083076194 2.034508571 0.671 1.149385638e-38
0.084228575 2.034457143 0.67000002 1.204594556e-38
0.085504763 2.034457143 0.67000002 1.269023176e-38
0.08678095 2.034457143 0.67000002 1.315156584e-38
0.088057138 2.034457143 0.67000002 1.361504951e-38
0.089466669 2.034508571 0.671 1.398382923e-38
0.090879999 2.034560002 0.67200005 1.444479196e-38
0.092160001 2.034560002 0.67200005 1.398668367e-38
0.093718104 2.034662858 0.67400002 1.343709722e-38
0.095001914 2.034662858 0.67400002 1.315871386e-38
0.096285716 2.034662858 0.67400002 1.2973245e-38
0.097569525 2.034662858 0.67400002 1.278849361e-38
0.099146679 2.034765717 0.67600006 1.269558612e-38
0.10088 2.03492 0.67900002 1.260411356e-38
0.10232381 2.034971431 0.68000001 1.251263259e-38
0.10361905 2.034971431 0.68000001 1.251191093e-38
0.10522287 2.03507429 0.68200004 1.251153538e-38
0.10652191 2.03507429 0.68200004 1.25118787e-38
0.10782096 2.03507429 0.68200004 1.26058792e-38
0.10928001 2.035125714 0.68300003 1.269952237e-38
0.11058096 2.035125714 0.68300003 1.288498842e-38
0.11188191 2.035125714 0.68300003 1.297754419e-38
0.11318286 2.035125714 0.68300003 1.307081181e-38
0.11448382 2.035125714 0.68300003 1.33463169e-38
0.11578476 2.035125714 0.68300003 1.371401621e-38
0.11760001 2.03528 0.68600005 1.343850832e-38
0.11908 2.035331432 0.68700004 1.325518485e-38
0.12038857 2.035331432 0.68700004 1.288424574e-38
0.12205143 2.035434287 0.68900001 1.251332203e-38
0.12300572 2.035331432 0.68700004 1.214562692e-38
0.1243143 2.035331432 0.68700004 1.17779234e-38
0.12562287 2.035331432 0.68700004 1.177433328e-38
0.12693143 2.035331432 0.68700004 1.177110328e-38
0.12824 2.035331432 0.68700004 1.149380313e-38
0.12954856 2.035331432 0.68700004 1.130833287e-38
0.13085715 2.035331432 0.68700004 1.103138585e-38
0.13255048 2.035434287 0.68900001 1.075480036e-38
0.13405715 2.035485715 0.69000006 1.05714867e-38
0.13537145 2.035485715 0.69000006 1.038818285e-38
0.13668573 2.035485715 0.69000006 1.048182041e-38
0.13820001 2.035537146 0.69100004 1.066763539e-38
0.13951619 2.035537146 0.69100004 1.076017995e-38
0.14083239 2.035537146 0.69100004 1.085382312e-38
0.14214858 2.035537146 0.69100004 1.057725444e-38
0.14325716 2.035485715 0.69000006 1.039249885e-38
0.14478095 2.035537146 0.69100004 1.048898946e-38
0.14588572 2.035485715 0.69000006 1.049364877e-38
0.1472 2.035485715 0.69000006 1.049113484e-38
0.1485143 2.035485715 0.69000006 1.058082355e-38
0.14982858 2.035485715 0.69000006 1.085633564e-38
0.1509238 2.035434287 0.68900001 1.122368043e-38
0.15223619 2.035434287 0.68900001 1.13162376e-38
0.15354857 2.035434287 0.68900001 1.150062886e-38
0.15441144 2.035331432 0.68700004 1.149955546e-38
0.15617335 2.035434287 0.68900001 1.149883519e-38
0.15748571 2.035434287 0.68900001 1.177505635e-38
0.1587981 2.035434287 0.68900001 1.19594406e-38
0.15964572 2.035331432 0.68700004 1.18686771e-38
0.16142286 2.035434287 0.68900001 1.177828494e-38
0.16273524 2.035434287 0.68900001 1.150063446e-38
0.16404761 2.035434287 0.68900001 1.122334132e-38
0.16536 2.035434287 0.68900001 1.085564901e-38
0.16667238 2.035434287 0.68900001 1.048794829e-38
0.16798477 2.035434287 0.68900001 1.076309605e-38
0.16880572 2.035331432 0.68700004 1.103860113e-38
0.17011429 2.035331432 0.68700004 1.131410622e-38
0.17142285 2.035331432 0.68700004 1.158996023e-38
0.17273144 2.035331432 0.68700004 1.140699549e-38
0.17378667 2.03528 0.68600005 1.131588587e-38
0.17458287 2.035177141 0.68400002 1.16835964e-38
0.17640002 2.03528 0.68600005 1.205130272e-38
0.17770667 2.03528 0.68600005 1.232609735e-38
0.17901336 2.03528 0.68600005 1.260519536e-38
0.18032001 2.03528 0.68600005 1.288178366e-38
0.18162668 2.03528 0.68600005 1.325019763e-38
0.18293335 2.03528 0.68600005 1.361789555e-38
0.18424001 2.03528 0.68600005 1.398559346e-38
0.18554668 2.03528 0.68600005 1.398702559e-38
0.18685335 2.03528 0.68600005 1.399025278e-38
0.18816 2.03528 0.68600005 1.389805715e-38
0.18974286 2.035331432 0.68700004 1.380623006e-38
0.19077334 2.03528 0.68600005 1.380480494e-38
0.19236001 2.035331432 0.68700004 1.389556144e-38
0.19366857 2.035331432 0.68700004 1.362076961e-38
0.19554476 2.035434287 0.68900001 1.334597358e-38
0.19685714 2.035434287 0.68900001 1.334489038e-38
0.19816953 2.035434287 0.68900001 1.334454566e-38
0.19890286 2.035331432 0.68700004 1.334527854e-38
0.20021144 2.035331432 0.68700004 1.325414369e-38
0.20152001 2.035331432 0.68700004 1.343779787e-38
0.20282859 2.035331432 0.68700004 1.352998509e-38
0.20473143 2.035434287 0.68900001 1.371221414e-38
0.20604381 2.035434287 0.68900001 1.389553621e-38
0.20735618 2.035434287 0.68900001 1.3620757e-38
0.20866857 2.035434287 0.68900001 1.343746155e-38
0.20998096 2.035434287 0.68900001 1.35296726e-38
0.21129334 2.035434287 0.68900001 1.371368971e-38
0.21260571 2.035434287 0.68900001 1.389734809e-38
0.21329714 2.035331432 0.68700004 1.408101908e-38
0.21523048 2.035434287 0.68900001 1.398882486e-38
0.21685715 2.035485715 0.69000006 1.398882906e-38
0.21848764 2.035537146 0.69100004 1.408174636e-38
0.22044 2.035640001 0.69300002 1.417644751e-38
0.22208001 2.035691429 0.69400001 1.417393358e-38
0.22308001 2.035640001 0.69300002 1.417358466e-38
0.22504763 2.03574286 0.69500005 1.417323573e-38
0.22604571 2.035691429 0.69400001 1.417322873e-38
0.22736762 2.035691429 0.69400001 1.408318129e-38
0.22868954 2.035691429 0.69400001 1.399385131e-38
0.23001143 2.035691429 0.69400001 1.408209528e-38
0.23166668 2.03574286 0.69500005 1.426289782e-38
0.23299049 2.03574286 0.69500005 1.408066316e-38
0.23431429 2.03574286 0.69500005 1.398918359e-38
0.23563811 2.03574286 0.69500005 1.398882346e-38
0.23696192 2.03574286 0.69500005 1.398847733e-38
0.23828572 2.03574286 0.69500005 1.398741515e-38
0.23960954 2.03574286 0.69500005 1.389557545e-38
0.24093336 2.03574286 0.69500005 1.389521251e-38
0.24190857 2.035691429 0.69400001 1.389376637e-38
0.24323048 2.035691429 0.69400001 1.380299727e-38
0.24455237 2.035691429 0.69400001 1.380300007e-38
0.24587429 2.035691429 0.69400001 1.371116878e-38
0.24684 2.035640001 0.69300002 1.352532577e-38
0.24815999 2.035640001 0.69300002 1.32501598e-38
0.24948001 2.035640001 0.69300002 1.297503166e-38
0.25079998 2.035640001 0.69300002 1.334239466e-38
0.25212002 2.035640001 0.69300002 1.380156794e-38
0.25343999 2.035640001 0.69300002 1.398666966e-38
0.25476003 2.035640001 0.69300002 1.426253628e-38
0.25608 2.035640001 0.69300002 1.453768544e-38
0.25740001 2.035640001 0.69300002 1.481318772e-38
0.25872001 2.035640001 0.69300002 1.453803716e-38
0.26003999 2.035640001 0.69300002 1.426180901e-38
0.26173714 2.035691429 0.69400001 1.407813521e-38
0.26305905 2.035691429 0.69400001 1.389482435e-38
0.26476192 2.03574286 0.69500005 1.38022742e-38
0.26608571 2.03574286 0.69500005 1.371007857e-38
0.26817906 2.035845716 0.69700003 1.37082835e-38
0.26989332 2.035897143 0.69800001 1.370828911e-38
0.27122286 2.035897143 0.69800001 1.389196711e-38
0.27333337 2.036000002 0.70000005 1.407563249e-38
0.2746667 2.036000002 0.70000005 1.398379139e-38
0.27600002 2.036000002 0.70000005 1.389196851e-38
0.27772954 2.03605143 0.70100003 1.398417675e-38
0.27906477 2.03605143 0.70100003 1.416926305e-38
0.28040001 2.03605143 0.70100003 1.398521511e-38
0.28253907 2.036154289 0.70300001 1.389338382e-38
0.28387809 2.036154289 0.70300001 1.389267196e-38
0.28562286 2.036205716 0.70400006 1.398450185e-38
0.28696382 2.036205716 0.70400006 1.389014962e-38
0.28789523 2.036154289 0.70300001 1.389015383e-38
0.28964573 2.036205716 0.70400006 1.407418775e-38
0.29098669 2.036205716 0.70400006 1.425822869e-38
0.29232764 2.036205716 0.70400006 1.407313398e-38
0.2936686 2.036205716 0.70400006 1.388874272e-38
0.29542857 2.036257144 0.70500004 1.379690442e-38
0.29677144 2.036257144 0.70500004 1.361500747e-38
0.29896003 2.036359999 0.70700002 1.361642278e-38
0.30030668 2.036359999 0.70700002 1.361786052e-38
0.30207998 2.036411427 0.708 1.361391866e-38
0.30342856 2.036411427 0.708 1.361285928e-38
0.3056381 2.03651429 0.71000004 1.370435426e-38
0.3069905 2.03651429 0.71000004 1.379581561e-38
0.30834287 2.03651429 0.71000004 1.342845821e-38
0.31013143 2.036565714 0.71100003 1.315329925e-38
0.31148571 2.036565714 0.71100003 1.297033591e-38
0.31372002 2.036668573 0.71300006 1.278738098e-38
0.31507811 2.036668573 0.71300006 1.269482802e-38
0.31688002 2.036720004 0.71400005 1.260227786e-38
0.31913143 2.036822859 0.71600002 1.278451673e-38
0.32094285 2.036874287 0.71700001 1.296675699e-38
0.32230857 2.036874287 0.71700001 1.241610695e-38
0.32457718 2.036977146 0.71900004 1.186545551e-38
0.32640001 2.037028573 0.72000003 1.1497759e-38
0.32868192 2.037131432 0.72200006 1.113005688e-38
0.33005717 2.037131432 0.72200006 1.113005548e-38
0.3314324 2.037131432 0.72200006 1.113005127e-38
0.33326861 2.03718286 0.72300005 1.122152523e-38
0.33557144 2.037285715 0.72500002 1.1311923e-38
0.33695239 2.037285715 0.72500002 1.112968553e-38
0.33879998 2.037337143 0.72600001 1.085453638e-38
0.34112003 2.037440002 0.72800004 1.067050525e-38
0.34297714 2.03749143 0.72900003 1.057830822e-38
0.34436572 2.03749143 0.72900003 1.030172273e-38
0.34717718 2.037645716 0.73200005 1.002657498e-38
0.34952381 2.037748571 0.73400003 9.841827786e-39
0.35187814 2.03785143 0.73600006 9.747839896e-39
0.35328004 2.03785143 0.73600006 9.931510888e-39
0.35468191 2.03785143 0.73600006 1.011554342e-38
0.35656765 2.037902862 0.73700005 9.839682398e-39
0.35894287 2.038005717 0.73900002 9.471264216e-39
0.36083809 2.038057141 0.74000001 9.379430122e-39
0.36224762 2.038057141 0.74000001 9.195757728e-39
0.36464 2.03816 0.74200004 9.194681531e-39
0.36605334 2.03816 0.74200004 9.101775443e-39
0.36746669 2.03816 0.74200004 8.458575244e-39
0.37385142 2.038674287 0.75200003 7.815363834e-39
0.37428573 2.038571432 0.75000006 8.362426551e-39
0.37821907 2.038828574 0.75500005 8.909486465e-39
0.38016003 2.038880002 0.75600004 9.65349047e-39
0.38160002 2.038880002 0.75600004 1.039758976e-38
0.38304001 2.038880002 0.75600004 1.234667261e-38
0.38448 2.038880002 0.75600004 1.429857488e-38
0.38592002 2.038880002 0.75600004 1.549426922e-38
0.38736004 2.038880002 0.75600004 1.668992153e-38
0.38880002 2.038880002 0.75600004 1.659019112e-38
0.39024001 2.038880002 0.75600004 1.659090999e-38
0.39168003 2.038880002 0.75600004 1.659055406e-38
0.081798092 2.035786666 0.671 1.158962112e-38
0.083076194 2.035786666 0.671 1.140272294e-38
0.084228575 2.035733335 0.67000002 1.186190322e-38
0.085632384 2.035786666 0.671 1.232359603e-38
0.086910471 2.035786666 0.671 1.278493151e-38
0.088188574 2.035786666 0.671 1.324698025e-38
0.089466669 2.035786666 0.671 1.334132688e-38
0.090744756 2.035786666 0.671 1.35253524e-38
0.092160001 2.035840005 0.67200005 1.334203453e-38
0.093718104 2.035946671 0.67400002 1.315764047e-38
0.095001914 2.035946671 0.67400002 1.30650819e-38
0.096285716 2.035946671 0.67400002 1.297252474e-38
0.097714283 2.035999998 0.67500001 1.28803263e-38
0.099146679 2.036053337 0.67600006 1.278741601e-38
0.10088 2.036213335 0.67900002 1.260374642e-38
0.10217334 2.036213335 0.67900002 1.24197153e-38
0.10361905 2.03626667 0.68000001 1.241971389e-38
0.10522287 2.036373336 0.68200004 1.241970549e-38
0.10652191 2.036373336 0.68200004 1.241969848e-38
0.10782096 2.036373336 0.68200004 1.251297731e-38
0.10912 2.036373336 0.68200004 1.269880911e-38
0.11041906 2.036373336 0.68200004 1.288499123e-38
0.1117181 2.036373336 0.68200004 1.316193265e-38
0.11301715 2.036373336 0.68200004 1.343779927e-38
0.11448382 2.036426667 0.68300003 1.399024998e-38
0.11578476 2.036426667 0.68300003 1.463238379e-38
0.11725714 2.036480002 0.68400002 1.417285178e-38
0.11890668 2.036586672 0.68600005 1.380657198e-38
0.12038857 2.03664 0.68700004 1.362396317e-38
0.12169715 2.03664 0.68700004 1.353034522e-38
0.12300572 2.03664 0.68700004 1.306938669e-38
0.1243143 2.03664 0.68700004 1.270167757e-38
0.12562287 2.03664 0.68700004 1.242580394e-38
0.12693143 2.03664 0.68700004 1.224212734e-38
0.12824 2.03664 0.68700004 1.196661665e-38
0.12954856 2.03664 0.68700004 1.178042752e-38
0.13085715 2.03664 0.68700004 1.150276303e-38
0.13216572 2.03664 0.68700004 1.122689641e-38
0.13405715 2.036800001 0.69000006 1.122689641e-38
0.13537145 2.036800001 0.69000006 1.131874312e-38
0.13668573 2.036800001 0.69000006 1.095177108e-38
0.13800001 2.036800001 0.69000006 1.067015913e-38
0.13951619 2.036853336 0.69100004 1.057759916e-38
0.14083239 2.036853336 0.69100004 1.05779635e-38
0.14194286 2.036800001 0.69000006 1.020739993e-38
0.14325716 2.036800001 0.69000006 9.838613208e-39
0.14478095 2.036853336 0.69100004 9.739593254e-39
0.14588572 2.036800001 0.69000006 9.65098635e-39
0.1472 2.036800001 0.69000006 9.195396193e-39
0.1485143 2.036800001 0.69000006 8.824466884e-39
0.14961143 2.036746666 0.68900001 9.280415773e-39
0.1509238 2.036746666 0.68900001 9.84147606e-39
0.15223619 2.036746666 0.68900001 1.039249184e-38
0.15354857 2.036746666 0.68900001 1.103354665e-38
0.15486096 2.036746666 0.68900001 1.094027763e-38
0.15617335 2.036746666 0.68900001 1.094386635e-38
0.15748571 2.036746666 0.68900001 1.103749831e-38
0.1587981 2.036746666 0.68900001 1.122188116e-38
0.16011047 2.036746666 0.68900001 1.113111626e-38
0.16142286 2.036746666 0.68900001 1.113004987e-38
0.16273524 2.036746666 0.68900001 1.057797051e-38
0.16404761 2.036746666 0.68900001 1.002623726e-38
0.16536 2.036746666 0.68900001 9.658535145e-39
0.16618858 2.03664 0.68700004 9.290845638e-39
0.16749714 2.03664 0.68700004 1.002554222e-38
0.16880572 2.03664 0.68700004 1.075986605e-38
0.17011429 2.03664 0.68700004 1.112720804e-38
0.17142285 2.03664 0.68700004 1.149669121e-38
0.17273144 2.03664 0.68700004 1.12265559e-38
0.17378667 2.036586672 0.68600005 1.104289051e-38
0.17458287 2.036480002 0.68400002 1.15020736e-38
0.17588572 2.036480002 0.68400002 1.205201598e-38
0.17718858 2.036480002 0.68400002 1.223425765e-38
0.17849143 2.036480002 0.68400002 1.251335707e-38
0.17979428 2.036480002 0.68400002 1.288034732e-38
0.18109715 2.036480002 0.68400002 1.325055777e-38
0.1824 2.036480002 0.68400002 1.352462792e-38
0.18370286 2.036480002 0.68400002 1.38941195e-38
0.18500572 2.036480002 0.68400002 1.389483556e-38
0.18630858 2.036480002 0.68400002 1.389769982e-38
0.18761143 2.036480002 0.68400002 1.380586012e-38
0.18946669 2.036586672 0.68600005 1.371295683e-38
0.19077334 2.036586672 0.68600005 1.371188904e-38
0.19208002 2.036586672 0.68600005 1.371188764e-38
0.19338667 2.036586672 0.68600005 1.334490299e-38
0.19497715 2.03664 0.68700004 1.297719667e-38
0.19628572 2.03664 0.68700004 1.306866642e-38
0.1975943 2.03664 0.68700004 1.325306049e-38
0.19890286 2.03664 0.68700004 1.325449962e-38
0.20021144 2.03664 0.68700004 1.334596938e-38
0.20152001 2.03664 0.68700004 1.343779647e-38
0.20282859 2.03664 0.68700004 1.362146465e-38
0.20413715 2.03664 0.68700004 1.389660961e-38
0.20544572 2.03664 0.68700004 1.426324254e-38
0.2067543 2.03664 0.68700004 1.398810459e-38
0.20806287 2.03664 0.68700004 1.371296384e-38
0.20937143 2.03664 0.68700004 1.380480634e-38
0.21129334 2.036746666 0.68900001 1.389699216e-38
0.21260571 2.036746666 0.68900001 1.408137221e-38
0.21329714 2.03664 0.68700004 1.43558039e-38
0.21460572 2.03664 0.68700004 1.417105812e-38
0.21654287 2.036746666 0.68900001 1.407994289e-38
0.21817145 2.036800001 0.69000006 1.408102329e-38
0.21948573 2.036800001 0.69000006 1.408102189e-38
0.22112 2.036853336 0.69100004 1.408102049e-38
0.2224362 2.036853336 0.69100004 1.417286159e-38
0.22440001 2.036960002 0.69300002 1.408139183e-38
0.22572 2.036960002 0.69300002 1.398954933e-38
0.22704001 2.036960002 0.69300002 1.380658879e-38
0.22770096 2.036853336 0.69100004 1.362255767e-38
0.22968 2.036960002 0.69300002 1.389806416e-38
0.23166668 2.037066668 0.69500005 1.417285038e-38
0.23265523 2.03701333 0.69400001 1.398881785e-38
0.23397714 2.03701333 0.69400001 1.389734249e-38
0.23529904 2.03701333 0.69400001 1.389805995e-38
0.23662095 2.03701333 0.69400001 1.38962761e-38
0.23794284 2.03701333 0.69400001 1.380409168e-38
0.23926476 2.03701333 0.69400001 1.371152891e-38
0.24058667 2.03701333 0.69400001 1.371116177e-38
0.24156 2.036960002 0.69300002 1.371079883e-38
0.24323048 2.03701333 0.69400001 1.371079463e-38
0.24455237 2.03701333 0.69400001 1.380299166e-38
0.24552001 2.036960002 0.69300002 1.361860601e-38
0.24612764 2.036853336 0.69100004 1.35256831e-38
0.24744381 2.036853336 0.69100004 1.297430018e-38
0.24876003 2.036853336 0.69100004 1.251513531e-38
0.2500762 2.036853336 0.69100004 1.315835513e-38
0.25139239 2.036853336 0.69100004 1.389374956e-38
0.25270858 2.036853336 0.69100004 1.407848974e-38
0.25402477 2.036853336 0.69100004 1.426253768e-38
0.25534099 2.036853336 0.69100004 1.426076224e-38
0.25665715 2.036853336 0.69100004 1.435438159e-38
0.25797334 2.036853336 0.69100004 1.426289501e-38
0.25928956 2.036853336 0.69100004 1.426181461e-38
0.26136002 2.036960002 0.69300002 1.416925745e-38
0.26305905 2.03701333 0.69400001 1.407850516e-38
0.26476192 2.037066668 0.69500005 1.389448244e-38
0.26608571 2.037066668 0.69500005 1.380156093e-38
0.26817906 2.037173335 0.69700003 1.370899957e-38
0.26950669 2.037173335 0.69700003 1.370864083e-38
0.27122286 2.037226666 0.69800001 1.38001176e-38
0.27255237 2.037226666 0.69800001 1.389195449e-38
0.27388191 2.037226666 0.69800001 1.380083786e-38
0.27521145 2.037226666 0.69800001 1.38001246e-38
0.27654096 2.037226666 0.69800001 1.398308234e-38
0.27866668 2.037333336 0.70000005 1.416710365e-38
0.28000003 2.037333336 0.70000005 1.407561988e-38
0.28133336 2.037333336 0.70000005 1.398415433e-38
0.2830705 2.037386667 0.70100003 1.416819526e-38
0.28440571 2.037386667 0.70100003 1.444369054e-38
0.28574097 2.037386667 0.70100003 1.416601905e-38
0.28789523 2.037493333 0.70300001 1.389123002e-38
0.28964573 2.037546668 0.70400006 1.380047213e-38
0.29098669 2.037546668 0.70400006 1.379940574e-38
0.29232764 2.037546668 0.70400006 1.379833935e-38
0.2936686 2.037546668 0.70400006 1.379798062e-38
0.29626667 2.037706669 0.70700002 1.379762188e-38
0.29761335 2.037706669 0.70700002 1.379760507e-38
0.29896003 2.037706669 0.70700002 1.361714585e-38
0.30073142 2.037759997 0.708 1.352495022e-38
0.30207998 2.037759997 0.708 1.352459009e-38
0.30428573 2.037866667 0.71000004 1.352101257e-38
0.3056381 2.037866667 0.71000004 1.351994759e-38
0.3069905 2.037866667 0.71000004 1.352029511e-38
0.30834287 2.037866667 0.71000004 1.333697164e-38
0.31013143 2.037920002 0.71100003 1.315329644e-38
0.31148571 2.037920002 0.71100003 1.287778435e-38
0.31284001 2.037920002 0.71100003 1.269303716e-38
0.31507811 2.038026668 0.71300006 1.26004842e-38
0.31688002 2.038079999 0.71400005 1.259976814e-38
0.31913143 2.038186666 0.71600002 1.296639546e-38
0.32049525 2.038186666 0.71600002 1.333301998e-38
0.32230857 2.038240001 0.71700001 1.241430628e-38
0.32457718 2.038346671 0.71900004 1.158886722e-38
0.32640001 2.038399998 0.72000003 1.113077154e-38
0.32777143 2.038399998 0.72000003 1.076199603e-38
0.33005717 2.038506668 0.72200006 1.076127996e-38
0.3314324 2.038506668 0.72200006 1.085346999e-38
0.33326861 2.038560003 0.72300005 1.094602015e-38
0.33557144 2.038666669 0.72500002 1.103677805e-38
0.33741713 2.038720001 0.72600001 1.076198762e-38
0.33973336 2.038826667 0.72800004 1.04861238e-38
0.34158859 2.038880002 0.72900003 1.030209548e-38
0.34391811 2.038986668 0.73100001 1.020989424e-38
0.34531045 2.038986668 0.73100001 9.934380747e-39
0.34812573 2.039146665 0.73400003 9.658872857e-39
0.34952381 2.039146665 0.73400003 9.658872857e-39
0.35187814 2.039253335 0.73600006 9.655288336e-39
0.35376003 2.03930667 0.73700005 1.002155693e-38
0.35516384 2.03930667 0.73700005 1.048145327e-38
0.35753524 2.039413337 0.73900002 9.931517895e-39
0.35942855 2.039466668 0.74000001 9.470543949e-39
0.36181334 2.039573334 0.74200004 9.286512823e-39
0.36322668 2.039573334 0.74200004 9.194675926e-39
0.36464 2.039573334 0.74200004 9.102840429e-39
0.36605334 2.039573334 0.74200004 9.098179711e-39
0.36796191 2.039626669 0.74300003 7.808899644e-39
0.37434858 2.04016 0.75300002 6.613645304e-39
0.37578288 2.04016 0.75300002 8.17381458e-39
0.37872005 2.040320002 0.75600004 9.846950933e-39
0.38116571 2.040426668 0.75800002 1.253027915e-38
0.38260955 2.040426668 0.75800002 1.529579632e-38
0.38506669 2.040533334 0.76000005 1.61331282e-38
0.38651431 2.040533334 0.76000005 1.705078251e-38
0.38592002 2.040320002 0.75600004 1.686641087e-38
0.38736004 2.040320002 0.75600004 1.668309721e-38
0.38880002 2.040320002 0.75600004 1.659162045e-38
0.39024001 2.040320002 0.75600004 1.649942902e-38
0.081676193 2.037009522 0.67000002 1.122226372e-38
0.083076194 2.037064761 0.671 1.066910115e-38
0.084228575 2.037009522 0.67000002 1.131087763e-38
0.085632384 2.037064761 0.671 1.195732043e-38
0.086910471 2.037064761 0.671 1.232574562e-38
0.088188574 2.037064761 0.671 1.278743283e-38
0.089466669 2.037064761 0.671 1.288034452e-38
0.090744756 2.037064761 0.671 1.306508891e-38
0.092160001 2.03712 0.67200005 1.288034032e-38
0.093718104 2.037230477 0.67400002 1.278778315e-38
0.095001914 2.037230477 0.67400002 1.269558612e-38
0.096285716 2.037230477 0.67400002 1.269558052e-38
0.097714283 2.037285715 0.67500001 1.260374082e-38
0.099146679 2.037340954 0.67600006 1.260373942e-38
0.10073143 2.037451431 0.67800003 1.241899082e-38
0.10217334 2.037506666 0.67900002 1.22338863e-38
0.10361905 2.037561905 0.68000001 1.214241094e-38
0.10491429 2.037561905 0.68000001 1.214312841e-38
0.10652191 2.037672386 0.68200004 1.205201178e-38
0.10782096 2.037672386 0.68200004 1.196089655e-38
0.10912 2.037672386 0.68200004 1.22392771e-38
0.11041906 2.037672386 0.68200004 1.260984487e-38
0.1117181 2.037672386 0.68200004 1.288606742e-38
0.11301715 2.037672386 0.68200004 1.325377515e-38
0.1143162 2.037672386 0.68200004 1.37126009e-38
0.11561524 2.037672386 0.68200004 1.417178539e-38
0.11725714 2.037782859 0.68400002 1.389736351e-38
0.11856001 2.037782859 0.68400002 1.371511063e-38
0.12021334 2.037893336 0.68600005 1.353106409e-38
0.12152001 2.037893336 0.68600005 1.343816921e-38
0.12282667 2.037893336 0.68600005 1.306905178e-38
0.12413334 2.037893336 0.68600005 1.270097832e-38
0.12544 2.037893336 0.68600005 1.251729471e-38
0.12674668 2.037893336 0.68600005 1.242616687e-38
0.12805334 2.037893336 0.68600005 1.233288664e-38
0.12936001 2.037893336 0.68600005 1.223996794e-38
0.13066667 2.037893336 0.68600005 1.186974909e-38
0.13216572 2.037948571 0.68700004 1.150420217e-38
0.13386285 2.038059048 0.68900001 1.159711526e-38
0.13537145 2.038114291 0.69000006 1.17822352e-38
0.13668573 2.038114291 0.69000006 1.187049738e-38
0.13800001 2.038114291 0.69000006 1.195873855e-38
0.13951619 2.038169526 0.69100004 1.214061027e-38
0.14083239 2.038169526 0.69100004 1.241468043e-38
0.14194286 2.038114291 0.69000006 1.186008013e-38
0.14325716 2.038114291 0.69000006 1.139730411e-38
0.14457144 2.038114291 0.69000006 1.139621671e-38
