# .PCD v0.7 - Point Cloud Data file format
VERSION 0.7
FIELDS x y z rgb
SIZE 4 4 4 4
TYPE F F F F
COUNT 1 1 1 1
WIDTH 960
HEIGHT 1
VIEWPOINT 0 0 0 1 0 0 0
POINTS 960
DATA ascii
2.18236953 -0.0099733332 0.74800003 1.490610642e-38
2.18379429 -0.0099733332 0.74800003 1.536672584e-38
2.18521905 -0.0099733332 0.74800003 1.527417989e-38
2.18664382 -0.0099733332 0.74800003 1.527345822e-38
2.18857144 -0.010000001 0.75000006 1.518197725e-38
2.19000001 -0.010000001 0.75000006 1.518233878e-38
2.19142859 -0.010000001 0.75000006 1.499831186e-38
2.19285716 -0.010000001 0.75000006 1.490647777e-38
2.19480382 -0.010026667 0.75200003 1.49068379e-38
2.19623619 -0.010026667 0.75200003 1.49068407e-38
2.19766857 -0.010026667 0.75200003 1.509087323e-38
2.19910097 -0.010026667 0.75200003 1.527525328e-38
2.2008 -0.01004 0.75300002 1.536708177e-38
2.2022343 -0.01004 0.75300002 1.536742789e-38
2.20420954 -0.010066668 0.75500005 1.573583346e-38
2.20564763 -0.010066668 0.75500005 1.619607032e-38
2.20708573 -0.010066668 0.75500005 1.481350021e-38
2.2088 -0.01008 0.75600004 1.352316637e-38
2.21024001 -0.01008 0.75600004 1.389089371e-38
2.21140002 -0.010066668 0.75500005 1.416819667e-38
2.2128381 -0.010066668 0.75500005 1.444478355e-38
2.21456 -0.01008 0.75600004 1.472172778e-38
2.21600002 -0.01008 0.75600004 1.508871383e-38
2.21744001 -0.01008 0.75600004 1.536421752e-38
2.21888 -0.01008 0.75600004 1.564008134e-38
2.22090286 -0.010106667 0.75800002 1.600777925e-38
2.22234666 -0.010106667 0.75800002 1.600813518e-38
2.22379048 -0.010106667 0.75800002 1.600850652e-38
2.22523428 -0.010106667 0.75800002 1.582449081e-38
2.2266781 -0.010106667 0.75800002 1.564081421e-38
2.22872382 -0.010133334 0.76000005 1.545606282e-38
2.23017144 -0.010133334 0.76000005 1.527131843e-38
2.23161906 -0.010133334 0.76000005 1.508836911e-38
2.23306668 -0.010133334 0.76000005 1.499758879e-38
2.2345143 -0.010133334 0.76000005 1.499864397e-38
2.23596191 -0.010133334 0.76000005 1.499937405e-38
2.23678477 -0.010106667 0.75800002 1.490719243e-38
2.23822857 -0.010106667 0.75800002 1.490826022e-38
2.23967238 -0.010106667 0.75800002 1.463238659e-38
2.2411162 -0.010106667 0.75800002 1.435688571e-38
2.24256 -0.010106667 0.75800002 1.453948611e-38
2.24400382 -0.010106667 0.75800002 1.472244384e-38
2.24544762 -0.010106667 0.75800002 1.472352424e-38
2.24689142 -0.010106667 0.75800002 1.472352985e-38
2.24833524 -0.010106667 0.75800002 1.51834304e-38
2.24977905 -0.010106667 0.75800002 1.555222132e-38
2.25122285 -0.010106667 0.75800002 1.527672885e-38
2.25266668 -0.010106667 0.75800002 1.509340257e-38
2.25478098 -0.010133334 0.76000005 1.527705955e-38
2.25622857 -0.010133334 0.76000005 1.546108648e-38
2.25767621 -0.010133334 0.76000005 1.555292057e-38
2.25912383 -0.010133334 0.76000005 1.573659156e-38
2.26057142 -0.010133334 0.76000005 1.573659296e-38
2.26201907 -0.010133334 0.76000005 1.573696291e-38
2.26346669 -0.010133334 0.76000005 1.555366186e-38
2.26491427 -0.010133334 0.76000005 1.546217248e-38
2.26636192 -0.010133334 0.76000005 1.564583226e-38
2.26780954 -0.010133334 0.76000005 1.592169468e-38
2.26925716 -0.010133334 0.76000005 1.61975571e-38
2.27106097 -0.010146667 0.76100004 1.656525361e-38
2.2725105 -0.010146667 0.76100004 1.638086235e-38
2.27396002 -0.010146667 0.76100004 1.61964767e-38
2.27540955 -0.010146667 0.76100004 1.610500274e-38
2.27685907 -0.010146667 0.76100004 1.601350916e-38
2.27830857 -0.010146667 0.76100004 1.592129812e-38
2.2797581 -0.010146667 0.76100004 1.582804731e-38
2.28120762 -0.010146667 0.76100004 1.610357482e-38
2.28265715 -0.010146667 0.76100004 1.637909392e-38
2.28485334 -0.010173334 0.76300001 1.61950768e-38
2.28705713 -0.010200001 0.76500005 1.601138899e-38
2.28926855 -0.010226667 0.76700002 1.564331273e-38
2.29110858 -0.01024 0.76800001 1.536742509e-38
2.29409525 -0.010293334 0.77200001 1.509225631e-38
2.29556569 -0.010293334 0.77200001 1.481749531e-38
2.29742098 -0.010306667 0.77300006 1.518486673e-38
2.29966667 -0.010333333 0.77500004 1.555257305e-38
2.30192 -0.01036 0.77700001 1.537034399e-38
2.30340001 -0.01036 0.77700001 1.527957629e-38
2.30566478 -0.010386666 0.77900004 1.500262646e-38
2.30754286 -0.0104 0.78000003 1.472710596e-38
2.30982095 -0.010426668 0.78200006 1.481892884e-38
2.3113105 -0.010426668 0.78200006 1.491077695e-38
2.31360003 -0.010453334 0.78400004 1.500262646e-38
2.31509334 -0.010453334 0.78400004 1.500262646e-38
2.31739429 -0.01048 0.78600001 1.48193142e-38
2.31970286 -0.010506667 0.78800005 1.463599774e-38
2.32120383 -0.010506667 0.78800005 1.463527607e-38
2.32270479 -0.010506667 0.78800005 1.47263997e-38
2.32461715 -0.01052 0.78900003 1.454381192e-38
2.32612002 -0.01052 0.78900003 1.436050806e-38
2.32845333 -0.010546667 0.79100001 1.454418746e-38
2.32996002 -0.010546667 0.79100001 1.463600755e-38
2.33314288 -0.0106 0.79500002 1.445232114e-38
2.33465716 -0.0106 0.79500002 1.436120031e-38
2.33701715 -0.010626667 0.79700005 1.445052327e-38
2.33896002 -0.010640001 0.79800004 1.45427175e-38
2.34048003 -0.010640001 0.79800004 1.399134579e-38
2.16035239 -0.008514286 0.74500006 8.097313493e-39
2.16177145 -0.008514286 0.74500006 8.928859416e-39
2.1631905 -0.008514286 0.74500006 9.753949557e-39
2.16505145 -0.0085371435 0.74700004 9.936549957e-39
2.16647428 -0.0085371435 0.74700004 1.021026699e-38
2.16789715 -0.0085371435 0.74700004 1.048542035e-38
2.16886668 -0.008514286 0.74500006 1.085490912e-38
2.17028573 -0.008514286 0.74500006 1.05779635e-38
2.17216572 -0.0085371435 0.74700004 1.039609318e-38
2.17358857 -0.0085371435 0.74700004 1.076559456e-38
2.17501144 -0.0085371435 0.74700004 1.122513778e-38
2.17643429 -0.0085371435 0.74700004 1.186835059e-38
2.17785716 -0.0085371435 0.74700004 1.251515073e-38
2.17928 -0.0085371435 0.74700004 1.334562185e-38
2.18070287 -0.0085371435 0.74700004 1.426075523e-38
2.18236953 -0.0085485708 0.74800003 1.425968464e-38
2.18379429 -0.0085485708 0.74800003 1.435294806e-38
2.18521905 -0.0085485708 0.74800003 1.46302426e-38
2.18664382 -0.0085485708 0.74800003 1.499793912e-38
2.18857144 -0.0085714292 0.75000006 1.499972998e-38
2.19000001 -0.0085714292 0.75000006 1.509120954e-38
2.19142859 -0.0085714292 0.75000006 1.490718262e-38
2.19285716 -0.0085714292 0.75000006 1.481535133e-38
2.19428572 -0.0085714292 0.75000006 1.481535693e-38
2.19623619 -0.0085942857 0.75200003 1.481535833e-38
2.19766857 -0.0085942857 0.75200003 1.499939086e-38
2.19910097 -0.0085942857 0.75200003 1.518341638e-38
2.20053335 -0.0085942857 0.75200003 1.518341358e-38
2.2022343 -0.0086057149 0.75300002 1.518340798e-38
2.20366858 -0.0086057149 0.75300002 1.573441675e-38
2.20564763 -0.0086285714 0.75500005 1.628613178e-38
2.20708573 -0.0086285714 0.75500005 1.564398675e-38
2.20852382 -0.0086285714 0.75500005 1.49968447e-38
2.20996192 -0.0086285714 0.75500005 1.462521054e-38
2.21140002 -0.0086285714 0.75500005 1.42550071e-38
2.2128381 -0.0086285714 0.75500005 1.425250439e-38
2.21456 -0.0086400006 0.75600004 1.426183143e-38
2.21571429 -0.0086285714 0.75500005 1.462809862e-38
2.21744001 -0.0086400006 0.75600004 1.508871663e-38
2.21888 -0.0086400006 0.75600004 1.536530632e-38
2.22032002 -0.0086400006 0.75600004 1.56418792e-38
2.22234666 -0.008662858 0.75800002 1.582661798e-38
2.22379048 -0.008662858 0.75800002 1.601029598e-38
2.22523428 -0.008662858 0.75800002 1.582698933e-38
2.2266781 -0.008662858 0.75800002 1.564116454e-38
2.22812191 -0.008662858 0.75800002 1.545641735e-38
2.22956572 -0.008662858 0.75800002 1.536386159e-38
2.23100951 -0.008662858 0.75800002 1.517947173e-38
2.23245333 -0.008662858 0.75800002 1.499830345e-38
2.23389715 -0.008662858 0.75800002 1.499937124e-38
2.23534095 -0.008662858 0.75800002 1.509121375e-38
2.23678477 -0.008662858 0.75800002 1.509086202e-38
2.23822857 -0.008662858 0.75800002 1.518340798e-38
2.23967238 -0.008662858 0.75800002 1.518340097e-38
2.24048001 -0.0086400006 0.75600004 1.518376531e-38
2.24192002 -0.0086400006 0.75600004 1.499830626e-38
2.24400382 -0.008662858 0.75800002 1.490683089e-38
2.24544762 -0.008662858 0.75800002 1.499938666e-38
2.24689142 -0.008662858 0.75800002 1.509158789e-38
2.24833524 -0.008662858 0.75800002 1.555148985e-38
2.24977905 -0.008662858 0.75800002 1.610286996e-38
2.25122285 -0.008662858 0.75800002 1.573661398e-38
2.25266668 -0.008662858 0.75800002 1.536961672e-38
2.25478098 -0.0086857146 0.76000005 1.546323327e-38
2.25622857 -0.0086857146 0.76000005 1.555363523e-38
2.25767621 -0.0086857146 0.76000005 1.564475607e-38
2.25912383 -0.0086857146 0.76000005 1.582842706e-38
2.26057142 -0.0086857146 0.76000005 1.57369503e-38
2.26201907 -0.0086857146 0.76000005 1.57369559e-38
2.26346669 -0.0086857146 0.76000005 1.555329192e-38
2.26491427 -0.0086857146 0.76000005 1.537068731e-38
2.26636192 -0.0086857146 0.76000005 1.564618539e-38
2.26780954 -0.0086857146 0.76000005 1.592169608e-38
2.26925716 -0.0086857146 0.76000005 1.610501395e-38
2.27106097 -0.0086971428 0.76100004 1.63812309e-38
2.2725105 -0.0086971428 0.76100004 1.628938979e-38
2.27396002 -0.0086971428 0.76100004 1.619648931e-38
2.27540955 -0.0086971428 0.76100004 1.610466503e-38
2.27685907 -0.0086971428 0.76100004 1.601281412e-38
2.27830857 -0.0086971428 0.76100004 1.601315743e-38
2.2797581 -0.0086971428 0.76100004 1.601173231e-38
2.28120762 -0.0086971428 0.76100004 1.610321889e-38
2.28265715 -0.0086971428 0.76100004 1.628689688e-38
2.28485334 -0.0087200003 0.76300001 1.61032343e-38
2.28705713 -0.0087428577 0.76500005 1.601174212e-38
2.28851432 -0.0087428577 0.76500005 1.564582105e-38
2.29110858 -0.0087771425 0.76800001 1.527775039e-38
2.29333335 -0.0088000009 0.77000004 1.518518762e-38
2.29556569 -0.0088228574 0.77200001 1.509265288e-38
2.29742098 -0.0088342866 0.77300006 1.546144801e-38
2.29889333 -0.0088342866 0.77300006 1.582808374e-38
2.30114287 -0.0088571431 0.77500004 1.555402199e-38
2.30340001 -0.0088800006 0.77700001 1.527814696e-38
2.30487999 -0.0088800006 0.77700001 1.500263207e-38
2.30714858 -0.008902858 0.77900004 1.481859393e-38
2.30902857 -0.0089142863 0.78000003 1.491185595e-38
2.3113105 -0.0089371437 0.78200006 1.500333692e-38
2.31280002 -0.0089371437 0.78200006 1.509481929e-38
2.31428954 -0.0089371437 0.78200006 1.527848888e-38
2.31658667 -0.0089600012 0.78400004 1.500333972e-38
2.31889144 -0.0089828568 0.78600001 1.481930719e-38
2.32120383 -0.0090057142 0.78800005 1.472603537e-38
2.32270479 -0.0090057142 0.78800005 1.463492294e-38
2.32461715 -0.0090171434 0.78900003 1.436014092e-38
2.32612002 -0.0090171434 0.78900003 1.417647133e-38
2.32762289 -0.0090171434 0.78900003 1.426866836e-38
2.32996002 -0.0090400008 0.79100001 1.445233235e-38
2.33230478 -0.0090628574 0.79300004 1.436048985e-38
2.33465716 -0.0090857139 0.79500002 1.436013111e-38
2.33617145 -0.0090857139 0.79500002 1.463384394e-38
2.33853528 -0.0091085723 0.79700005 1.490934763e-38
2.34005335 -0.0091085723 0.79700005 1.435976818e-38
2.34200001 -0.0091200005 0.79800004 1.389842709e-38
2.34524193 -0.0091657145 0.80200005 1.371223376e-38
2.34676954 -0.0091657145 0.80200005 1.362078643e-38
2.34829718 -0.0091657145 0.80200005 1.33456695e-38
2.34982476 -0.0091657145 0.80200005 1.306874069e-38
2.1631905 -0.0070952387 0.74500006 9.759324938e-39
2.16505145 -0.0071142861 0.74700004 9.939414211e-39
2.16647428 -0.0071142861 0.74700004 1.011950068e-38
2.16744764 -0.0070952387 0.74500006 1.021277391e-38
2.16886668 -0.0070952387 0.74500006 1.039822876e-38
2.17028573 -0.0070952387 0.74500006 1.030387373e-38
2.17170477 -0.0070952387 0.74500006 1.011662802e-38
2.17358857 -0.0071142861 0.74700004 1.030533528e-38
2.17501144 -0.0071142861 0.74700004 1.048901468e-38
2.17643429 -0.0071142861 0.74700004 1.076309605e-38
2.17785716 -0.0071142861 0.74700004 1.103753194e-38
2.17952 -0.0071238098 0.74800003 1.159249798e-38
2.18070287 -0.0071142861 0.74700004 1.214746963e-38
2.18236953 -0.0071238098 0.74800003 1.251267323e-38
2.18379429 -0.0071238098 0.74800003 1.287820054e-38
2.18521905 -0.0071238098 0.74800003 1.334130445e-38
2.18664382 -0.0071238098 0.74800003 1.389626069e-38
2.18857144 -0.0071428576 0.75000006 1.398701718e-38
2.18949333 -0.0071238098 0.74800003 1.416997351e-38
2.19142859 -0.0071428576 0.75000006 1.435436477e-38
2.19285716 -0.0071428576 0.75000006 1.453876164e-38
2.19428572 -0.0071428576 0.75000006 1.463096427e-38
2.19571429 -0.0071428576 0.75000006 1.472351863e-38
2.19766857 -0.0071619051 0.75200003 1.472387877e-38
2.19910097 -0.0071619051 0.75200003 1.481643173e-38
2.20053335 -0.0071619051 0.75200003 1.48160744e-38
2.2022343 -0.0071714288 0.75300002 1.49079127e-38
2.20366858 -0.0071714288 0.75300002 1.536709438e-38
2.20510286 -0.0071714288 0.75300002 1.591809335e-38
2.20653716 -0.0071714288 0.75300002 1.545961932e-38
2.20797144 -0.0071714288 0.75300002 1.509299199e-38
2.20996192 -0.0071904766 0.75500005 1.472062635e-38
2.21140002 -0.0071904766 0.75500005 1.443616417e-38
2.2128381 -0.0071904766 0.75500005 1.425501832e-38
2.21427621 -0.0071904766 0.75500005 1.416927847e-38
2.21571429 -0.0071904766 0.75500005 1.444514229e-38
2.21715239 -0.0071904766 0.75500005 1.472138025e-38
2.21888 -0.0072000003 0.75600004 1.499654342e-38
2.22032002 -0.0072000003 0.75600004 1.518486252e-38
2.22176 -0.0072000003 0.75600004 1.545999627e-38
2.22320001 -0.0072000003 0.75600004 1.573550135e-38
2.22464001 -0.0072000003 0.75600004 1.564330712e-38
2.22608002 -0.0072000003 0.75600004 1.5641875e-38
2.22812191 -0.0072190473 0.75800002 1.573299583e-38
2.22956572 -0.0072190473 0.75800002 1.582410686e-38
2.23100951 -0.0072190473 0.75800002 1.536563983e-38
2.23245333 -0.0072190473 0.75800002 1.499901952e-38
2.23328002 -0.0072000003 0.75600004 1.509121795e-38
2.23534095 -0.0072190473 0.75800002 1.518341218e-38
2.23678477 -0.0072190473 0.75800002 1.527524908e-38
2.23760001 -0.0072000003 0.75600004 1.536707897e-38
2.23904002 -0.0072000003 0.75600004 1.53674335e-38
2.24048001 -0.0072000003 0.75600004 1.536779643e-38
2.24192002 -0.0072000003 0.75600004 1.527596654e-38
2.24336001 -0.0072000003 0.75600004 1.518413105e-38
2.2448 -0.0072000003 0.75600004 1.518449118e-38
2.24624 -0.0072000003 0.75600004 1.509338156e-38
2.24833524 -0.0072190473 0.75800002 1.536853772e-38
2.24977905 -0.0072190473 0.75800002 1.573552377e-38
2.25122285 -0.0072190473 0.75800002 1.555293318e-38
2.25266668 -0.0072190473 0.75800002 1.537068451e-38
2.25478098 -0.0072380956 0.76000005 1.546250739e-38
2.25555429 -0.0072190473 0.75800002 1.564618539e-38
2.25767621 -0.0072380956 0.76000005 1.573766916e-38
2.25912383 -0.0072380956 0.76000005 1.582914452e-38
2.26057142 -0.0072380956 0.76000005 1.582950186e-38
2.26132953 -0.0072190473 0.75800002 1.592205622e-38
2.26346669 -0.0072380956 0.76000005 1.573838803e-38
2.26491427 -0.0072380956 0.76000005 1.564654553e-38
2.26636192 -0.0072380956 0.76000005 1.582985078e-38
2.26780954 -0.0072380956 0.76000005 1.601353438e-38
2.26961145 -0.0072476193 0.76100004 1.628869615e-38
2.27070478 -0.0072380956 0.76000005 1.665674579e-38
2.2725105 -0.0072476193 0.76100004 1.647234753e-38
2.27396002 -0.0072476193 0.76100004 1.628833742e-38
2.27540955 -0.0072476193 0.76100004 1.628799831e-38
2.27685907 -0.0072476193 0.76100004 1.637981979e-38
2.27830857 -0.0072476193 0.76100004 1.610394196e-38
2.2797581 -0.0072476193 0.76100004 1.592026956e-38
2.28120762 -0.0072476193 0.76100004 1.610322169e-38
2.28265715 -0.0072476193 0.76100004 1.628689548e-38
2.28485334 -0.0072666667 0.76300001 1.610358603e-38
2.28705713 -0.0072857146 0.76500005 1.601245538e-38
2.28926855 -0.007304762 0.76700002 1.564474205e-38
2.29110858 -0.0073142857 0.76800001 1.536923557e-38
2.29333335 -0.0073333336 0.77000004 1.518484851e-38
2.29556569 -0.007352381 0.77200001 1.500082719e-38
2.29742098 -0.0073619052 0.77300006 1.518486533e-38
2.29889333 -0.0073619052 0.77300006 1.546074456e-38
2.30114287 -0.0073809526 0.77500004 1.527816518e-38
2.30340001 -0.0074 0.77700001 1.518631847e-38
2.30566478 -0.0074190479 0.77900004 1.481860795e-38
2.30714858 -0.0074190479 0.77900004 1.454273852e-38
2.30902857 -0.0074285716 0.78000003 1.463564741e-38
2.3105143 -0.0074285716 0.78000003 1.482003307e-38
2.31200001 -0.0074285716 0.78000003 1.491150703e-38
2.31428954 -0.0074476195 0.78200006 1.500333832e-38
2.31577906 -0.0074476195 0.78200006 1.481966453e-38
2.31726858 -0.0074476195 0.78200006 1.47274703e-38
2.31957334 -0.0074666669 0.78400004 1.46356348e-38
2.32106668 -0.0074666669 0.78400004 1.454416364e-38
2.32420573 -0.0075047626 0.78800005 1.408571063e-38
2.32570669 -0.0075047626 0.78800005 1.362760514e-38
2.32762289 -0.0075142859 0.78900003 1.426865575e-38
2.3291257 -0.0075142859 0.78900003 1.481895267e-38
2.33146667 -0.0075333333 0.79100001 1.463492574e-38
2.33381525 -0.0075523811 0.79300004 1.445125615e-38
2.33617145 -0.0075714285 0.79500002 1.454201685e-38
2.33853528 -0.0075904764 0.79700005 1.463348941e-38
2.34048003 -0.0076000006 0.79800004 1.435797872e-38
2.3437143 -0.0076380954 0.80200005 1.408246803e-38
2.34524193 -0.0076380954 0.80200005 1.38984355e-38
2.34676954 -0.0076380954 0.80200005 1.380623987e-38
2.34829718 -0.0076380954 0.80200005 1.353001452e-38
2.34982476 -0.0076380954 0.80200005 1.334490439e-38
2.35135239 -0.0076380954 0.80200005 1.297827567e-38
2.35376 -0.0076571428 0.80400002 1.261171e-38
2.35529143 -0.0076571428 0.80400002 1.289409126e-38
2.16505145 -0.0056914287 0.74700004 9.945508458e-39
2.16647428 -0.0056914287 0.74700004 1.003662789e-38
2.16789715 -0.0056914287 0.74700004 1.003591183e-38
2.16932 -0.0056914287 0.74700004 1.003303636e-38
2.17028573 -0.0056761908 0.74500006 9.938325402e-39
2.17216572 -0.0056914287 0.74700004 9.937620549e-39
2.17358857 -0.0056914287 0.74700004 9.845438932e-39
2.17524572 -0.0056990478 0.74800003 9.752888774e-39
2.17643429 -0.0056914287 0.74700004 9.660338616e-39
2.17785716 -0.0056914287 0.74700004 9.568507323e-39
2.17952 -0.0056990478 0.74800003 9.750390259e-39
2.18094477 -0.0056990478 0.74800003 1.002841908e-38
2.18236953 -0.0056990478 0.74800003 1.067378849e-38
2.18379429 -0.0056990478 0.74800003 1.140738786e-38
2.18521905 -0.0056990478 0.74800003 1.204950906e-38
2.18664382 -0.0056990478 0.74800003 1.278526782e-38
2.18806857 -0.0056990478 0.74800003 1.306184771e-38
2.18949333 -0.0056990478 0.74800003 1.333771433e-38
2.1909181 -0.0056990478 0.74800003 1.379725054e-38
2.19285716 -0.0057142861 0.75000006 1.426073842e-38
2.19428572 -0.0057142861 0.75000006 1.444656741e-38
2.19571429 -0.0057142861 0.75000006 1.472279697e-38
2.19714287 -0.0057142861 0.75000006 1.454020778e-38
2.19910097 -0.005729524 0.75200003 1.444801355e-38
2.20053335 -0.005729524 0.75200003 1.453984904e-38
2.20196572 -0.005729524 0.75200003 1.472388017e-38
2.20366858 -0.0057371431 0.75300002 1.509158369e-38
2.20510286 -0.0057371431 0.75300002 1.555075276e-38
2.20653716 -0.0057371431 0.75300002 1.536743209e-38
2.20797144 -0.0057371431 0.75300002 1.527523086e-38
2.20996192 -0.0057523814 0.75500005 1.490788327e-38
2.21140002 -0.0057523814 0.75500005 1.462843773e-38
2.2128381 -0.0057523814 0.75500005 1.434935093e-38
2.21427621 -0.0057523814 0.75500005 1.416925885e-38
2.21571429 -0.0057523814 0.75500005 1.426216213e-38
2.21715239 -0.0057523814 0.75500005 1.444513668e-38
2.21888 -0.0057600001 0.75600004 1.462811263e-38
2.22032002 -0.0057600001 0.75600004 1.481464788e-38
2.22176 -0.0057600001 0.75600004 1.518521285e-38
2.22320001 -0.0057600001 0.75600004 1.555183597e-38
2.22464001 -0.0057600001 0.75600004 1.555147723e-38
2.22608002 -0.0057600001 0.75600004 1.564223653e-38
2.22752 -0.0057600001 0.75600004 1.591846049e-38
2.22896002 -0.0057600001 0.75600004 1.628435073e-38
2.23040001 -0.0057600001 0.75600004 1.564148544e-38
2.23184 -0.0057600001 0.75600004 1.509085081e-38
2.23328002 -0.0057600001 0.75600004 1.518342339e-38
2.23472001 -0.0057600001 0.75600004 1.536673004e-38
2.23616001 -0.0057600001 0.75600004 1.545963753e-38
2.23760001 -0.0057600001 0.75600004 1.564258826e-38
2.23904002 -0.0057600001 0.75600004 1.564366165e-38
2.24048001 -0.0057600001 0.75600004 1.564330432e-38
2.24192002 -0.0057600001 0.75600004 1.555326389e-38
2.24336001 -0.0057600001 0.75600004 1.555290656e-38
2.2448 -0.0057600001 0.75600004 1.536923837e-38
2.24624 -0.0057600001 0.75600004 1.518521705e-38
2.24768002 -0.0057600001 0.75600004 1.527706236e-38
2.24912001 -0.0057600001 0.75600004 1.536926359e-38
2.25056002 -0.0057600001 0.75600004 1.536962933e-38
2.252 -0.0057600001 0.75600004 1.546252701e-38
2.25411049 -0.0057752384 0.75800002 1.555614216e-38
2.25555429 -0.0057752384 0.75800002 1.573802509e-38
2.25699809 -0.0057752384 0.75800002 1.583022493e-38
2.25844193 -0.0057752384 0.75800002 1.592205482e-38
2.25988573 -0.0057752384 0.75800002 1.601424484e-38
2.26132953 -0.0057752384 0.75800002 1.610500414e-38
2.26346669 -0.0057904767 0.76000005 1.601281131e-38
2.26491427 -0.0057904767 0.76000005 1.592096881e-38
2.26636192 -0.0057904767 0.76000005 1.601315743e-38
2.26780954 -0.0057904767 0.76000005 1.610500134e-38
2.26925716 -0.0057904767 0.76000005 1.647235313e-38
2.27070478 -0.0057904767 0.76000005 1.693080894e-38
2.2725105 -0.0057980954 0.76100004 1.665458219e-38
2.27396002 -0.0057980954 0.76100004 1.637908691e-38
2.27540955 -0.0057980954 0.76100004 1.656277051e-38
2.27685907 -0.0057980954 0.76100004 1.67464331e-38
2.27830857 -0.0057980954 0.76100004 1.628688848e-38
2.2797581 -0.0057980954 0.76100004 1.582770819e-38
2.28120762 -0.0057980954 0.76100004 1.601137778e-38
2.28265715 -0.0057980954 0.76100004 1.628688427e-38
2.28485334 -0.0058133332 0.76300001 1.610500694e-38
2.28705713 -0.0058285715 0.76500005 1.601173231e-38
2.28851432 -0.0058285715 0.76500005 1.573478809e-38
2.29110858 -0.0058514285 0.76800001 1.54592802e-38
2.29257143 -0.0058514285 0.76800001 1.518377371e-38
2.29556569 -0.0058819046 0.77200001 1.490827283e-38
2.2970362 -0.0058819046 0.77200001 1.500047266e-38
2.29889333 -0.0058895242 0.77300006 1.518486953e-38
2.30036575 -0.0058895242 0.77300006 1.509411864e-38
2.30261904 -0.0059047621 0.77500004 1.509411023e-38
2.30487999 -0.0059199999 0.77700001 1.463492574e-38
2.30636001 -0.0059199999 0.77700001 1.426758516e-38
2.3086324 -0.0059352382 0.77900004 1.445125755e-38
2.3105143 -0.0059428574 0.78000003 1.47285577e-38
2.31200001 -0.0059428574 0.78000003 1.472784024e-38
2.31428954 -0.0059580957 0.78200006 1.481967714e-38
2.31577906 -0.0059580957 0.78200006 1.472784444e-38
2.31726858 -0.0059580957 0.78200006 1.463599353e-38
2.3187581 -0.0059580957 0.78200006 1.454450135e-38
2.32106668 -0.0059733335 0.78400004 1.445304421e-38
2.32420573 -0.0060038096 0.78800005 1.381093422e-38
2.32570669 -0.0060038096 0.78800005 1.316735567e-38
2.32720762 -0.0060038096 0.78800005 1.417717478e-38
2.32870859 -0.0060038096 0.78800005 1.52777616e-38
2.33062857 -0.0060114288 0.78900003 1.490969795e-38
2.33381525 -0.0060419049 0.79300004 1.463419987e-38
2.33617145 -0.0060571427 0.79500002 1.454237418e-38
2.33853528 -0.006072381 0.79700005 1.445017855e-38
2.34048003 -0.0060800002 0.79800004 1.435834166e-38
2.34285715 -0.006095238 0.80000001 1.426650476e-38
2.34438094 -0.006095238 0.80000001 1.408283237e-38
2.34676954 -0.0061104763 0.80200005 1.399063533e-38
2.34829718 -0.0061104763 0.80200005 1.380660421e-38
2.34982476 -0.0061104763 0.80200005 1.362256888e-38
2.35135239 -0.0061104763 0.80200005 1.325486396e-38
2.35376 -0.0061257142 0.80400002 1.29783135e-38
2.35529143 -0.0061257142 0.80400002 1.21511088e-38
2.35682285 -0.0061257142 0.80400002 1.13317822e-38
2.16647428 -0.0042685717 0.74700004 1.040468174e-38
2.16789715 -0.0042685717 0.74700004 1.031177004e-38
2.16932 -0.0042685717 0.74700004 1.021921568e-38
2.17028573 -0.004257143 0.74500006 1.012630258e-38
2.17216572 -0.0042685717 0.74700004 1.003376083e-38
2.17358857 -0.0042685717 0.74700004 9.75719076e-39
2.17524572 -0.0042742854 0.74800003 9.388768375e-39
2.17667049 -0.0042742854 0.74800003 9.570641501e-39
2.17809524 -0.0042742854 0.74800003 9.661046271e-39
2.17952 -0.0042742854 0.74800003 9.843286538e-39
2.18094477 -0.0042742854 0.74800003 9.930106787e-39
2.18236953 -0.0042742854 0.74800003 1.002374435e-38
2.18379429 -0.0042742854 0.74800003 1.002553942e-38
2.18521905 -0.0042742854 0.74800003 1.057619646e-38
2.18664382 -0.0042742854 0.74800003 1.103501381e-38
2.18806857 -0.0042742854 0.74800003 1.140558299e-38
2.18949333 -0.0042742854 0.74800003 1.178117441e-38
2.1909181 -0.0042742854 0.74800003 1.23300336e-38
2.19285716 -0.0042857146 0.75000006 1.297288347e-38
2.19428572 -0.0042857146 0.75000006 1.334381558e-38
2.19571429 -0.0042857146 0.75000006 1.371116737e-38
2.19714287 -0.0042857146 0.75000006 1.371081845e-38
2.19910097 -0.0042971428 0.75200003 1.380265395e-38
2.20053335 -0.0042971428 0.75200003 1.407923663e-38
2.20196572 -0.0042971428 0.75200003 1.435510185e-38
2.20339811 -0.0042971428 0.75200003 1.463060834e-38
2.20510286 -0.0043028574 0.75300002 1.481463526e-38
2.20653716 -0.0043028574 0.75300002 1.481678486e-38
2.20797144 -0.0043028574 0.75300002 1.481964491e-38
2.20940572 -0.0043028574 0.75300002 1.463130058e-38
2.21140002 -0.0043142857 0.75500005 1.44454772e-38
2.2128381 -0.0043142857 0.75500005 1.416961338e-38
2.21427621 -0.0043142857 0.75500005 1.380189725e-38
2.21571429 -0.0043142857 0.75500005 1.398483536e-38
2.21715239 -0.0043142857 0.75500005 1.416781691e-38
2.2185905 -0.0043142857 0.75500005 1.435187607e-38
2.22002858 -0.0043142857 0.75500005 1.444335703e-38
2.22146669 -0.0043142857 0.75500005 1.472066139e-38
2.22290477 -0.0043142857 0.75500005 1.508979563e-38
2.22434287 -0.0043142857 0.75500005 1.518198846e-38
2.22578098 -0.0043142857 0.75500005 1.536601538e-38
2.22752 -0.0043200003 0.75600004 1.545784808e-38
2.22865716 -0.0043142857 0.75500005 1.564185118e-38
2.23040001 -0.0043200003 0.75600004 1.527448257e-38
2.23184 -0.0043200003 0.75600004 1.499901111e-38
2.23297143 -0.0043142857 0.75500005 1.518271854e-38
2.23472001 -0.0043200003 0.75600004 1.527490155e-38
2.23616001 -0.0043200003 0.75600004 1.536672584e-38
2.23760001 -0.0043200003 0.75600004 1.555075557e-38
2.23872383 -0.0043142857 0.75500005 1.555183176e-38
2.24016191 -0.0043142857 0.75500005 1.564366446e-38
2.24192002 -0.0043200003 0.75600004 1.582769278e-38
2.24336001 -0.0043200003 0.75600004 1.592024854e-38
2.2448 -0.0043200003 0.75600004 1.564438612e-38
2.24624 -0.0043200003 0.75600004 1.527669522e-38
2.24768002 -0.0043200003 0.75600004 1.527706376e-38
2.24912001 -0.0043200003 0.75600004 1.527779243e-38
2.25056002 -0.0043200003 0.75600004 1.527780364e-38
2.252 -0.0043200003 0.75600004 1.537105866e-38
2.25411049 -0.004331429 0.75800002 1.546287874e-38
2.25555429 -0.004331429 0.75800002 1.555471704e-38
2.25699809 -0.004331429 0.75800002 1.573767477e-38
2.25844193 -0.004331429 0.75800002 1.582770819e-38
2.25988573 -0.004331429 0.75800002 1.601173091e-38
2.26132953 -0.004331429 0.75800002 1.619611797e-38
2.26277333 -0.004331429 0.75800002 1.601280431e-38
2.26421714 -0.004331429 0.75800002 1.582733405e-38
2.26566094 -0.004331429 0.75800002 1.582732844e-38
2.26780954 -0.0043428573 0.76000005 1.591952687e-38
2.26925716 -0.0043428573 0.76000005 1.61035622e-38
2.27070478 -0.0043428573 0.76000005 1.637943023e-38
2.2725105 -0.0043485714 0.76100004 1.628759753e-38
2.27360001 -0.0043428573 0.76000005 1.610393075e-38
2.27504763 -0.0043428573 0.76000005 1.619577185e-38
2.27685907 -0.0043485714 0.76100004 1.637943864e-38
2.27830857 -0.0043485714 0.76100004 1.619504597e-38
2.2797581 -0.0043485714 0.76100004 1.601173091e-38
2.28120762 -0.0043485714 0.76100004 1.628651713e-38
2.28265715 -0.0043485714 0.76100004 1.656058589e-38
2.28485334 -0.0043600001 0.76300001 1.628471787e-38
2.28630668 -0.0043600001 0.76300001 1.600921698e-38
2.28776002 -0.0043600001 0.76300001 1.573335737e-38
2.29110858 -0.0043885713 0.76800001 1.545677188e-38
2.29257143 -0.0043885713 0.76800001 1.509050469e-38
2.29556569 -0.0044114287 0.77200001 1.472388297e-38
2.29742098 -0.0044171433 0.77300006 1.481679887e-38
2.29889333 -0.0044171433 0.77300006 1.500083e-38
2.30114287 -0.0044285716 0.77500004 1.500226773e-38
2.30261904 -0.0044285716 0.77500004 1.509409762e-38
2.30409524 -0.0044285716 0.77500004 1.500225652e-38
2.30636001 -0.0044400003 0.77700001 1.500369705e-38
2.3086324 -0.004451429 0.77900004 1.500406279e-38
2.3101162 -0.004451429 0.77900004 1.491258883e-38
2.31200001 -0.0044571431 0.78000003 1.482075614e-38
2.31348571 -0.0044571431 0.78000003 1.482076454e-38
2.31497142 -0.0044571431 0.78000003 1.472821999e-38
2.31726858 -0.0044685719 0.78200006 1.472782903e-38
2.3187581 -0.0044685719 0.78200006 1.46359627e-38
2.32024765 -0.0044685719 0.78200006 1.454559577e-38
2.32338285 -0.0044914284 0.78600001 1.426976558e-38
2.32488 -0.0044914284 0.78600001 1.390132638e-38
2.32720762 -0.0045028571 0.78800005 1.454415523e-38
2.32870859 -0.0045028571 0.78800005 1.50940808e-38
2.33062857 -0.0045085717 0.78900003 1.49103986e-38
2.33213145 -0.0045085717 0.78900003 1.472746189e-38
2.33448002 -0.0045200004 0.79100001 1.463456701e-38
2.3376857 -0.0045428569 0.79500002 1.454237418e-38
2.34005335 -0.0045542861 0.79700005 1.445054009e-38
2.34200001 -0.0045600003 0.79800004 1.426722783e-38
2.34352002 -0.0045600003 0.79800004 1.435798853e-38
2.34504002 -0.0045600003 0.79800004 1.445017996e-38
2.34742859 -0.0045714285 0.80000001 1.40821177e-38
2.34982476 -0.0045828572 0.80200005 1.380624688e-38
2.35135239 -0.0045828572 0.80200005 1.353037745e-38
2.35288 -0.0045828572 0.80200005 1.325272417e-38
2.35529143 -0.004594286 0.80400002 1.270207554e-38
2.35682285 -0.004594286 0.80400002 1.224147293e-38
2.35835427 -0.004594286 0.80400002 1.233116725e-38
2.17667049 -0.0028495239 0.74800003 9.480962603e-39
2.17809524 -0.0028495239 0.74800003 9.846147989e-39
2.18000001 -0.0028571431 0.75000006 9.844351525e-39
2.18142858 -0.0028571431 0.75000006 9.935113626e-39
2.18285716 -0.0028571431 0.75000006 9.291550491e-39
2.18379429 -0.0028495239 0.74800003 8.740541718e-39
2.1857143 -0.0028571431 0.75000006 9.016412544e-39
2.18664382 -0.0028495239 0.74800003 9.383041268e-39
2.18857144 -0.0028571431 0.75000006 9.841505488e-39
2.18949333 -0.0028495239 0.74800003 1.030749748e-38
2.19142859 -0.0028571431 0.75000006 1.095249835e-38
2.19285716 -0.0028571431 0.75000006 1.168861725e-38
2.19428572 -0.0028571431 0.75000006 1.214958839e-38
2.19571429 -0.0028571431 0.75000006 1.270060838e-38
2.19766857 -0.002864762 0.75200003 1.288464511e-38
2.19910097 -0.002864762 0.75200003 1.315943273e-38
2.20053335 -0.002864762 0.75200003 1.362004374e-38
2.20196572 -0.002864762 0.75200003 1.407922402e-38
2.20366858 -0.0028685716 0.75300002 1.407922682e-38
2.20510286 -0.0028685716 0.75300002 1.417214833e-38
2.20653716 -0.0028685716 0.75300002 1.426650476e-38
2.20797144 -0.0028685716 0.75300002 1.435653258e-38
2.20940572 -0.0028685716 0.75300002 1.435472631e-38
2.21084 -0.0028685716 0.75300002 1.435508364e-38
2.2128381 -0.0028761907 0.75500005 1.389626349e-38
2.21427621 -0.0028761907 0.75500005 1.35278397e-38
2.21571429 -0.0028761907 0.75500005 1.370935409e-38
2.21715239 -0.0028761907 0.75500005 1.398487319e-38
2.2185905 -0.0028761907 0.75500005 1.407708144e-38
2.22002858 -0.0028761907 0.75500005 1.416820227e-38
2.22146669 -0.0028761907 0.75500005 1.435259493e-38
2.22290477 -0.0028761907 0.75500005 1.462989368e-38
2.22434287 -0.0028761907 0.75500005 1.490647496e-38
2.22578098 -0.0028761907 0.75500005 1.518270592e-38
2.22752 -0.00288 0.75600004 1.509338996e-38
2.22865716 -0.0028761907 0.75500005 1.500009852e-38
2.23009525 -0.0028761907 0.75500005 1.499936003e-38
2.23184 -0.00288 0.75600004 1.499866079e-38
2.23297143 -0.0028761907 0.75500005 1.509015577e-38
2.23472001 -0.00288 0.75600004 1.527453862e-38
2.23616001 -0.00288 0.75600004 1.536672724e-38
2.23728573 -0.0028761907 0.75500005 1.545892848e-38
2.23872383 -0.0028761907 0.75500005 1.555184718e-38
2.24016191 -0.0028761907 0.75500005 1.573551256e-38
2.24160002 -0.0028761907 0.75500005 1.601065471e-38
2.24336001 -0.00288 0.75600004 1.637835263e-38
2.2448 -0.00288 0.75600004 1.591953108e-38
2.24624 -0.00288 0.75600004 1.5460362e-38
2.24768002 -0.00288 0.75600004 1.527741829e-38
2.24912001 -0.00288 0.75600004 1.51855926e-38
2.25056002 -0.00288 0.75600004 1.527779804e-38
2.252 -0.00288 0.75600004 1.537034119e-38
2.25343999 -0.00288 0.75600004 1.537105025e-38
2.25488001 -0.00288 0.75600004 1.546289275e-38
2.25632 -0.00288 0.75600004 1.564549455e-38
2.25844193 -0.0028876192 0.75800002 1.58287984e-38
2.25988573 -0.0028876192 0.75800002 1.601246099e-38
2.26132953 -0.0028876192 0.75800002 1.62883192e-38
2.26277333 -0.0028876192 0.75800002 1.601316444e-38
2.26421714 -0.0028876192 0.75800002 1.582697812e-38
2.26566094 -0.0028876192 0.75800002 1.573513702e-38
2.26780954 -0.0028952383 0.76000005 1.573549995e-38
2.26925716 -0.0028952383 0.76000005 1.582769979e-38
2.27070478 -0.0028952383 0.76000005 1.591989682e-38
2.2725105 -0.0028990477 0.76100004 1.592133595e-38
2.27360001 -0.0028952383 0.76000005 1.592097862e-38
2.27540955 -0.0028990477 0.76100004 1.592098002e-38
2.27685907 -0.0028990477 0.76100004 1.601173792e-38
2.27830857 -0.0028990477 0.76100004 1.610321328e-38
2.2797581 -0.0028990477 0.76100004 1.619469145e-38
2.28120762 -0.0028990477 0.76100004 1.656203623e-38
2.28265715 -0.0028990477 0.76100004 1.692757475e-38
2.28485334 -0.0029066666 0.76300001 1.646766999e-38
2.28630668 -0.0029066666 0.76300001 1.610032941e-38
2.28851432 -0.0029142858 0.76500005 1.573334616e-38
2.29072955 -0.0029219049 0.76700002 1.545676347e-38
2.29257143 -0.0029257142 0.76800001 1.499830345e-38
2.29480001 -0.0029333334 0.77000004 1.463132441e-38
2.2970362 -0.0029409523 0.77200001 1.47253151e-38
2.29889333 -0.0029447621 0.77300006 1.481679467e-38
2.30036575 -0.0029447621 0.77300006 1.491042803e-38
2.30261904 -0.002952381 0.77500004 1.509409622e-38
2.30409524 -0.002952381 0.77500004 1.54614354e-38
2.30636001 -0.00296 0.77700001 1.582986479e-38
2.3086324 -0.0029676191 0.77900004 1.546396895e-38
2.3101162 -0.0029676191 0.77900004 1.518845685e-38
2.31200001 -0.0029714287 0.78000003 1.500514039e-38
2.31348571 -0.0029714287 0.78000003 1.482111627e-38
2.31497142 -0.0029714287 0.78000003 1.482183934e-38
2.31726858 -0.0029790478 0.78200006 1.48203876e-38
2.31957334 -0.0029866667 0.78400004 1.472745909e-38
2.32024765 -0.0029790478 0.78200006 1.472891083e-38
2.32338285 -0.0029942857 0.78600001 1.472856891e-38
2.32488 -0.0029942857 0.78600001 1.472820177e-38
2.32637715 -0.0029942857 0.78600001 1.481967013e-38
2.32870859 -0.0030019048 0.78800005 1.500261665e-38
2.33062857 -0.0030057144 0.78900003 1.491041682e-38
2.33213145 -0.0030057144 0.78900003 1.481858833e-38
2.33448002 -0.0030133333 0.79100001 1.472676124e-38
2.33683619 -0.0030209525 0.79300004 1.472711437e-38
2.33834666 -0.0030209525 0.79300004 1.45437965e-38
2.34157145 -0.0030361905 0.79700005 1.435941365e-38
2.34308955 -0.0030361905 0.79700005 1.463349081e-38
2.34460762 -0.0030361905 0.79700005 1.50008314e-38
2.34656003 -0.0030400001 0.79800004 1.444981562e-38
2.34895238 -0.003047619 0.80000001 1.39902738e-38
2.35135239 -0.0030552382 0.80200005 1.371440437e-38
2.35288 -0.0030552382 0.80200005 1.352966279e-38
2.35529143 -0.0030628571 0.80400002 1.334492121e-38
2.35682285 -0.0030628571 0.80400002 1.316017962e-38
2.35924575 -0.0030704765 0.80600005 1.297579677e-38
2.36167619 -0.0030780954 0.80800003 1.27899958e-38
2.36411431 -0.0030857145 0.81000006 1.251235934e-38
2.36565718 -0.0030857145 0.81000006 1.224620792e-38
2.17809524 -0.001424762 0.74800003 1.003160984e-38
2.18000001 -0.0014285715 0.75000006 1.00312399e-38
2.18142858 -0.0014285715 0.75000006 1.003087836e-38
2.18285716 -0.0014285715 0.75000006 9.662817513e-39
2.18428573 -0.0014285715 0.75000006 9.295125203e-39
2.1857143 -0.0014285715 0.75000006 9.478445871e-39
2.18714286 -0.0014285715 0.75000006 9.569931043e-39
2.18857144 -0.0014285715 0.75000006 9.752894379e-39
2.19000001 -0.0014285715 0.75000006 1.002804214e-38
2.19193906 -0.001432381 0.75200003 1.021279073e-38
2.19337143 -0.001432381 0.75200003 1.048937061e-38
2.19480382 -0.001432381 0.75200003 1.086029712e-38
2.19623619 -0.001432381 0.75200003 1.123123063e-38
2.19766857 -0.001432381 0.75200003 1.169005498e-38
2.19910097 -0.001432381 0.75200003 1.224106375e-38
2.20053335 -0.001432381 0.75200003 1.260768547e-38
2.20196572 -0.001432381 0.75200003 1.297467433e-38
2.20366858 -0.0014342858 0.75300002 1.325198149e-38
2.20510286 -0.0014342858 0.75300002 1.362149829e-38
2.20653716 -0.0014342858 0.75300002 1.380375677e-38
2.20797144 -0.0014342858 0.75300002 1.398633335e-38
2.20940572 -0.0014342858 0.75300002 1.407886949e-38
2.21084 -0.0014342858 0.75300002 1.426325515e-38
2.21227428 -0.0014342858 0.75300002 1.417177558e-38
2.21370858 -0.0014342858 0.75300002 1.398846753e-38
2.21571429 -0.0014380954 0.75500005 1.417106793e-38
2.21715239 -0.0014380954 0.75500005 1.435402005e-38
2.2185905 -0.0014380954 0.75500005 1.416891273e-38
2.22002858 -0.0014380954 0.75500005 1.398416694e-38
2.22146669 -0.0014380954 0.75500005 1.41685582e-38
2.22290477 -0.0014380954 0.75500005 1.426218596e-38
2.22434287 -0.0014380954 0.75500005 1.48139164e-38
2.22578098 -0.0014380954 0.75500005 1.536673985e-38
2.22721906 -0.0014380954 0.75500005 1.509196905e-38
2.22865716 -0.0014380954 0.75500005 1.481752334e-38
2.23009525 -0.0014380954 0.75500005 1.472352004e-38
2.23153335 -0.0014380954 0.75500005 1.47231627e-38
2.23297143 -0.0014380954 0.75500005 1.49068351e-38
2.23440954 -0.0014380954 0.75500005 1.509050609e-38
2.23616001 -0.00144 0.75600004 1.509086482e-38
2.23728573 -0.0014380954 0.75500005 1.51834318e-38
2.23872383 -0.0014380954 0.75500005 1.527599877e-38
2.23952572 -0.0014342858 0.75300002 1.536854192e-38
2.24096 -0.0014342858 0.75300002 1.555148704e-38
2.2430381 -0.0014380954 0.75500005 1.56429554e-38
2.2444762 -0.0014380954 0.75500005 1.54603522e-38
2.24591431 -0.0014380954 0.75500005 1.527668821e-38
2.24735241 -0.0014380954 0.75500005 1.518521985e-38
2.24879049 -0.0014380954 0.75500005 1.509195924e-38
2.25022858 -0.0014380954 0.75500005 1.52763575e-38
2.25166669 -0.0014380954 0.75500005 1.555293739e-38
2.25310478 -0.0014380954 0.75500005 1.546217669e-38
2.25488001 -0.00144 0.75600004 1.546290396e-38
2.25699809 -0.0014438096 0.75800002 1.555331434e-38
2.25844193 -0.0014438096 0.75800002 1.564549876e-38
2.25988573 -0.0014438096 0.75800002 1.573732584e-38
2.26132953 -0.0014438096 0.75800002 1.592134296e-38
2.26346669 -0.0014476192 0.76000005 1.573694329e-38
2.26491427 -0.0014476192 0.76000005 1.555147443e-38
2.26636192 -0.0014476192 0.76000005 1.545855853e-38
2.26780954 -0.0014476192 0.76000005 1.545784527e-38
2.26925716 -0.0014476192 0.76000005 1.555040244e-38
2.27070478 -0.0014476192 0.76000005 1.56429596e-38
2.27215239 -0.0014476192 0.76000005 1.555112831e-38
2.27396002 -0.0014495238 0.76100004 1.555148564e-38
2.27540955 -0.0014495238 0.76100004 1.564331974e-38
2.27685907 -0.0014495238 0.76100004 1.564332114e-38
2.27830857 -0.0014495238 0.76100004 1.564368127e-38
2.2797581 -0.0014495238 0.76100004 1.573516364e-38
2.28120762 -0.0014495238 0.76100004 1.582736488e-38
2.28265715 -0.0014495238 0.76100004 1.600922539e-38
2.28485334 -0.0014533333 0.76300001 1.582518025e-38
2.28630668 -0.0014533333 0.76300001 1.573226435e-38
2.28851432 -0.0014571429 0.76500005 1.545675366e-38
2.29072955 -0.0014609525 0.76700002 1.518124857e-38
2.29257143 -0.0014628571 0.76800001 1.481355066e-38
2.29480001 -0.0014666667 0.77000004 1.453768824e-38
2.2970362 -0.0014704762 0.77200001 1.453912738e-38
2.29850668 -0.0014704762 0.77200001 1.463276074e-38
2.30036575 -0.0014723811 0.77300006 1.481787086e-38
2.3018381 -0.0014723811 0.77300006 1.509445355e-38
2.30409524 -0.0014761905 0.77500004 1.536960271e-38
2.30636001 -0.00148 0.77700001 1.564584207e-38
2.30783999 -0.00148 0.77700001 1.537071113e-38
2.30932 -0.00148 0.77700001 1.518953725e-38
2.31200001 -0.0014857143 0.78000003 1.509697168e-38
2.31348571 -0.0014857143 0.78000003 1.500478026e-38
2.31497142 -0.0014857143 0.78000003 1.491294896e-38
2.31645715 -0.0014857143 0.78000003 1.491294616e-38
2.3187581 -0.0014895239 0.78200006 1.491258463e-38
2.32024765 -0.0014895239 0.78200006 1.491258463e-38
2.32256001 -0.0014933334 0.78400004 1.491222589e-38
2.32405335 -0.0014933334 0.78400004 1.49122287e-38
2.32554668 -0.0014933334 0.78400004 1.491151403e-38
2.32787427 -0.0014971428 0.78600001 1.50029894e-38
2.33020955 -0.0015009524 0.78800005 1.49100777e-38
2.33213145 -0.0015028572 0.78900003 1.491043363e-38
2.33363429 -0.0015028572 0.78900003 1.481895547e-38
2.33513716 -0.0015028572 0.78900003 1.481930159e-38
2.33749333 -0.0015066667 0.79100001 1.463561939e-38
2.34071428 -0.0015142857 0.79500002 1.454343497e-38
2.34222856 -0.0015142857 0.79500002 1.454201125e-38
2.34460762 -0.0015180953 0.79700005 1.463348661e-38
2.34612575 -0.0015180953 0.79700005 1.435833745e-38
2.34895238 -0.0015238095 0.80000001 1.399134859e-38
2.35047618 -0.0015238095 0.80000001 1.380731327e-38
2.352 -0.0015238095 0.80000001 1.371548337e-38
2.35440764 -0.0015276191 0.80200005 1.353074319e-38
2.35682285 -0.0015314285 0.80400002 1.343819023e-38
2.35835427 -0.0015314285 0.80400002 1.325380177e-38
2.36078098 -0.0015352382 0.80600005 1.316159073e-38
2.36231622 -0.0015352382 0.80600005 1.27917222e-38
2.36385146 -0.0015352382 0.80600005 1.251375363e-38
2.36901334 -0.0015504762 0.81400001 1.279540762e-38
2.37056381 -0.0015504762 0.81400001 1.298556522e-38
2.37211427 -0.0015504762 0.81400001 1.336083015e-38
2.18285716 0 0.75000006 1.003231329e-38
2.18428573 0 0.75000006 9.940126071e-39
2.1857143 0 0.75000006 9.84794025e-39
2.18714286 0 0.75000006 9.846866856e-39
2.18857144 0 0.75000006 9.754318098e-39
2.19000001 0 0.75000006 9.753960767e-39
2.19193906 0 0.75200003 9.567421317e-39
2.19337143 0 0.75200003 9.383390191e-39
2.19480382 0 0.75200003 9.56670105e-39
2.19623619 0 0.75200003 9.751451042e-39
2.19766857 0 0.75200003 1.057905091e-38
2.19910097 0 0.75200003 1.140449418e-38
2.2008 0 0.75300002 1.16792846e-38
2.2022343 0 0.75300002 1.195802108e-38
2.20366858 0 0.75300002 1.251262419e-38
2.20510286 0 0.75300002 1.306652524e-38
2.20653716 0 0.75300002 1.334527854e-38
2.20797144 0 0.75300002 1.361897875e-38
2.20940572 0 0.75300002 1.38930377e-38
2.21084 0 0.75300002 1.426253068e-38
2.21227428 0 0.75300002 1.435651717e-38
2.21427621 0 0.75500005 1.45405623e-38
2.21571429 0 0.75500005 1.463313068e-38
2.21657714 0 0.75300002 1.48139178e-38
2.21801142 0 0.75300002 1.435257531e-38
2.22002858 0 0.75500005 1.38930391e-38
2.22146669 0 0.75500005 1.38930377e-38
2.22290477 0 0.75500005 1.398559486e-38
2.22374858 0 0.75300002 1.481319473e-38
2.22518286 0 0.75300002 1.564044007e-38
2.22661716 0 0.75300002 1.50905131e-38
2.22865716 0 0.75500005 1.463132441e-38
2.23009525 0 0.75500005 1.45394777e-38
2.23153335 0 0.75500005 1.45394777e-38
2.23297143 0 0.75500005 1.472350883e-38
2.23440954 0 0.75500005 1.490682249e-38
2.23584764 0 0.75500005 1.490682529e-38
2.23728573 0 0.75500005 1.490719663e-38
2.23872383 0 0.75500005 1.500012094e-38
2.24016191 0 0.75500005 1.509195083e-38
2.24160002 0 0.75500005 1.500046986e-38
2.2430381 0 0.75500005 1.500082439e-38
2.2448 0 0.75600004 1.500117892e-38
2.24591431 0 0.75500005 1.509301582e-38
2.24768002 0 0.75600004 1.509337735e-38
2.24879049 0 0.75500005 1.509195223e-38
2.25056002 0 0.75600004 1.536746853e-38
2.25166669 0 0.75500005 1.573552658e-38
2.25343999 0 0.75600004 1.555364785e-38
2.25488001 0 0.75600004 1.546146062e-38
2.25699809 0 0.75800002 1.54611089e-38
2.25844193 0 0.75800002 1.546074316e-38
2.25988573 0 0.75800002 1.555221292e-38
2.26132953 0 0.75800002 1.564439593e-38
2.26346669 0 0.76000005 1.546107386e-38
2.26491427 0 0.76000005 1.527488614e-38
2.26636192 0 0.76000005 1.518125278e-38
2.26780954 0 0.76000005 1.518232757e-38
2.26925716 0 0.76000005 1.527487913e-38
2.27070478 0 0.76000005 1.536708177e-38
2.2725105 0 0.76100004 1.527597215e-38
2.27396002 0 0.76100004 1.527597075e-38
2.27540955 0 0.76100004 1.527597075e-38
2.27685907 0 0.76100004 1.536744751e-38
2.27830857 0 0.76100004 1.527668821e-38
2.2797581 0 0.76100004 1.527669382e-38
2.28120762 0 0.76100004 1.518486392e-38
2.28265715 0 0.76100004 1.518270032e-38
2.28485334 0 0.76300001 1.527524207e-38
2.28630668 0 0.76300001 1.536492097e-38
2.28851432 0 0.76500005 1.518124717e-38
2.29072955 0 0.76700002 1.499649578e-38
2.29257143 0 0.76800001 1.472026762e-38
2.29480001 0 0.77000004 1.444548561e-38
2.2970362 0 0.77200001 1.444621008e-38
2.29850668 0 0.77200001 1.454021478e-38
2.30036575 0 0.77300006 1.481753035e-38
2.3018381 0 0.77300006 1.509338716e-38
2.30409524 0 0.77500004 1.527776721e-38
2.30557144 0 0.77500004 1.54614368e-38
2.30704764 0 0.77500004 1.527776581e-38
2.30932 0 0.77700001 1.518772538e-38
2.31200001 0 0.78000003 1.518880297e-38
2.31348571 0 0.78000003 1.518844845e-38
2.31497142 0 0.78000003 1.509661715e-38
2.31645715 0 0.78000003 1.509590389e-38
2.3187581 0 0.78200006 1.509555077e-38
2.32024765 0 0.78200006 1.518738066e-38
2.32256001 0 0.78400004 1.518737505e-38
2.32405335 0 0.78400004 1.518738206e-38
2.32554668 0 0.78400004 1.509555357e-38
2.32870859 0 0.78800005 1.500263767e-38
2.33020955 0 0.78800005 1.50019174e-38
2.33213145 0 0.78900003 1.509410743e-38
2.33363429 0 0.78900003 1.500298659e-38
2.33513716 0 0.78900003 1.491114269e-38
2.33749333 0 0.79100001 1.481930019e-38
2.34071428 0 0.79500002 1.472675704e-38
2.34222856 0 0.79500002 1.454237839e-38
2.34460762 0 0.79700005 1.43587102e-38
2.34612575 0 0.79700005 1.417504341e-38
2.34808001 0 0.79800004 1.40831939e-38
2.35047618 0 0.80000001 1.399134439e-38
2.352 0 0.80000001 1.38984355e-38
2.35440764 0 0.80200005 1.380624267e-38
2.35593525 0 0.80200005 1.37136799e-38
2.35835427 0 0.80400002 1.362327093e-38
2.36078098 0 0.80600005 1.352964177e-38
2.36231622 0 0.80600005 1.316229979e-38
2.36565718 0 0.81000006 1.288251513e-38
2.36810669 0 0.81200004 1.214534806e-38
2.36965334 0 0.81200004 1.150537505e-38
2.3712 0 0.81200004 1.150861065e-38
2.18857144 0.0014285715 0.75000006 9.848294779e-39
2.19000001 0.0014285715 0.75000006 9.847221384e-39
2.19193906 0.001432381 0.75200003 9.937266021e-39
2.19362858 0.0014342858 0.75300002 1.002551279e-38
2.19480382 0.001432381 0.75200003 9.567411508e-39
2.19623619 0.001432381 0.75200003 9.201507256e-39
2.19793142 0.0014342858 0.75300002 9.843999799e-39
2.19936571 0.0014342858 0.75300002 1.057689431e-38
2.2008 0.0014342858 0.75300002 1.048470429e-38
2.2022343 0.0014342858 0.75300002 1.048757274e-38
2.20366858 0.0014342858 0.75300002 1.076343656e-38
2.20510286 0.0014342858 0.75300002 1.113151003e-38
2.20653716 0.0014342858 0.75300002 1.177616617e-38
2.20797144 0.0014342858 0.75300002 1.242115863e-38
2.20940572 0.0014342858 0.75300002 1.269773431e-38
2.21084 0.0014342858 0.75300002 1.306077011e-38
2.21227428 0.0014342858 0.75300002 1.315762786e-38
2.21370858 0.0014342858 0.75300002 1.325522829e-38
2.21571429 0.0014380954 0.75500005 1.353112014e-38
2.21657714 0.0014342858 0.75300002 1.380480774e-38
2.21801142 0.0014342858 0.75300002 1.352282025e-38
2.21944571 0.0014342858 0.75300002 1.333842759e-38
2.22088 0.0014342858 0.75300002 1.343026028e-38
2.2223143 0.0014342858 0.75300002 1.352246292e-38
2.22374858 0.0014342858 0.75300002 1.389053218e-38
2.22518286 0.0014342858 0.75300002 1.425859163e-38
2.22721906 0.0014380954 0.75500005 1.417249585e-38
2.22865716 0.0014380954 0.75500005 1.417141265e-38
2.23009525 0.0014380954 0.75500005 1.407921281e-38
2.23153335 0.0014380954 0.75500005 1.407921141e-38
2.23297143 0.0014380954 0.75500005 1.42628824e-38
2.23440954 0.0014380954 0.75500005 1.435508083e-38
2.23584764 0.0014380954 0.75500005 1.44476394e-38
2.23728573 0.0014380954 0.75500005 1.453948471e-38
2.23809142 0.0014342858 0.75300002 1.463097268e-38
2.23952572 0.0014342858 0.75300002 1.472244804e-38
2.24096 0.0014342858 0.75300002 1.472388297e-38
2.2430381 0.0014380954 0.75500005 1.47263941e-38
2.24382859 0.0014342858 0.75300002 1.48171534e-38
2.24526286 0.0014342858 0.75300002 1.500082159e-38
2.24768002 0.00144 0.75600004 1.490862456e-38
2.24912001 0.00144 0.75600004 1.490863437e-38
2.25022858 0.0014380954 0.75500005 1.509195643e-38
2.25166669 0.0014380954 0.75500005 1.527526729e-38
2.25343999 0.00144 0.75600004 1.50915963e-38
2.25488001 0.00144 0.75600004 1.499976501e-38
2.25699809 0.0014438096 0.75800002 1.500084541e-38
2.25844193 0.0014438096 0.75800002 1.508872924e-38
2.25988573 0.0014438096 0.75800002 1.518450519e-38
