# .PCD v0.7 - Point Cloud Data file format
VERSION 0.7
FIELDS x y z rgb
SIZE 4 4 4 4
TYPE F F F F
COUNT 1 1 1 1
WIDTH 967
HEIGHT 1
VIEWPOINT 0 0 0 1 0 0 0
POINTS 967
DATA ascii
0.20041144 0.049737141 2.76800001 1.389840888e-38
0.20187429 0.049737141 2.76800001 1.399026259e-38
0.20333713 0.049737141 2.76800001 1.417430633e-38
0.20480001 0.049737141 2.76800001 1.43587088e-38
0.20626286 0.049737141 2.76800001 1.454451957e-38
0.33065718 0.052780956 2.81500006 1.640102564e-38
0.33220956 0.052780956 2.81500006 1.667691748e-38
0.3337619 0.052780956 2.81500006 1.704137279e-38
0.33490285 0.052716192 2.81400001 1.630416228e-38
0.33645332 0.052716192 2.81400001 1.556553226e-38
0.33841908 0.052780956 2.81500006 1.556087014e-38
0.33871999 0.052586671 2.81200004 1.565198116e-38
0.3394286 0.052457146 2.81000006 1.546794443e-38
0.34097144 0.052457146 2.81000006 1.537430406e-38
0.34251431 0.052457146 2.81000006 1.51888296e-38
0.34405717 0.052457146 2.81000006 1.509733882e-38
0.34560004 0.052457146 2.81000006 1.473070169e-38
0.34714288 0.052457146 2.81000006 1.445376448e-38
0.34868574 0.052457146 2.81000006 1.417108895e-38
0.35022858 0.052457146 2.81000006 1.398740394e-38
0.35177144 0.052457146 2.81000006 1.389591316e-38
0.35331431 0.052457146 2.81000006 1.389446702e-38
0.35573334 0.052586671 2.81200004 1.389302228e-38
0.35728002 0.052586671 2.81200004 1.389268457e-38
0.35794288 0.052457146 2.81000006 1.370867727e-38
0.35948575 0.052457146 2.81000006 1.361753121e-38
0.36192003 0.052586671 2.81200004 1.343455106e-38
0.36346668 0.052586671 2.81200004 1.325018222e-38
0.36591238 0.052716192 2.81400001 1.315729014e-38
0.36746284 0.052716192 2.81400001 1.315798379e-38
0.36901334 0.052716192 2.81400001 1.288353107e-38
0.37056381 0.052716192 2.81400001 1.269951957e-38
0.37211427 0.052716192 2.81400001 1.288285004e-38
0.37366474 0.052716192 2.81400001 1.315655726e-38
0.37521523 0.052716192 2.81400001 1.333878912e-38
0.37676573 0.052716192 2.81400001 1.352282445e-38
0.37831619 0.052716192 2.81400001 1.398057401e-38
0.37986669 0.052716192 2.81400001 1.444045354e-38
0.38141716 0.052716192 2.81400001 1.37947198e-38
0.38343811 0.052780956 2.81500006 1.324406976e-38
0.38499048 0.052780956 2.81500006 1.30607631e-38
0.38654289 0.052780956 2.81500006 1.287709491e-38
0.38809526 0.052780956 2.81500006 1.278526222e-38
0.38964766 0.052780956 2.81500006 1.269523019e-38
0.39120004 0.052780956 2.81500006 1.278635803e-38
0.39275238 0.052780956 2.81500006 1.297001361e-38
0.39527237 0.052910481 2.81700003 1.287780397e-38
0.39682859 0.052910481 2.81700003 1.27852454e-38
0.39936003 0.053040005 2.81900007 1.269304557e-38
0.40189907 0.053169526 2.82100004 1.269342252e-38
0.40346286 0.053169526 2.82100004 1.27859951e-38
0.40502667 0.053169526 2.82100004 1.287781378e-38
0.40659049 0.053169526 2.82100004 1.260300934e-38
0.40914857 0.053299047 2.82300001 1.241935376e-38
0.41071621 0.053299047 2.82300001 1.232789381e-38
0.41228381 0.053299047 2.82300001 1.232751967e-38
0.41385144 0.053299047 2.82300001 1.232750565e-38
0.41541904 0.053299047 2.82300001 1.242041595e-38
0.41800001 0.053428572 2.82500005 1.233001398e-38
0.41957143 0.053428572 2.82500005 1.223781274e-38
0.42216381 0.053558096 2.82700002 1.260478899e-38
0.42373908 0.053558096 2.82700002 1.306002882e-38
0.42634287 0.053687625 2.82900006 1.250902425e-38
0.42792192 0.053687625 2.82900006 1.20502069e-38
0.429501 0.053687625 2.82900006 1.195837421e-38
0.43212 0.053817146 2.83100003 1.186582265e-38
0.43370289 0.053817146 2.83100003 1.1681437e-38
0.1782362 0.051133335 2.76700002 1.030890859e-38
0.17922859 0.051000003 2.76500005 1.003161264e-38
0.18068573 0.051000003 2.76500005 1.049007826e-38
0.18261905 0.051133335 2.76700002 1.104037658e-38
0.18408 0.051133335 2.76700002 1.14080815e-38
0.18554096 0.051133335 2.76700002 1.177578502e-38
0.18724571 0.051200002 2.76800001 1.214492347e-38
0.18870857 0.051200002 2.76800001 1.242259216e-38
0.19066668 0.051333334 2.77000004 1.269882733e-38
0.19163428 0.051200002 2.76800001 1.297504287e-38
0.19309714 0.051200002 2.76800001 1.325269475e-38
0.19455999 0.051200002 2.76800001 1.362111433e-38
0.19602285 0.051200002 2.76800001 1.36207584e-38
0.19748572 0.051200002 2.76800001 1.371223236e-38
0.19894856 0.051200002 2.76800001 1.362147026e-38
0.20041144 0.051200002 2.76800001 1.36229178e-38
0.20187429 0.051200002 2.76800001 1.380660281e-38
0.20333713 0.051200002 2.76800001 1.399029902e-38
0.20533334 0.051333334 2.77000004 1.426690833e-38
0.20680001 0.051333334 2.77000004 1.44527093e-38
0.20826668 0.051333334 2.77000004 1.472891223e-38
0.3256 0.054266665 2.81400001 1.401118257e-38
0.32715046 0.054266665 2.81400001 1.539444633e-38
0.32870096 0.054266665 2.81400001 1.575353046e-38
0.33025143 0.054266665 2.81400001 1.611692218e-38
0.33180189 0.054266665 2.81400001 1.611691798e-38
0.33335239 0.054266665 2.81400001 1.61172641e-38
0.33490285 0.054266665 2.81400001 1.574775711e-38
0.33645332 0.054266665 2.81400001 1.528678877e-38
0.3363429 0.054000005 2.81000006 1.528463918e-38
0.33788574 0.054000005 2.81000006 1.528427204e-38
0.3385905 0.053866666 2.80800003 1.518919954e-38
0.34012952 0.053866666 2.80800003 1.509412424e-38
0.34166858 0.053866666 2.80800003 1.5002995e-38
0.34320763 0.053866666 2.80800003 1.491186156e-38
0.34474668 0.053866666 2.80800003 1.463562219e-38
0.34628573 0.053866666 2.80800003 1.435976397e-38
0.34868574 0.054000005 2.81000006 1.417107773e-38
0.3493638 0.053866666 2.80800003 1.398667526e-38
0.35090286 0.053866666 2.80800003 1.380299166e-38
0.35244194 0.053866666 2.80800003 1.361931927e-38
0.35485718 0.054000005 2.81000006 1.380298886e-38
0.35640001 0.054000005 2.81000006 1.389484818e-38
0.35794288 0.054000005 2.81000006 1.380339664e-38
0.35948575 0.054000005 2.81000006 1.371223376e-38
0.36102858 0.054000005 2.81000006 1.36189199e-38
0.36257148 0.054000005 2.81000006 1.352530896e-38
0.36501333 0.054133337 2.81200004 1.343349168e-38
0.36656001 0.054133337 2.81200004 1.343598459e-38
0.36810669 0.054133337 2.81200004 1.325193664e-38
0.36965334 0.054133337 2.81200004 1.306829088e-38
0.3712 0.054133337 2.81200004 1.315871807e-38
0.37274668 0.054133337 2.81200004 1.334130866e-38
0.37429336 0.054133337 2.81200004 1.334022966e-38
0.37584001 0.054133337 2.81200004 1.33395192e-38
0.37738666 0.054133337 2.81200004 1.34313617e-38
0.37986669 0.054266665 2.81400001 1.361501588e-38
0.38141716 0.054266665 2.81400001 1.343096934e-38
0.38296762 0.054266665 2.81400001 1.324695783e-38
0.38499048 0.054333337 2.81500006 1.315370562e-38
0.38654289 0.054333337 2.81500006 1.297002342e-38
0.38809526 0.054333337 2.81500006 1.278634122e-38
0.38964766 0.054333337 2.81500006 1.260302475e-38
0.39120004 0.054333337 2.81500006 1.269449871e-38
0.39275238 0.054333337 2.81500006 1.269449031e-38
0.39430478 0.054333337 2.81500006 1.27863188e-38
0.39682859 0.054466669 2.81700003 1.287958782e-38
0.39838478 0.054466669 2.81700003 1.269376303e-38
0.40092003 0.054600004 2.81900007 1.260157721e-38
0.40248004 0.054600004 2.81900007 1.278561534e-38
0.40404004 0.054600004 2.81900007 1.296962965e-38
0.40659049 0.054733332 2.82100004 1.260227366e-38
0.40815428 0.054733332 2.82100004 1.223531983e-38
0.4097181 0.054733332 2.82100004 1.19602015e-38
0.41128191 0.054733332 2.82100004 1.177507877e-38
0.41284573 0.054733332 2.82100004 1.186797504e-38
0.41541904 0.054866668 2.82300001 1.205164744e-38
0.41698667 0.054866668 2.82300001 1.177578502e-38
0.41957143 0.055000003 2.82500005 1.159210282e-38
0.42114288 0.055000003 2.82500005 1.195799866e-38
0.42373908 0.055133335 2.82700002 1.241574261e-38
0.42531431 0.055133335 2.82700002 1.20491209e-38
0.42792192 0.055266667 2.82900006 1.177504654e-38
0.43053716 0.055400003 2.83100003 1.177432767e-38
0.43212 0.055400003 2.83100003 1.177218088e-38
0.43370289 0.055400003 2.83100003 1.140520463e-38
0.17875999 0.05232 2.76300001 1.113398752e-38
0.18021333 0.05232 2.76300001 1.122367343e-38
0.18214287 0.052457143 2.76500005 1.131658932e-38
0.18408 0.052594289 2.76700002 1.131336634e-38
0.18554096 0.052594289 2.76700002 1.140664517e-38
0.18700191 0.052594289 2.76700002 1.131625441e-38
0.1892 0.052800003 2.77000004 1.131805788e-38
0.19066668 0.052800003 2.77000004 1.187087433e-38
0.19213334 0.052800003 2.77000004 1.251550526e-38
0.19309714 0.052662857 2.76800001 1.288463109e-38
0.19506668 0.052800003 2.77000004 1.325161995e-38
0.19602285 0.052662857 2.76800001 1.334346105e-38
0.19748572 0.052662857 2.76800001 1.352640757e-38
0.19894856 0.052662857 2.76800001 1.34338462e-38
0.20041144 0.052662857 2.76800001 1.334596517e-38
0.20187429 0.052662857 2.76800001 1.36229136e-38
0.20386668 0.052800003 2.77000004 1.389808097e-38
0.20533334 0.052800003 2.77000004 1.417540074e-38
0.20680001 0.052800003 2.77000004 1.445161629e-38
0.20880762 0.052937143 2.77200001 1.472890943e-38
0.21055049 0.053005718 2.77300006 1.509662136e-38
0.21202287 0.053005718 2.77300006 1.518918693e-38
0.21349525 0.053005718 2.77300006 1.528136715e-38
0.32480001 0.055680003 2.81200004 1.658364566e-38
0.3255429 0.05554286 2.81000006 1.676336218e-38
0.32789335 0.055680003 2.81200004 1.630023164e-38
0.32944003 0.055680003 2.81200004 1.583888915e-38
0.33098668 0.055680003 2.81200004 1.556121906e-38
0.3317143 0.05554286 2.81000006 1.52849867e-38
0.3324343 0.055405717 2.80800003 1.519242673e-38
0.33397332 0.055405717 2.80800003 1.510095137e-38
0.3355124 0.055405717 2.80800003 1.500732501e-38
0.33705145 0.055405717 2.80800003 1.491297279e-38
0.3385905 0.055405717 2.80800003 1.490902253e-38
0.33928764 0.055268575 2.80600005 1.491008751e-38
0.34082288 0.055268575 2.80600005 1.481824221e-38
0.34320763 0.055405717 2.80800003 1.472532211e-38
0.34474668 0.055405717 2.80800003 1.454056791e-38
0.34628573 0.055405717 2.80800003 1.435582212e-38
0.34782475 0.055405717 2.80800003 1.417107633e-38
0.3493638 0.055405717 2.80800003 1.398739133e-38
0.35090286 0.055405717 2.80800003 1.371187223e-38
0.35244194 0.055405717 2.80800003 1.343563706e-38
0.35398096 0.055405717 2.80800003 1.371077501e-38
0.35640001 0.05554286 2.81000006 1.398630392e-38
0.35705906 0.055405717 2.80800003 1.389556704e-38
0.35859811 0.055405717 2.80800003 1.380334899e-38
0.36102858 0.05554286 2.81000006 1.380332657e-38
0.36257148 0.05554286 2.81000006 1.389230202e-38
0.36501333 0.055680003 2.81200004 1.380191266e-38
0.36565718 0.05554286 2.81000006 1.371041768e-38
0.36810669 0.055680003 2.81200004 1.352744734e-38
0.36965334 0.055680003 2.81200004 1.343563146e-38
0.3712 0.055680003 2.81200004 1.343457348e-38
0.37274668 0.055680003 2.81200004 1.352461391e-38
0.37337145 0.05554286 2.81000006 1.334094152e-38
0.37491432 0.05554286 2.81000006 1.324767389e-38
0.37645715 0.05554286 2.81000006 1.297324641e-38
0.37800002 0.05554286 2.81000006 1.278777194e-38
0.37954286 0.05554286 2.81000006 1.306291129e-38
0.38202667 0.055680003 2.81200004 1.333842899e-38
0.38357335 0.055680003 2.81200004 1.324588724e-38
0.38606858 0.055817142 2.81400001 1.315440067e-38
0.38761905 0.055817142 2.81400001 1.287960323e-38
0.38964766 0.055885717 2.81500006 1.260265621e-38
0.39120004 0.055885717 2.81500006 1.251117524e-38
0.39275238 0.055885717 2.81500006 1.251116824e-38
0.39430478 0.055885717 2.81500006 1.269483362e-38
0.39585716 0.055885717 2.81500006 1.297033871e-38
0.39838478 0.056022856 2.81700003 1.278666772e-38
0.39994097 0.056022856 2.81700003 1.260228487e-38
0.40149716 0.056022856 2.81700003 1.278560413e-38
0.40502667 0.056297146 2.82100004 1.306146235e-38
0.40659049 0.056297146 2.82100004 1.250900884e-38
0.40815428 0.056297146 2.82100004 1.205200057e-38
0.4097181 0.056297146 2.82100004 1.159248117e-38
0.41128191 0.056297146 2.82100004 1.122477204e-38
0.41284573 0.056297146 2.82100004 1.140843463e-38
0.41440955 0.056297146 2.82100004 1.168395513e-38
0.41800001 0.056571428 2.82500005 1.131662716e-38
0.41957143 0.056571428 2.82500005 1.094854949e-38
0.42216381 0.056708574 2.82700002 1.131551593e-38
0.42373908 0.056708574 2.82700002 1.177397034e-38
0.42634287 0.056845717 2.82900006 1.168141317e-38
0.42792192 0.056845717 2.82900006 1.158993501e-38
0.429501 0.056845717 2.82900006 1.159029234e-38
0.43212 0.056982856 2.83100003 1.168106005e-38
0.43370289 0.056982856 2.83100003 1.112933801e-38
0.17974097 0.053632382 2.76100004 1.187117421e-38
0.18214287 0.05391429 2.76500005 1.214381644e-38
0.18408 0.05405524 2.76700002 1.186616317e-38
0.18554096 0.05405524 2.76700002 1.1679279e-38
0.18724571 0.054125715 2.76800001 1.149634228e-38
0.18969144 0.054407619 2.77200001 1.131339716e-38
0.19066668 0.054266669 2.77000004 1.159178192e-38
0.19213334 0.054266669 2.77000004 1.187265678e-38
0.19360001 0.054266669 2.77000004 1.242293968e-38
0.19506668 0.054266669 2.77000004 1.306543783e-38
0.19602285 0.054125715 2.76800001 1.343099596e-38
0.19748572 0.054125715 2.76800001 1.379689041e-38
0.19894856 0.054125715 2.76800001 1.35245999e-38
0.20041144 0.054125715 2.76800001 1.334487636e-38
0.2024 0.054266669 2.77000004 1.352962636e-38
0.20386668 0.054266669 2.77000004 1.371438616e-38
0.20533334 0.054266669 2.77000004 1.399134159e-38
0.20680001 0.054266669 2.77000004 1.435904791e-38
0.20880762 0.054407619 2.77200001 1.47263955e-38
0.21055049 0.054478098 2.77300006 1.509410042e-38
0.21202287 0.054478098 2.77300006 1.537032858e-38
0.21349525 0.054478098 2.77300006 1.564655113e-38
0.21552381 0.054619048 2.77500004 1.546323887e-38
0.21700001 0.054619048 2.77500004 1.527993362e-38
0.21904001 0.054760002 2.77700001 1.519025892e-38
0.22052 0.054760002 2.77700001 1.510058423e-38
0.222 0.054760002 2.77700001 1.51002339e-38
0.22290477 0.054619048 2.77500004 1.510236948e-38
0.22496 0.054760002 2.77700001 1.455062363e-38
0.22644001 0.054760002 2.77700001 1.399887637e-38
0.22792001 0.054760002 2.77700001 1.371833221e-38
0.22940001 0.054760002 2.77700001 1.352997668e-38
0.25984001 0.055253334 2.78400004 8.200991362e-39
0.26133335 0.055253334 2.78400004 7.834003906e-39
0.31853715 0.056662858 2.80400002 1.593795255e-38
0.32166097 0.056944765 2.80800003 1.593793573e-38
0.32320002 0.056944765 2.80800003 1.584106257e-38
0.32473907 0.056944765 2.80800003 1.583639064e-38
0.32627809 0.056944765 2.80800003 1.565199518e-38
0.3286286 0.057085719 2.81000006 1.546794583e-38
0.32935619 0.056944765 2.80800003 1.528317902e-38
0.33007622 0.056803815 2.80600005 1.509878776e-38
0.33078858 0.056662858 2.80400002 1.491583143e-38
0.33314669 0.056803815 2.80600005 1.482614973e-38
0.33468193 0.056803815 2.80600005 1.472893465e-38
0.33621716 0.056803815 2.80600005 1.454310987e-38
0.3377524 0.056803815 2.80600005 1.463351043e-38
0.33928764 0.056803815 2.80600005 1.463421669e-38
0.34082288 0.056803815 2.80600005 1.463277195e-38
0.34235811 0.056803815 2.80600005 1.453842532e-38
0.34389335 0.056803815 2.80600005 1.444658983e-38
0.34542859 0.056803815 2.80600005 1.435475013e-38
0.34696382 0.056803815 2.80600005 1.41707176e-38
0.34849906 0.056803815 2.80600005 1.407743316e-38
0.3500343 0.056803815 2.80600005 1.389518309e-38
0.35244194 0.056944765 2.80800003 1.371113374e-38
0.35310477 0.056803815 2.80600005 1.398626188e-38
0.35464004 0.056803815 2.80600005 1.435362489e-38
0.35617527 0.056803815 2.80600005 1.407778068e-38
0.35771051 0.056803815 2.80600005 1.389410689e-38
0.35924575 0.056803815 2.80600005 1.407669888e-38
0.36167619 0.056944765 2.80800003 1.425929648e-38
0.36321524 0.056944765 2.80800003 1.407634575e-38
0.36475429 0.056944765 2.80800003 1.389337541e-38
0.36629334 0.056944765 2.80800003 1.38026007e-38
0.36783236 0.056944765 2.80800003 1.371149388e-38
0.36937144 0.056944765 2.80800003 1.36175186e-38
0.3709105 0.056944765 2.80800003 1.361608367e-38
0.37244955 0.056944765 2.80800003 1.352353071e-38
0.3739886 0.056944765 2.80800003 1.352317057e-38
0.37552762 0.056944765 2.80800003 1.324694522e-38
0.37800002 0.057085719 2.81000006 1.306291409e-38
0.37954286 0.057085719 2.81000006 1.315474819e-38
0.38108575 0.057085719 2.81000006 1.333842338e-38
0.38357335 0.057226669 2.81200004 1.315547546e-38
0.38606858 0.057367619 2.81400001 1.306434902e-38
0.38761905 0.057367619 2.81400001 1.278775933e-38
0.38964766 0.057438098 2.81500006 1.251045217e-38
0.39120004 0.057438098 2.81500006 1.223529881e-38
0.39275238 0.057438098 2.81500006 1.205054742e-38
0.39430478 0.057438098 2.81500006 1.269518535e-38
0.39585716 0.057438098 2.81500006 1.333731496e-38
0.39740956 0.057438098 2.81500006 1.297033171e-38
0.39896193 0.057438098 2.81500006 1.269554689e-38
0.40149716 0.057579052 2.81700003 1.269447489e-38
0.40305334 0.057579052 2.81700003 1.278631179e-38
0.40560004 0.057720006 2.81900007 1.251116684e-38
0.40815428 0.057860952 2.82100004 1.214454652e-38
0.4097181 0.057860952 2.82100004 1.214419199e-38
0.41128191 0.057860952 2.82100004 1.214383326e-38
0.41284573 0.057860952 2.82100004 1.195872734e-38
0.41440955 0.057860952 2.82100004 1.177508157e-38
0.41698667 0.058001906 2.82300001 1.168434749e-38
0.41957143 0.058142859 2.82500005 1.159356437e-38
0.42216381 0.05828381 2.82700002 1.159067069e-38
0.42373908 0.05828381 2.82700002 1.159101821e-38
0.42634287 0.058424767 2.82900006 1.149881277e-38
0.42792192 0.058424767 2.82900006 1.149845264e-38
0.429501 0.058424767 2.82900006 1.149845124e-38
0.43212 0.058565717 2.83100003 1.149846245e-38
0.43370289 0.058565717 2.83100003 1.122081478e-38
0.17903239 0.054864764 2.75800002 1.261303283e-38
0.18166666 0.055226665 2.76300001 1.306145114e-38
0.18408 0.055516191 2.76700002 1.251259336e-38
0.18578286 0.055588569 2.76800001 1.195800146e-38
0.18724571 0.055588569 2.76800001 1.158923436e-38
0.1892 0.055733338 2.77000004 1.131338595e-38
0.1911619 0.055878095 2.77200001 1.131304404e-38
0.19213334 0.055733338 2.77000004 1.131841802e-38
0.19360001 0.055733338 2.77000004 1.205452991e-38
0.19506668 0.055733338 2.77000004 1.288033191e-38
0.19602285 0.055588569 2.76800001 1.343062882e-38
0.19748572 0.055588569 2.76800001 1.407275142e-38
0.19894856 0.055588569 2.76800001 1.370755343e-38
0.20041144 0.055588569 2.76800001 1.343456087e-38
0.2024 0.055733338 2.77000004 1.34370748e-38
0.20386668 0.055733338 2.77000004 1.35299991e-38
0.20586666 0.055878095 2.77200001 1.389950749e-38
0.20733716 0.055878095 2.77200001 1.435832904e-38
0.20880762 0.055878095 2.77200001 1.47253165e-38
0.21055049 0.055950481 2.77300006 1.509266269e-38
0.21202287 0.055950481 2.77300006 1.555220311e-38
0.21349525 0.055950481 2.77300006 1.601137778e-38
0.21552381 0.056095239 2.77500004 1.564439313e-38
0.21700001 0.056095239 2.77500004 1.537140337e-38
0.21847619 0.056095239 2.77500004 1.537212785e-38
0.21995239 0.056095239 2.77500004 1.546468641e-38
0.22142859 0.056095239 2.77500004 1.57412761e-38
0.22290477 0.056095239 2.77500004 1.610896701e-38
0.22496 0.05624 2.77700001 1.638518116e-38
0.22585715 0.056095239 2.77500004 1.666068624e-38
0.22733334 0.056095239 2.77500004 1.629872384e-38
0.22880954 0.056095239 2.77500004 1.592814066e-38
0.23028573 0.056095239 2.77500004 1.56497503e-38
0.25237334 0.056746669 2.78400004 9.105015245e-39
0.25451428 0.056891426 2.78600001 8.462147153e-39
0.25536001 0.056746669 2.78400004 7.924410078e-39
0.25750858 0.056891426 2.78600001 6.43100847e-39
0.2590057 0.056891426 2.78600001 5.078584493e-39
0.25984001 0.056746669 2.78400004 4.683976043e-39
0.26133335 0.056746669 2.78400004 4.318066185e-39
0.31695241 0.057904761 2.80000001 1.602473356e-38
0.32086477 0.058339052 2.80600005 1.556338827e-38
0.3224 0.058339052 2.80600005 1.519423721e-38
0.32393524 0.058339052 2.80600005 1.491728598e-38
0.32547048 0.058339052 2.80600005 1.500767674e-38
0.32700571 0.058339052 2.80600005 1.509771157e-38
0.32854095 0.058339052 2.80600005 1.500443414e-38
0.32761905 0.057904761 2.80000001 1.491367063e-38
0.32914287 0.057904761 2.80000001 1.473107163e-38
0.33066666 0.057904761 2.80000001 1.463672361e-38
0.33219048 0.057904761 2.80000001 1.445089882e-38
0.33454859 0.058049526 2.80200005 1.426650896e-38
0.3360762 0.058049526 2.80200005 1.435798573e-38
0.33760381 0.058049526 2.80200005 1.444838209e-38
0.33913144 0.058049526 2.80200005 1.444730169e-38
0.34065905 0.058049526 2.80200005 1.444622829e-38
0.34218669 0.058049526 2.80200005 1.43543956e-38
0.3437143 0.058049526 2.80200005 1.435403126e-38
0.34524193 0.058049526 2.80200005 1.426219156e-38
0.34676954 0.058049526 2.80200005 1.417034345e-38
0.34916574 0.058194283 2.80400002 1.407849675e-38
0.35069713 0.058194283 2.80400002 1.398700317e-38
0.35222855 0.058194283 2.80400002 1.435217734e-38
0.352 0.057904761 2.80000001 1.472133681e-38
0.35617527 0.058339052 2.80600005 1.435401725e-38
0.35771051 0.058339052 2.80600005 1.407707163e-38
0.35924575 0.058339052 2.80600005 1.435078025e-38
0.36078098 0.058339052 2.80600005 1.462629234e-38
0.36231622 0.058339052 2.80600005 1.435115019e-38
0.36385146 0.058339052 2.80600005 1.416889451e-38
0.36629334 0.058483809 2.80800003 1.4078117e-38
0.36783236 0.058483809 2.80800003 1.398522212e-38
0.36937144 0.058483809 2.80800003 1.380085048e-38
0.36999241 0.058339052 2.80600005 1.370685558e-38
0.37152764 0.058339052 2.80600005 1.370649124e-38
0.37306288 0.058339052 2.80600005 1.3797961e-38
0.37552762 0.058483809 2.80800003 1.361392427e-38
0.37706667 0.058483809 2.80800003 1.343025047e-38
0.37860572 0.058483809 2.80800003 1.333912824e-38
0.38108575 0.058628574 2.81000006 1.333912964e-38
0.38262862 0.058628574 2.81000006 1.315796977e-38
0.38606858 0.058918096 2.81400001 1.297214218e-38
0.38761905 0.058918096 2.81400001 1.269591403e-38
0.38916951 0.058918096 2.81400001 1.241896981e-38
0.39072001 0.058918096 2.81400001 1.195978952e-38
0.39275238 0.058990479 2.81500006 1.159280207e-38
0.39430478 0.058990479 2.81500006 1.269554268e-38
0.39585716 0.058990479 2.81500006 1.379792597e-38
0.39740956 0.058990479 2.81500006 1.324727172e-38
0.39896193 0.058990479 2.81500006 1.278738098e-38
0.4005143 0.058990479 2.81500006 1.269483082e-38
0.40305334 0.05913524 2.81700003 1.26026408e-38
0.40560004 0.059280004 2.81900007 1.241861668e-38
0.40815428 0.059424765 2.82100004 1.232642245e-38
0.4097181 0.059424765 2.82100004 1.26934057e-38
0.41128191 0.059424765 2.82100004 1.306038615e-38
0.41284573 0.059424765 2.82100004 1.241753488e-38
0.41440955 0.059424765 2.82100004 1.186689605e-38
0.41698667 0.059569523 2.82300001 1.205381244e-38
0.41957143 0.059714291 2.82500005 1.223568277e-38
0.42114288 0.059714291 2.82500005 1.177398715e-38
0.42373908 0.059859049 2.82700002 1.140699549e-38
0.42634287 0.060003813 2.82900006 1.140734582e-38
0.42792192 0.060003813 2.82900006 1.149846805e-38
0.429501 0.060003813 2.82900006 1.140699549e-38
0.43108001 0.060003813 2.82900006 1.13140824e-38
0.43265906 0.060003813 2.82900006 1.122045184e-38
0.17903239 0.056308571 2.75800002 9.391258482e-39
0.18166666 0.056679998 2.76300001 9.479505253e-39
0.18408 0.056977142 2.76700002 9.020686504e-39
0.18578286 0.057051428 2.76800001 8.561869157e-39
0.18969144 0.057348572 2.77200001 9.194701149e-39
0.1911619 0.057348572 2.77200001 9.65641498e-39
0.19213334 0.0572 2.77000004 1.021352501e-38
0.19360001 0.0572 2.77000004 1.086031813e-38
0.19557333 0.057348572 2.77200001 1.150172467e-38
0.19602285 0.057051428 2.76800001 1.232823713e-38
0.19748572 0.057051428 2.76800001 1.315475099e-38
0.19946668 0.0572 2.77000004 1.306398749e-38
0.20041144 0.057051428 2.76800001 1.297323099e-38
0.2024 0.0572 2.77000004 1.306865802e-38
0.20386668 0.0572 2.77000004 1.325377795e-38
0.20586666 0.057348572 2.77200001 1.371332818e-38
0.20733716 0.057348572 2.77200001 1.417322312e-38
0.20880762 0.057348572 2.77200001 1.444908974e-38
0.21055049 0.057422861 2.77300006 1.48160772e-38
0.21202287 0.057422861 2.77300006 1.518306606e-38
0.21349525 0.057422861 2.77300006 1.555040384e-38
0.21496764 0.057422861 2.77300006 1.546071653e-38
0.21644002 0.057422861 2.77300006 1.537103904e-38
0.21847619 0.057571433 2.77500004 1.537068591e-38
0.21995239 0.057571433 2.77500004 1.546252421e-38
0.22142859 0.057571433 2.77500004 1.56461994e-38
0.22290477 0.057571433 2.77500004 1.592206042e-38
0.22496 0.057719998 2.77700001 1.592313382e-38
0.22585715 0.057571433 2.77500004 1.601641826e-38
0.22792001 0.057719998 2.77700001 1.59281841e-38
0.22940001 0.057719998 2.77700001 1.583993032e-38
0.23087999 0.057719998 2.77700001 1.556370076e-38
0.23235999 0.057719998 2.77700001 1.528783834e-38
0.23383999 0.057719998 2.77700001 1.454634266e-38
0.24938668 0.058240004 2.78400004 1.317345272e-38
0.25088 0.058240004 2.78400004 1.308124168e-38
0.25237334 0.058240004 2.78400004 1.298902363e-38
0.25451428 0.058388572 2.78600001 1.280030656e-38
0.25536001 0.058240004 2.78400004 1.27034446e-38
0.25816384 0.058537148 2.78800005 1.169181641e-38
0.2590057 0.058388572 2.78600001 1.077238245e-38
0.26050287 0.058388572 2.78600001 1.039822175e-38
0.26199999 0.058388572 2.78600001 1.011589794e-38
0.31008002 0.059280004 2.79800004 1.658328833e-38
0.31120953 0.059205718 2.79700005 1.722433052e-38
0.31272763 0.059205718 2.79700005 1.666900015e-38
0.31464002 0.059280004 2.79800004 1.620622693e-38
0.31616002 0.059280004 2.79800004 1.574740118e-38
0.31768003 0.059280004 2.79800004 1.528210983e-38
0.32080004 0.059577145 2.80200005 1.509663117e-38
0.3203181 0.059205718 2.79700005 1.481967714e-38
0.3218362 0.059205718 2.79700005 1.472818916e-38
0.32457143 0.059428573 2.80000001 1.4636718e-38
0.32528001 0.059280004 2.79800004 1.454417205e-38
0.32680002 0.059280004 2.79800004 1.445125475e-38
0.32832003 0.059280004 2.79800004 1.435977238e-38
0.32984003 0.059280004 2.79800004 1.436012551e-38
0.33136001 0.059280004 2.79800004 1.426505722e-38
0.33371428 0.059428573 2.80000001 1.426326215e-38
0.3352381 0.059428573 2.80000001 1.453840991e-38
0.33676192 0.059428573 2.80000001 1.48139178e-38
0.33828571 0.059428573 2.80000001 1.453805538e-38
0.34065905 0.059577145 2.80200005 1.435403126e-38
0.34133333 0.059428573 2.80000001 1.426184264e-38
0.34285715 0.059428573 2.80000001 1.42614769e-38
0.34524193 0.059577145 2.80200005 1.416999453e-38
0.34590477 0.059428573 2.80000001 1.407850796e-38
0.34829718 0.059577145 2.80200005 1.407885688e-38
0.34982476 0.059577145 2.80200005 1.398736751e-38
0.35135239 0.059577145 2.80200005 1.417102729e-38
0.352 0.059428573 2.80000001 1.4446559e-38
0.35529143 0.059725717 2.80400002 1.417143647e-38
0.35593525 0.059577145 2.80200005 1.398488861e-38
0.35835427 0.059725717 2.80400002 1.4168554e-38
0.36078098 0.059874289 2.80600005 1.43522334e-38
0.36231622 0.059874289 2.80600005 1.426040771e-38
0.36385146 0.059874289 2.80600005 1.426074402e-38
0.36538669 0.059874289 2.80600005 1.416816864e-38
0.36692193 0.059874289 2.80600005 1.416747219e-38
0.36845717 0.059874289 2.80600005 1.398274742e-38
0.36999241 0.059874289 2.80600005 1.379798762e-38
0.37152764 0.059874289 2.80600005 1.389052937e-38
0.37306288 0.059874289 2.80600005 1.407239409e-38
0.37459812 0.059874289 2.80600005 1.379759246e-38
0.37613335 0.059874289 2.80600005 1.34306036e-38
0.37860572 0.060022857 2.80800003 1.333912123e-38
0.38014477 0.060022857 2.80800003 1.3247999e-38
0.38262862 0.060171433 2.81000006 1.297213097e-38
0.38512 0.060320001 2.81200004 1.278845858e-38
0.38761905 0.060468573 2.81400001 1.260335126e-38
0.38916951 0.060468573 2.81400001 1.241932293e-38
0.39072001 0.060468573 2.81400001 1.223637081e-38
0.39227048 0.060468573 2.81400001 1.205341307e-38
0.39430478 0.060542859 2.81500006 1.260370578e-38
0.39585716 0.060542859 2.81500006 1.324870665e-38
0.39740956 0.060542859 2.81500006 1.28806472e-38
0.39896193 0.060542859 2.81500006 1.251187309e-38
0.4005143 0.060542859 2.81500006 1.25107997e-38
0.40305334 0.060691431 2.81700003 1.241610135e-38
0.40460953 0.060691431 2.81700003 1.232534905e-38
0.40815428 0.060988571 2.82100004 1.213701034e-38
0.4097181 0.060988571 2.82100004 1.232534065e-38
0.41128191 0.060988571 2.82100004 1.25097235e-38
0.41284573 0.060988571 2.82100004 1.177503392e-38
0.41440955 0.060988571 2.82100004 1.104035696e-38
0.41698667 0.061137144 2.82300001 1.140806469e-38
0.41957143 0.061285719 2.82500005 1.177577521e-38
0.42114288 0.061285719 2.82500005 1.149848627e-38
0.42476386 0.06158286 2.82900006 1.131265588e-38
0.42634287 0.06158286 2.82900006 1.149775619e-38
0.4289543 0.061731428 2.83100003 1.168215446e-38
0.43053716 0.061731428 2.83100003 1.140630045e-38
0.43212 0.061731428 2.83100003 1.113006108e-38
0.43370289 0.061731428 2.83100003 1.094422368e-38
0.18969144 0.058819048 2.77200001 7.080682668e-39
0.19140953 0.058895241 2.77300006 8.091608807e-39
0.19263239 0.058819048 2.77200001 9.108610977e-39
0.19410285 0.058819048 2.77200001 9.666078334e-39
0.19557333 0.058819048 2.77200001 1.021637665e-38
0.19653335 0.058666669 2.77000004 1.122693004e-38
0.19851428 0.058819048 2.77200001 1.223567576e-38
0.19946668 0.058666669 2.77000004 1.232714412e-38
0.20093334 0.058666669 2.77000004 1.251333324e-38
0.20292571 0.058819048 2.77200001 1.279207533e-38
0.20439619 0.058819048 2.77200001 1.306866642e-38
0.20586666 0.058819048 2.77200001 1.352892991e-38
0.20733716 0.058819048 2.77200001 1.398918079e-38
0.20880762 0.058819048 2.77200001 1.42661208e-38
0.21055049 0.058895241 2.77300006 1.463274672e-38
0.21202287 0.058895241 2.77300006 1.481606039e-38
0.21349525 0.058895241 2.77300006 1.509085361e-38
0.21496764 0.058895241 2.77300006 1.518520444e-38
0.21644002 0.058895241 2.77300006 1.53695999e-38
0.21791239 0.058895241 2.77300006 1.546215847e-38
0.21938477 0.058895241 2.77300006 1.555363663e-38
0.22142859 0.059047621 2.77500004 1.564547353e-38
0.22232954 0.058895241 2.77300006 1.573838102e-38
0.22438096 0.059047621 2.77500004 1.555470723e-38
0.22585715 0.059047621 2.77500004 1.546288154e-38
0.22733334 0.059047621 2.77500004 1.555508698e-38
0.22940001 0.0592 2.77700001 1.573947123e-38
0.23087999 0.0592 2.77700001 1.546467941e-38
0.23235999 0.0592 2.77700001 1.528244334e-38
0.23383999 0.0592 2.77700001 1.528387967e-38
0.23532 0.0592 2.77700001 1.528495167e-38
0.2368 0.0592 2.77700001 1.537785916e-38
0.24428193 0.059580956 2.78200006 1.639166356e-38
0.24577145 0.059580956 2.78200006 1.65735465e-38
0.24726097 0.059580956 2.78200006 1.704385029e-38
0.24938668 0.059733335 2.78400004 1.749081125e-38
0.25024 0.059580956 2.78200006 1.712883063e-38
0.25237334 0.059733335 2.78400004 1.685260388e-38
0.2538667 0.059733335 2.78400004 1.712774883e-38
0.25536001 0.059733335 2.78400004 1.749724041e-38
0.25816384 0.060038101 2.78800005 1.694873575e-38
0.25966477 0.060038101 2.78800005 1.648848488e-38
0.25984001 0.059733335 2.78400004 1.6211905e-38
0.26133335 0.059733335 2.78400004 1.602356768e-38
0.26282668 0.059733335 2.78400004 1.436586383e-38
0.26432002 0.059733335 2.78400004 1.279999267e-38
0.29078665 0.060266666 2.79100001 6.888423117e-39
0.29229331 0.060266666 2.79100001 7.990077727e-39
0.2938 0.060266666 2.79100001 9.104674729e-39
0.29456002 0.060114287 2.78900003 1.058661512e-38
0.29568762 0.060038101 2.78800005 1.20663933e-38
0.29718858 0.060038101 2.78800005 1.391387361e-38
0.29868954 0.060038101 2.78800005 1.575383874e-38
0.30019048 0.060038101 2.78800005 1.713498514e-38
0.30169144 0.060038101 2.78800005 1.851361339e-38
0.30357715 0.060114287 2.78900003 1.768818834e-38
0.30508 0.060114287 2.78900003 1.695062891e-38
0.30813715 0.060419049 2.79300004 1.667224836e-38
0.30964762 0.060419049 2.79300004 1.639457406e-38
0.31115809 0.060419049 2.79300004 1.611438864e-38
0.31345713 0.060571428 2.79500002 1.583815347e-38
0.31497142 0.060571428 2.79500002 1.547044154e-38
0.31768003 0.060800005 2.79800004 1.509412284e-38
0.3188 0.060723811 2.79700005 1.491008611e-38
0.3195143 0.060571428 2.79500002 1.481859954e-38
0.32102859 0.060571428 2.79500002 1.454380071e-38
0.32376003 0.060800005 2.79800004 1.426793829e-38
0.3248724 0.060723811 2.79700005 1.40842701e-38
0.3263905 0.060723811 2.79700005 1.399099687e-38
0.32790858 0.060723811 2.79700005 1.398955914e-38
0.32942668 0.060723811 2.79700005 1.408031844e-38
0.33136001 0.060800005 2.79800004 1.417143647e-38
0.33288002 0.060800005 2.79800004 1.435510185e-38
0.33440003 0.060800005 2.79800004 1.472243963e-38
0.33592001 0.060800005 2.79800004 1.518089825e-38
0.33744001 0.060800005 2.79800004 1.472171937e-38
0.33980954 0.06095238 2.80000001 1.426219577e-38
0.34133333 0.06095238 2.80000001 1.417001555e-38
0.34200001 0.060800005 2.79800004 1.417000294e-38
0.34438094 0.06095238 2.80000001 1.407959116e-38
0.34590477 0.06095238 2.80000001 1.407850936e-38
0.34742859 0.06095238 2.80000001 1.407706742e-38
0.34895238 0.06095238 2.80000001 1.407813381e-38
0.35047618 0.06095238 2.80000001 1.40791988e-38
0.352 0.06095238 2.80000001 1.417068117e-38
0.35352382 0.06095238 2.80000001 1.408064354e-38
0.35593525 0.061104763 2.80200005 1.398594659e-38
0.35835427 0.061257143 2.80400002 1.407814923e-38
0.35988572 0.061257143 2.80400002 1.416998893e-38
0.36141714 0.061257143 2.80400002 1.426183003e-38
0.36294857 0.061257143 2.80400002 1.435221378e-38
0.36448002 0.061257143 2.80400002 1.435183823e-38
0.36692193 0.061409526 2.80600005 1.444189688e-38
0.36845717 0.061409526 2.80600005 1.416533101e-38
0.36907429 0.061257143 2.80400002 1.389017064e-38
0.37152764 0.061409526 2.80600005 1.416638198e-38
0.37306288 0.061409526 2.80600005 1.444151713e-38
0.37459812 0.061409526 2.80600005 1.398232844e-38
0.37706667 0.061561905 2.80800003 1.352242929e-38
0.37860572 0.061561905 2.80800003 1.33376793e-38
0.38014477 0.061561905 2.80800003 1.315436563e-38
0.38262862 0.061714288 2.81000006 1.287957661e-38
0.38417146 0.061714288 2.81000006 1.269627136e-38
0.38761905 0.06201905 2.81400001 1.260264921e-38
0.38916951 0.06201905 2.81400001 1.251116543e-38
0.39072001 0.06201905 2.81400001 1.251259336e-38
0.39227048 0.06201905 2.81400001 1.251223603e-38
0.39382094 0.06201905 2.81400001 1.260407292e-38
0.39585716 0.062095243 2.81500006 1.269699723e-38
0.39740956 0.062095243 2.81500006 1.251477378e-38
0.39896193 0.062095243 2.81500006 1.232822592e-38
0.4005143 0.062095243 2.81500006 1.232678258e-38
0.40206671 0.062095243 2.81500006 1.232391412e-38
0.40460953 0.062247619 2.81700003 1.214024453e-38
0.40815428 0.062552378 2.82100004 1.204876357e-38
0.4097181 0.062552378 2.82100004 1.204911809e-38
0.41128191 0.062552378 2.82100004 1.205018729e-38
0.41284573 0.062552378 2.82100004 1.113326165e-38
0.41440955 0.062552378 2.82100004 1.030675059e-38
0.41698667 0.062704764 2.82300001 1.076593788e-38
0.41957143 0.062857144 2.82500005 1.131589428e-38
0.42114288 0.062857144 2.82500005 1.12230036e-38
0.42476386 0.06316191 2.82900006 1.122227073e-38
0.42634287 0.06316191 2.82900006 1.149704433e-38
0.4289543 0.063314289 2.83100003 1.186474785e-38
0.429501 0.06316191 2.82900006 1.140593191e-38
0.43212 0.063314289 2.83100003 1.094602575e-38
0.43370289 0.063314289 2.83100003 1.066799693e-38
0.18969144 0.060289524 2.77200001 7.448017646e-39
0.19140953 0.060367625 2.77300006 8.091593393e-39
0.19263239 0.060289524 2.77200001 8.830576546e-39
0.19410285 0.060289524 2.77200001 9.386966305e-39
0.19557333 0.060289524 2.77200001 1.003269725e-38
0.19704382 0.060289524 2.77200001 1.094999003e-38
0.19851428 0.060289524 2.77200001 1.186725478e-38
0.20024382 0.060367625 2.77300006 1.205198936e-38
0.2017162 0.060367625 2.77300006 1.223746522e-38
0.20292571 0.060289524 2.77200001 1.251334165e-38
0.20466097 0.060367625 2.77300006 1.278920967e-38
0.20613335 0.060367625 2.77300006 1.316050192e-38
0.20760573 0.060367625 2.77300006 1.352999069e-38
0.20880762 0.060289524 2.77200001 1.389804594e-38
0.21055049 0.060367625 2.77300006 1.426646132e-38
0.21202287 0.060367625 2.77300006 1.444833725e-38
0.21349525 0.060367625 2.77300006 1.463130339e-38
0.21496764 0.060367625 2.77300006 1.490825882e-38
0.21616 0.060289524 2.77200001 1.518413105e-38
0.21763048 0.060289524 2.77200001 1.509266129e-38
0.21910095 0.060289524 2.77200001 1.509301862e-38
0.22085716 0.060367625 2.77300006 1.527812454e-38
0.22232954 0.060367625 2.77300006 1.546286753e-38
0.22438096 0.060523812 2.77500004 1.52788336e-38
0.22585715 0.060523812 2.77500004 1.518664638e-38
0.22733334 0.060523812 2.77500004 1.55532779e-38
0.22880954 0.060523812 2.77500004 1.591990102e-38
0.23087999 0.060679998 2.77700001 1.536960411e-38
0.23235999 0.060679998 2.77700001 1.491150142e-38
0.23383999 0.060679998 2.77700001 1.500441171e-38
0.23532 0.060679998 2.77700001 1.509767934e-38
0.2368 0.060679998 2.77700001 1.518987076e-38
0.23889334 0.060836192 2.77900004 1.52820748e-38
0.24037716 0.060836192 2.77900004 1.546647447e-38
0.24186096 0.060836192 2.77900004 1.565123427e-38
0.24334477 0.060836192 2.77900004 1.574415858e-38
0.24514288 0.060914289 2.78000003 1.574560331e-38
0.24662858 0.060914289 2.78000003 1.574633059e-38
0.24875049 0.061070483 2.78200006 1.583922126e-38
0.25024 0.061070483 2.78200006 1.583884151e-38
0.25172952 0.061070483 2.78200006 1.583885833e-38
0.25321907 0.061070483 2.78200006 1.574811724e-38
0.25470859 0.061070483 2.78200006 1.574954937e-38
0.25685334 0.06122667 2.78400004 1.57499067e-38
0.25834668 0.06122667 2.78400004 1.575063257e-38
0.25984001 0.06122667 2.78400004 1.565880689e-38
0.26066667 0.061070483 2.78200006 1.556696719e-38
0.26215622 0.061070483 2.78200006 1.48233121e-38
0.26364574 0.061070483 2.78200006 1.409220705e-38
0.26513526 0.061070483 2.78200006 1.445882457e-38
0.26730669 0.06122667 2.78400004 1.491759567e-38
0.2681143 0.061070483 2.78200006 1.363185108e-38
0.26960382 0.061070483 2.78200006 1.234614432e-38
0.27178666 0.06122667 2.78400004 1.197197802e-38
0.27327999 0.06122667 2.78400004 1.168965561e-38
0.29001144 0.061929524 2.79300004 1.141354236e-38
0.29078665 0.061773334 2.79100001 1.197134463e-38
0.29229331 0.061773334 2.79100001 1.271604788e-38
0.29305717 0.061617147 2.78900003 1.355264408e-38
0.29456002 0.061617147 2.78900003 1.400862661e-38
0.29568762 0.06153905 2.78800005 1.455678374e-38
0.29718858 0.06153905 2.78800005 1.520072382e-38
0.29868954 0.06153905 2.78800005 1.584823722e-38
0.30019048 0.06153905 2.78800005 1.63971006e-38
0.30169144 0.06153905 2.78800005 1.703779948e-38
0.30357715 0.061617147 2.78900003 1.676373213e-38
0.30585334 0.061773334 2.79100001 1.63981768e-38
0.30735999 0.061773334 2.79100001 1.63949426e-38
0.30964762 0.061929524 2.79300004 1.62998603e-38
0.31115809 0.061929524 2.79300004 1.611473616e-38
0.31266859 0.061929524 2.79300004 1.592961482e-38
0.31417906 0.061929524 2.79300004 1.528244755e-38
0.3164857 0.062085714 2.79500002 1.472282359e-38
0.31799999 0.062085714 2.79500002 1.454166373e-38
0.31871051 0.061929524 2.79300004 1.445053729e-38
0.32022098 0.061929524 2.79300004 1.39913528e-38
0.32173145 0.061929524 2.79300004 1.353217392e-38
0.32405716 0.062085714 2.79500002 1.371440998e-38
0.32557142 0.062085714 2.79500002 1.389700477e-38
0.3270857 0.062085714 2.79500002 1.398884167e-38
0.32859999 0.062085714 2.79500002 1.408068137e-38
0.33094481 0.062241908 2.79700005 1.417144487e-38
0.33246288 0.062241908 2.79700005 1.426183563e-38
0.33398098 0.062241908 2.79700005 1.435366272e-38
0.33549905 0.062241908 2.79700005 1.444585134e-38
0.33701715 0.062241908 2.79700005 1.435401164e-38
0.33896002 0.062320005 2.79800004 1.416928547e-38
0.34048003 0.062320005 2.79800004 1.416966523e-38
0.34200001 0.062320005 2.79800004 1.417036588e-38
0.34352002 0.062320005 2.79800004 1.407851356e-38
0.34504002 0.062320005 2.79800004 1.407851076e-38
0.34656003 0.062320005 2.79800004 1.389340204e-38
0.34808001 0.062320005 2.79800004 1.380191546e-38
0.35047618 0.062476188 2.80000001 1.389481875e-38
0.35112002 0.062320005 2.79800004 1.398699756e-38
0.35352382 0.062476188 2.80000001 1.389514665e-38
0.35504764 0.062476188 2.80000001 1.380333358e-38
0.35746288 0.062632389 2.80200005 1.371116317e-38
0.35899049 0.062632389 2.80200005 1.352749218e-38
0.3605181 0.062632389 2.80200005 1.389447543e-38
0.36294857 0.062788568 2.80400002 1.416853578e-38
0.36448002 0.062788568 2.80400002 1.41678071e-38
0.36601144 0.062788568 2.80400002 1.416458972e-38
0.36754286 0.062788568 2.80400002 1.389017204e-38
0.36907429 0.062788568 2.80400002 1.370756324e-38
0.37060574 0.062788568 2.80400002 1.379938612e-38
0.37306288 0.062944762 2.80600005 1.389121041e-38
0.37459812 0.062944762 2.80600005 1.352313975e-38
0.37613335 0.062944762 2.80600005 1.324727312e-38
0.37860572 0.063100956 2.80800003 1.30621658e-38
0.38014477 0.063100956 2.80800003 1.287849621e-38
0.38262862 0.06325715 2.81000006 1.269662168e-38
0.38417146 0.06325715 2.81000006 1.251440103e-38
0.38571432 0.06325715 2.81000006 1.241971109e-38
0.38916951 0.063569523 2.81400001 1.241933695e-38
0.39072001 0.063569523 2.81400001 1.269590562e-38
0.39227048 0.063569523 2.81400001 1.297285264e-38
0.39382094 0.063569523 2.81400001 1.278596006e-38
0.39585716 0.06364762 2.81500006 1.260159683e-38
0.39740956 0.06364762 2.81500006 1.232719176e-38
0.39896193 0.06364762 2.81500006 1.214457875e-38
0.4005143 0.06364762 2.81500006 1.205021391e-38
0.40206671 0.06364762 2.81500006 1.204841464e-38
0.40460953 0.063803814 2.81700003 1.195693368e-38
0.40616575 0.063803814 2.81700003 1.186545271e-38
0.40872002 0.063960001 2.81900007 1.177325428e-38
0.41128191 0.064116195 2.82100004 1.177432347e-38
0.41284573 0.064116195 2.82100004 1.122222869e-38
0.41440955 0.064116195 2.82100004 1.076234355e-38
0.41698667 0.064272381 2.82300001 1.094710195e-38
0.41957143 0.064428575 2.82500005 1.113187857e-38
0.42114288 0.064428575 2.82500005 1.103935643e-38
0.42373908 0.064584762 2.82700002 1.094713838e-38
0.42634287 0.064740956 2.82900006 1.094603836e-38
0.4289543 0.06489715 2.83100003 1.103786826e-38
0.429501 0.064740956 2.82900006 1.085419166e-38
0.43212 0.06489715 2.83100003 1.076234775e-38
0.43370289 0.06489715 2.83100003 1.057902849e-38
0.19263239 0.061759997 2.77200001 8.555074261e-39
0.19410285 0.061759997 2.77200001 9.199717797e-39
0.19557333 0.061759997 2.77200001 9.84436834e-39
0.19704382 0.061759997 2.77200001 1.067304861e-38
0.19851428 0.061759997 2.77200001 1.150027713e-38
0.20024382 0.061840005 2.77300006 1.177721014e-38
0.20145524 0.061759997 2.77200001 1.205272083e-38
0.20318858 0.061840005 2.77300006 1.223639603e-38
0.20466097 0.061840005 2.77300006 1.251190532e-38
0.20613335 0.061840005 2.77300006 1.279207813e-38
0.20760573 0.061840005 2.77300006 1.315977605e-38
0.2090781 0.061840005 2.77300006 1.352747536e-38
0.21055049 0.061840005 2.77300006 1.389589775e-38
0.21202287 0.061840005 2.77300006 1.408065054e-38
0.21349525 0.061840005 2.77300006 1.426396561e-38
0.21496764 0.061840005 2.77300006 1.463238519e-38
0.21644002 0.061840005 2.77300006 1.499973558e-38
0.21791239 0.061840005 2.77300006 1.4816073e-38
0.21938477 0.061840005 2.77300006 1.472422769e-38
0.22085716 0.061840005 2.77300006 1.491076014e-38
0.22232954 0.061840005 2.77300006 1.518662676e-38
0.22438096 0.062000006 2.77500004 1.50951514e-38
0.22585715 0.062000006 2.77500004 1.500224811e-38
0.22733334 0.062000006 2.77500004 1.55521933e-38
0.22880954 0.062000006 2.77500004 1.610320347e-38
0.23028573 0.062000006 2.77500004 1.536887543e-38
0.2317619 0.062000006 2.77500004 1.463491173e-38
0.2332381 0.062000006 2.77500004 1.472782623e-38
0.2347143 0.062000006 2.77500004 1.491113708e-38
0.23619048 0.062000006 2.77500004 1.491113568e-38
0.23828 0.062159996 2.77700001 1.500369425e-38
0.23976 0.062159996 2.77700001 1.509661155e-38
0.24186096 0.062320005 2.77900004 1.518736945e-38
0.24334477 0.062320005 2.77900004 1.509481648e-38
0.24482858 0.062320005 2.77900004 1.500228174e-38
0.24631239 0.062320005 2.77900004 1.454276234e-38
0.2481143 0.062400002 2.78000003 1.417504901e-38
0.24960001 0.062400002 2.78000003 1.445054149e-38
0.25172952 0.06256 2.78200006 1.481788768e-38
0.25257143 0.062400002 2.78000003 1.43587158e-38
0.25405714 0.062400002 2.78000003 1.399102209e-38
0.25619811 0.06256 2.78200006 1.444984925e-38
0.25768763 0.06256 2.78200006 1.500122656e-38
0.25917715 0.06256 2.78200006 1.509378513e-38
0.26066667 0.06256 2.78200006 1.518741008e-38
0.2614857 0.062400002 2.78000003 1.528103504e-38
0.26364574 0.06256 2.78200006 1.546613956e-38
0.26513526 0.06256 2.78200006 1.601858606e-38
0.26662478 0.06256 2.78200006 1.666320998e-38
0.2681143 0.06256 2.78200006 1.712775023e-38
0.26960382 0.06256 2.78200006 1.767768981e-38
0.27109334 0.06256 2.78200006 1.69480323e-38
0.27258289 0.06256 2.78200006 1.62108344e-38
0.27477336 0.062720001 2.78400004 1.528996551e-38
0.27697143 0.062880002 2.78600001 1.436622816e-38
0.27846858 0.062880002 2.78600001 1.417753352e-38
0.28067809 0.063040003 2.78800005 1.408928534e-38
0.28253713 0.06312 2.78900003 1.473571974e-38
0.28404 0.06312 2.78900003 1.547149112e-38
0.28626668 0.063280001 2.79100001 1.593175741e-38
0.28704572 0.06312 2.78900003 1.648781506e-38
0.28928003 0.063280001 2.79100001 1.676872636e-38
0.29078665 0.063280001 2.79100001 1.704421042e-38
0.29229331 0.063280001 2.79100001 1.750372562e-38
0.2938 0.063280001 2.79100001 1.805259881e-38
0.29418668 0.063040003 2.78800005 1.749944745e-38
0.29493713 0.062880002 2.78600001 1.703956512e-38
0.29643428 0.062880002 2.78600001 1.648784589e-38
0.29793143 0.062880002 2.78600001 1.593575671e-38
0.29942855 0.062880002 2.78600001 1.575136966e-38
0.30092573 0.062880002 2.78600001 1.565917683e-38
0.30242285 0.062880002 2.78600001 1.575101513e-38
0.30392 0.062880002 2.78600001 1.593215678e-38
0.30619431 0.063040003 2.78800005 1.611365576e-38
0.30769524 0.063040003 2.78800005 1.629516595e-38
0.3091962 0.063040003 2.78800005 1.610969288e-38
0.31069717 0.063040003 2.78800005 1.601533926e-38
0.3121981 0.063040003 2.78800005 1.518630166e-38
0.31489334 0.063280001 2.79100001 1.4356555e-38
0.31639999 0.063280001 2.79100001 1.417324554e-38
0.31790668 0.063280001 2.79100001 1.408176177e-38
0.31941333 0.063280001 2.79100001 1.343962516e-38
0.32173145 0.063440003 2.79300004 1.288789192e-38
0.32324192 0.063440003 2.79300004 1.334563166e-38
0.32475239 0.063440003 2.79300004 1.380480774e-38
0.32626286 0.063440003 2.79300004 1.398775987e-38
0.32777333 0.063440003 2.79300004 1.417144487e-38
0.33011428 0.063599996 2.79500002 1.417145889e-38
0.33162859 0.063599996 2.79500002 1.426184264e-38
0.33314288 0.063599996 2.79500002 1.398667947e-38
0.33465716 0.063599996 2.79500002 1.380299306e-38
0.33617145 0.063599996 2.79500002 1.398665004e-38
0.33853528 0.063760005 2.79700005 1.416998332e-38
0.34005335 0.063760005 2.79700005 1.416964421e-38
0.34157145 0.063760005 2.79700005 1.41696386e-38
0.34308955 0.063760005 2.79700005 1.4169633e-38
0.34460762 0.063760005 2.79700005 1.416926726e-38
0.34612575 0.063760005 2.79700005 1.380155953e-38
0.34764382 0.063760005 2.79700005 1.352640617e-38
0.34960002 0.063840002 2.79800004 1.371078902e-38
0.35112002 0.063840002 2.79800004 1.389481735e-38
0.35264 0.063840002 2.79800004 1.380333918e-38
0.35504764 0.064000003 2.80000001 1.371151209e-38
0.35746288 0.064160004 2.80200005 1.334453725e-38
0.35899049 0.064160004 2.80200005 1.297611907e-38
0.3605181 0.064160004 2.80200005 1.352713204e-38
0.36204571 0.064160004 2.80200005 1.407633875e-38
0.36357334 0.064160004 2.80200005 1.398413331e-38
0.36510098 0.064160004 2.80200005 1.398306272e-38
0.36754286 0.064320005 2.80400002 1.370684297e-38
0.36815622 0.064160004 2.80200005 1.352316497e-38
0.37060574 0.064320005 2.80400002 1.343347626e-38
0.37213716 0.064320005 2.80400002 1.334163096e-38
0.37459812 0.064479999 2.80600005 1.315795016e-38
0.37613335 0.064479999 2.80600005 1.297069044e-38
0.37860572 0.06464 2.80800003 1.278665931e-38
0.38014477 0.06464 2.80800003 1.260334845e-38
0.3816838 0.06464 2.80800003 1.251402689e-38
0.38322285 0.06464 2.80800003 1.24211222e-38
0.38571432 0.064800009 2.81000006 1.232857624e-38
0.38821337 0.064960003 2.81200004 1.232821191e-38
0.39072001 0.065119997 2.81400001 1.287922068e-38
0.39227048 0.065119997 2.81400001 1.342880433e-38
0.39382094 0.065119997 2.81400001 1.296819753e-38
0.39537144 0.065119997 2.81400001 1.250939139e-38
0.39740956 0.065200008 2.81500006 1.223533244e-38
0.39847237 0.065119997 2.81400001 1.205021671e-38
0.4005143 0.065200008 2.81500006 1.186545971e-38
0.40206671 0.065200008 2.81500006 1.177362562e-38
0.40361905 0.065200008 2.81500006 1.167963913e-38
0.40716004 0.065520003 2.81900007 1.168035099e-38
0.40872002 0.065520003 2.81900007 1.158958749e-38
0.41128191 0.065680005 2.82100004 1.159029654e-38
0.41284573 0.065680005 2.82100004 1.140661855e-38
0.41440955 0.065680005 2.82100004 1.122152243e-38
0.41698667 0.065840006 2.82300001 1.103821998e-38
0.41855428 0.065840006 2.82300001 1.09453223e-38
0.42114288 0.066 2.82500005 1.076059053e-38
