# .PCD v0.7 - Point Cloud Data file format
VERSION 0.7
FIELDS x y z rgb
SIZE 4 4 4 4
TYPE F F F F
COUNT 1 1 1 1
WIDTH 968
HEIGHT 1
VIEWPOINT 0 0 0 1 0 0 0
POINTS 968
DATA ascii
0.20769525 -0.12032001 2.75200003 1.407707583e-38
0.20912763 -0.12032001 2.75200003 1.435366833e-38
0.21056001 -0.12032001 2.75200003 1.462882029e-38
0.21199238 -0.12032001 2.75200003 1.490397365e-38
0.21342477 -0.12032001 2.75200003 1.527275196e-38
0.21485715 -0.12032001 2.75200003 1.545857675e-38
0.21628952 -0.12032001 2.75200003 1.573192804e-38
0.21772192 -0.12032001 2.75200003 1.57326413e-38
0.21944571 -0.12048 2.75300002 1.573299163e-38
0.22088 -0.12048 2.75300002 1.564186519e-38
0.22290477 -0.12080001 2.75500005 1.555039683e-38
0.22434287 -0.12080001 2.75500005 1.509158789e-38
0.22578098 -0.12080001 2.75500005 1.463276914e-38
0.22752 -0.12096001 2.75600004 1.48171576e-38
0.22896002 -0.12096001 2.75600004 1.50937501e-38
0.23100951 -0.12128 2.75800002 1.481897228e-38
0.23245333 -0.12128 2.75800002 1.4544549e-38
0.23389715 -0.12128 2.75800002 1.408681205e-38
0.12774858 -0.11525144 2.72900003 1.389699917e-38
0.12913714 -0.11525144 2.72900003 1.360858672e-38
0.13052571 -0.11525144 2.72900003 1.389199373e-38
0.13191429 -0.11525144 2.72900003 1.425933431e-38
0.13330285 -0.11525144 2.72900003 1.453519954e-38
0.13506095 -0.11556762 2.73100001 1.490290306e-38
0.13645333 -0.11556762 2.73100001 1.462847697e-38
0.13784572 -0.11556762 2.73100001 1.444587376e-38
0.13923809 -0.11556762 2.73100001 1.444658422e-38
0.14063048 -0.11556762 2.73100001 1.435511026e-38
0.14221716 -0.11572572 2.73200005 1.435511306e-38
0.14361143 -0.11572572 2.73200005 1.444696678e-38
0.14500572 -0.11572572 2.73200005 1.453917922e-38
0.14640002 -0.11572572 2.73200005 1.472356488e-38
0.16469143 -0.11683238 2.73900002 1.326463521e-38
0.16609906 -0.11683238 2.73900002 1.280617099e-38
0.19428572 -0.11857144 2.75000006 1.170668279e-38
0.19571429 -0.11857144 2.75000006 1.179808388e-38
0.19766857 -0.11888763 2.75200003 1.206562399e-38
0.19910097 -0.11888763 2.75200003 1.233323136e-38
0.2008 -0.11904571 2.75300002 1.223708407e-38
0.2022343 -0.11904571 2.75300002 1.223745821e-38
0.20366858 -0.11904571 2.75300002 1.278920547e-38
0.20483048 -0.11888763 2.75200003 1.334094572e-38
0.20626286 -0.11888763 2.75200003 1.361682075e-38
0.20769525 -0.11888763 2.75200003 1.389305592e-38
0.20912763 -0.11888763 2.75200003 1.426041051e-38
0.21056001 -0.11888763 2.75200003 1.4535917e-38
0.21199238 -0.11888763 2.75200003 1.481178222e-38
0.21342477 -0.11888763 2.75200003 1.508908798e-38
0.21485715 -0.11888763 2.75200003 1.527384077e-38
0.21628952 -0.11888763 2.75200003 1.554898012e-38
0.21772192 -0.11888763 2.75200003 1.564080861e-38
0.21944571 -0.11904571 2.75300002 1.564079039e-38
0.22088 -0.11904571 2.75300002 1.58258795e-38
0.22290477 -0.11936191 2.75500005 1.61013986e-38
0.22434287 -0.11936191 2.75500005 1.555039823e-38
0.22578098 -0.11936191 2.75500005 1.509157668e-38
0.22752 -0.11952001 2.75600004 1.509193401e-38
0.22896002 -0.11952001 2.75600004 1.509337875e-38
0.23100951 -0.11983619 2.75800002 1.500119573e-38
0.23245333 -0.11983619 2.75800002 1.490936164e-38
0.2345143 -0.12015239 2.76000005 1.454309865e-38
0.23596191 -0.12015239 2.76000005 1.417687631e-38
0.12636001 -0.11386286 2.72900003 1.417756575e-38
0.12774858 -0.11386286 2.72900003 1.38894728e-38
0.12913714 -0.11386286 2.72900003 1.361361178e-38
0.13034669 -0.11370667 2.72800004 1.398059923e-38
0.13191429 -0.11386286 2.72900003 1.435008941e-38
0.13312 -0.11370667 2.72800004 1.490181425e-38
0.13469143 -0.11386286 2.72900003 1.554646059e-38
0.13608 -0.11386286 2.72900003 1.51801976e-38
0.13784572 -0.11417524 2.73100001 1.481320874e-38
0.13923809 -0.11417524 2.73100001 1.462989088e-38
0.14063048 -0.11417524 2.73100001 1.453769805e-38
0.14221716 -0.11433144 2.73200005 1.462953495e-38
0.14361143 -0.11433144 2.73200005 1.472102292e-38
0.14500572 -0.11433144 2.73200005 1.481287103e-38
0.14640002 -0.11433144 2.73200005 1.490470653e-38
0.14779429 -0.11433144 2.73200005 1.472103553e-38
0.15000382 -0.1149562 2.73600006 1.45380778e-38
0.15161145 -0.11511239 2.73700005 1.444695557e-38
0.15301526 -0.11511239 2.73700005 1.435512988e-38
0.15441906 -0.11511239 2.73700005 1.435549982e-38
0.15624571 -0.11542477 2.73900002 1.435765502e-38
0.15765335 -0.11542477 2.73900002 1.445164571e-38
0.15906096 -0.11542477 2.73900002 1.454384415e-38
0.16046858 -0.11542477 2.73900002 1.472823821e-38
0.16187619 -0.11542477 2.73900002 1.500410763e-38
0.16328381 -0.11542477 2.73900002 1.482079958e-38
0.16491428 -0.11558095 2.74000001 1.472932141e-38
0.16632381 -0.11558095 2.74000001 1.381132378e-38
0.19793142 -0.11761143 2.75300002 1.234765212e-38
0.19989525 -0.11792382 2.75500005 1.270492297e-38
0.20133334 -0.11792382 2.75500005 1.278919846e-38
0.20277144 -0.11792382 2.75500005 1.288068223e-38
0.20366858 -0.11761143 2.75300002 1.324767249e-38
0.20510286 -0.11761143 2.75300002 1.361502008e-38
0.20626286 -0.11745524 2.75200003 1.370686118e-38
0.20769525 -0.11745524 2.75200003 1.379978129e-38
0.20912763 -0.11745524 2.75200003 1.416713308e-38
0.21056001 -0.11745524 2.75200003 1.45359142e-38
0.21199238 -0.11745524 2.75200003 1.471958939e-38
0.21342477 -0.11745524 2.75200003 1.490505685e-38
0.21485715 -0.11745524 2.75200003 1.518236121e-38
0.21628952 -0.11745524 2.75200003 1.545750476e-38
0.21772192 -0.11745524 2.75200003 1.554933605e-38
0.21944571 -0.11761143 2.75300002 1.564008134e-38
0.22088 -0.11761143 2.75300002 1.610211606e-38
0.22290477 -0.11792382 2.75500005 1.665277872e-38
0.22374858 -0.11761143 2.75300002 1.610141682e-38
0.22578098 -0.11792382 2.75500005 1.55500339e-38
0.22721906 -0.11792382 2.75500005 1.52745176e-38
0.22896002 -0.11808001 2.75600004 1.509157949e-38
0.23100951 -0.11839239 2.75800002 1.518414926e-38
0.23245333 -0.11839239 2.75800002 1.536854052e-38
0.23389715 -0.11839239 2.75800002 1.500156007e-38
0.23534095 -0.11839239 2.75800002 1.463423911e-38
0.23740953 -0.11870477 2.76000005 1.417544138e-38
0.23885716 -0.11870477 2.76000005 1.380989586e-38
0.12497143 -0.11247429 2.72900003 1.30737181e-38
0.12636001 -0.11247429 2.72900003 1.304107486e-38
0.12774858 -0.11247429 2.72900003 1.32451964e-38
0.12913714 -0.11247429 2.72900003 1.352142035e-38
0.13052571 -0.11247429 2.72900003 1.379728697e-38
0.13191429 -0.11247429 2.72900003 1.416533661e-38
0.13312 -0.11232001 2.72800004 1.453518132e-38
0.13469143 -0.11247429 2.72900003 1.4996514e-38
0.13608 -0.11247429 2.72900003 1.481248848e-38
0.13784572 -0.11278286 2.73100001 1.462773708e-38
0.13923809 -0.11278286 2.73100001 1.444585555e-38
0.14063048 -0.11278286 2.73100001 1.435402005e-38
0.14221716 -0.11293714 2.73200005 1.453769245e-38
0.14361143 -0.11293714 2.73200005 1.472172637e-38
0.14500572 -0.11293714 2.73200005 1.499723847e-38
0.14640002 -0.11293714 2.73200005 1.527274776e-38
0.14779429 -0.11293714 2.73200005 1.50894397e-38
0.15000382 -0.11355429 2.73600006 1.481428774e-38
0.15161145 -0.11370858 2.73700005 1.472209071e-38
0.15301526 -0.11370858 2.73700005 1.462918883e-38
0.15441906 -0.11370858 2.73700005 1.463063497e-38
0.15624571 -0.11401714 2.73900002 1.472354386e-38
0.15765335 -0.11401714 2.73900002 1.481537795e-38
0.15906096 -0.11401714 2.73900002 1.490757779e-38
0.16046858 -0.11401714 2.73900002 1.509197185e-38
0.16187619 -0.11401714 2.73900002 1.527636451e-38
0.16350476 -0.11417143 2.74000001 1.518525208e-38
0.16491428 -0.11417143 2.74000001 1.509413545e-38
0.16677335 -0.11448001 2.74200004 1.463460064e-38
0.16773333 -0.11417143 2.74000001 1.426690553e-38
0.16982858 -0.11463429 2.74300003 1.408539254e-38
0.1712438 -0.11463429 2.74300003 1.381239858e-38
0.17265905 -0.11463429 2.74300003 1.362944645e-38
0.19845717 -0.11648571 2.75500005 1.25328225e-38
0.20016001 -0.11664001 2.75600004 1.298513782e-38
0.2016 -0.11664001 2.75600004 1.297432961e-38
0.20277144 -0.11648571 2.75500005 1.30661637e-38
0.20420954 -0.11648571 2.75500005 1.343099316e-38
0.20510286 -0.11617714 2.75300002 1.379869528e-38
0.20653716 -0.11617714 2.75300002 1.379905541e-38
0.20797144 -0.11617714 2.75300002 1.389197271e-38
0.20940572 -0.11617714 2.75300002 1.407600804e-38
0.21084 -0.11617714 2.75300002 1.43522404e-38
0.21227428 -0.11617714 2.75300002 1.444408571e-38
0.21370858 -0.11617714 2.75300002 1.462524557e-38
0.21514286 -0.11617714 2.75300002 1.471923487e-38
0.21657714 -0.11617714 2.75300002 1.481322135e-38
0.21801142 -0.11617714 2.75300002 1.499689235e-38
0.21944571 -0.11617714 2.75300002 1.518055353e-38
0.22146669 -0.11648571 2.75500005 1.573335176e-38
0.22290477 -0.11648571 2.75500005 1.628652274e-38
0.22434287 -0.11648571 2.75500005 1.591846889e-38
0.22578098 -0.11648571 2.75500005 1.555003109e-38
0.22721906 -0.11648571 2.75500005 1.527486512e-38
0.22896002 -0.11664001 2.75600004 1.499973838e-38
0.23100951 -0.11694857 2.75800002 1.500011954e-38
0.23245333 -0.11694857 2.75800002 1.500119854e-38
0.23389715 -0.11694857 2.75800002 1.481753175e-38
0.23534095 -0.11694857 2.75800002 1.472497599e-38
0.23678477 -0.11694857 2.75800002 1.444982683e-38
0.23822857 -0.11694857 2.75800002 1.417505322e-38
0.24030478 -0.11725715 2.76000005 1.381023918e-38
0.24175239 -0.11725715 2.76000005 1.353546557e-38
0.24320002 -0.11725715 2.76000005 1.317101026e-38
0.12531428 -0.11139047 2.73100001 1.223283533e-38
0.12636001 -0.11108572 2.72900003 1.195769178e-38
0.12774858 -0.11108572 2.72900003 1.269309742e-38
0.12913714 -0.11108572 2.72900003 1.342885758e-38
0.13034669 -0.11093334 2.72800004 1.3705799e-38
0.13173334 -0.11093334 2.72800004 1.407313398e-38
0.13312 -0.11093334 2.72800004 1.426038529e-38
0.13450667 -0.11093334 2.72800004 1.444441501e-38
0.13589333 -0.11093334 2.72800004 1.444513248e-38
0.13746858 -0.11108572 2.72900003 1.453696517e-38
0.13923809 -0.11139047 2.73100001 1.435365151e-38
0.14063048 -0.11139047 2.73100001 1.416927006e-38
0.14221716 -0.11154287 2.73200005 1.444406609e-38
0.14361143 -0.11154287 2.73200005 1.481284721e-38
0.14500572 -0.11154287 2.73200005 1.527346522e-38
0.14640002 -0.11154287 2.73200005 1.573193365e-38
0.14779429 -0.11154287 2.73200005 1.54567943e-38
0.1495962 -0.11184762 2.73400003 1.5181278e-38
0.15140572 -0.11215239 2.73600006 1.50894341e-38
0.15301526 -0.11230477 2.73700005 1.499760281e-38
0.15441906 -0.11230477 2.73700005 1.499760841e-38
0.15582287 -0.11230477 2.73700005 1.50905173e-38
0.15765335 -0.11260953 2.73900002 1.518270873e-38
0.15906096 -0.11260953 2.73900002 1.527454843e-38
0.16046858 -0.11260953 2.73900002 1.545930122e-38
0.16187619 -0.11260953 2.73900002 1.564297502e-38
0.16328381 -0.11260953 2.73900002 1.555114372e-38
0.16491428 -0.11276191 2.74000001 1.545967116e-38
0.16677335 -0.11306667 2.74200004 1.55518696e-38
0.16773333 -0.11276191 2.74000001 1.564406242e-38
0.16960001 -0.11306667 2.74200004 1.546075016e-38
0.1712438 -0.11321905 2.74300003 1.527780084e-38
0.17312382 -0.11352382 2.74500006 1.463567264e-38
0.17524572 -0.11398096 2.74800003 1.40861044e-38
0.17667049 -0.11398096 2.74800003 1.372056588e-38
0.17809524 -0.11398096 2.74800003 1.335502737e-38
0.19872001 -0.11520001 2.75600004 1.271829556e-38
0.20016001 -0.11520001 2.75600004 1.326495331e-38
0.2016 -0.11520001 2.75600004 1.325163116e-38
0.20304002 -0.11520001 2.75600004 1.333987653e-38
0.20420954 -0.11504763 2.75500005 1.370649825e-38
0.20564763 -0.11504763 2.75500005 1.407383463e-38
0.20708573 -0.11504763 2.75500005 1.398307112e-38
0.20797144 -0.11474286 2.75300002 1.398415713e-38
0.20940572 -0.11474286 2.75300002 1.40767213e-38
0.21084 -0.11474286 2.75300002 1.41685624e-38
0.21227428 -0.11474286 2.75300002 1.426076224e-38
0.21370858 -0.11474286 2.75300002 1.434973068e-38
0.21514286 -0.11474286 2.75300002 1.425933291e-38
0.21657714 -0.11474286 2.75300002 1.426219997e-38
0.21801142 -0.11474286 2.75300002 1.453590999e-38
0.21944571 -0.11474286 2.75300002 1.481141088e-38
0.22088 -0.11474286 2.75300002 1.536241965e-38
0.22290477 -0.11504763 2.75500005 1.591702135e-38
0.22434287 -0.11504763 2.75500005 1.573550556e-38
0.22578098 -0.11504763 2.75500005 1.564294559e-38
0.22721906 -0.11504763 2.75500005 1.527523927e-38
0.22896002 -0.11520001 2.75600004 1.499974819e-38
0.23100951 -0.11550476 2.75800002 1.481645135e-38
0.23245333 -0.11550476 2.75800002 1.46331475e-38
0.23389715 -0.11550476 2.75800002 1.472570886e-38
0.23534095 -0.11550476 2.75800002 1.481645835e-38
0.23678477 -0.11550476 2.75800002 1.472389558e-38
0.23822857 -0.11550476 2.75800002 1.463529709e-38
0.24030478 -0.11580953 2.76000005 1.436015774e-38
0.24175239 -0.11580953 2.76000005 1.417542316e-38
0.24320002 -0.11580953 2.76000005 1.371553943e-38
0.24464762 -0.11580953 2.76000005 1.325888008e-38
0.1239219 -0.10999809 2.73100001 1.233763424e-38
0.12531428 -0.10999809 2.73100001 1.204412947e-38
0.12670667 -0.10999809 2.73100001 1.186441014e-38
0.12774858 -0.10969715 2.72900003 1.232467083e-38
0.12913714 -0.10969715 2.72900003 1.287711733e-38
0.13034669 -0.10954668 2.72800004 1.315370002e-38
0.13173334 -0.10954668 2.72800004 1.352211259e-38
0.13312 -0.10954668 2.72800004 1.379940854e-38
0.13450667 -0.10954668 2.72800004 1.398451026e-38
0.13589333 -0.10954668 2.72800004 1.416925465e-38
0.13784572 -0.10999809 2.73100001 1.444475973e-38
0.13923809 -0.10999809 2.73100001 1.45351603e-38
0.14063048 -0.10999809 2.73100001 1.471776771e-38
0.14221716 -0.11014858 2.73200005 1.471634679e-38
0.14361143 -0.11014858 2.73200005 1.480675296e-38
0.14500572 -0.11014858 2.73200005 1.508728731e-38
0.14640002 -0.11014858 2.73200005 1.545607683e-38
0.14779429 -0.11014858 2.73200005 1.527277719e-38
0.1495962 -0.11044953 2.73400003 1.508944951e-38
0.15140572 -0.11075048 2.73600006 1.50894355e-38
0.15301526 -0.11090096 2.73700005 1.50894355e-38
0.15441906 -0.11090096 2.73700005 1.508907677e-38
0.15582287 -0.11090096 2.73700005 1.509050749e-38
0.15722668 -0.11090096 2.73700005 1.518198145e-38
0.15906096 -0.1112019 2.73900002 1.536565525e-38
0.16046858 -0.1112019 2.73900002 1.554933044e-38
0.16187619 -0.1112019 2.73900002 1.582519707e-38
0.16328381 -0.1112019 2.73900002 1.582519987e-38
0.16491428 -0.11135238 2.74000001 1.59174011e-38
0.16677335 -0.11165334 2.74200004 1.582736628e-38
0.16818668 -0.11165334 2.74200004 1.573588251e-38
0.16960001 -0.11165334 2.74200004 1.555256464e-38
0.1712438 -0.11180381 2.74300003 1.536925799e-38
0.17312382 -0.11210477 2.74500006 1.500263907e-38
0.17501144 -0.11240572 2.74700004 1.454418887e-38
0.17643429 -0.11240572 2.74700004 1.436124655e-38
0.17738096 -0.11210477 2.74500006 1.408682466e-38
0.18000001 -0.11285715 2.75000006 1.390495574e-38
0.18094477 -0.1125562 2.74800003 1.381527965e-38
0.18236953 -0.1125562 2.74800003 1.344758734e-38
0.19924572 -0.11406095 2.75800002 1.326859948e-38
0.20068952 -0.11406095 2.75800002 1.363660568e-38
0.20213334 -0.11406095 2.75800002 1.362435553e-38
0.20304002 -0.11376 2.75600004 1.361394809e-38
0.20448001 -0.11376 2.75600004 1.370613811e-38
0.20564763 -0.11360953 2.75500005 1.379832113e-38
0.20708573 -0.11360953 2.75500005 1.380010358e-38
0.20852382 -0.11360953 2.75500005 1.38011952e-38
0.20996192 -0.11360953 2.75500005 1.389268737e-38
0.21084 -0.11330858 2.75300002 1.407743737e-38
0.21227428 -0.11330858 2.75300002 1.42603937e-38
0.21370858 -0.11330858 2.75300002 1.453375199e-38
0.21514286 -0.11330858 2.75300002 1.435152154e-38
0.21657714 -0.11330858 2.75300002 1.417035607e-38
0.21801142 -0.11330858 2.75300002 1.42593161e-38
0.21944571 -0.11330858 2.75300002 1.444226822e-38
0.22146669 -0.11360953 2.75500005 1.453517992e-38
0.22290477 -0.11360953 2.75500005 1.453768964e-38
0.22434287 -0.11360953 2.75500005 1.509085501e-38
0.22578098 -0.11360953 2.75500005 1.564402599e-38
0.22721906 -0.11360953 2.75500005 1.518162552e-38
0.22896002 -0.11376 2.75600004 1.472173899e-38
0.23100951 -0.11406095 2.75800002 1.453987146e-38
0.23245333 -0.11406095 2.75800002 1.444876745e-38
0.23389715 -0.11406095 2.75800002 1.463245245e-38
0.23534095 -0.11406095 2.75800002 1.481646396e-38
0.23678477 -0.11406095 2.75800002 1.481716321e-38
0.23885716 -0.11436191 2.76000005 1.472819897e-38
0.24030478 -0.11436191 2.76000005 1.454417065e-38
0.24175239 -0.11436191 2.76000005 1.445126596e-38
0.24320002 -0.11436191 2.76000005 1.408213872e-38
0.24625714 -0.11511429 2.76500005 1.371479814e-38
0.24706668 -0.11481334 2.76300001 1.316486416e-38
0.24852002 -0.11481334 2.76300001 1.261495401e-38
0.24997334 -0.11481334 2.76300001 1.298626867e-38
0.1239219 -0.10860571 2.73100001 1.224398406e-38
0.12531428 -0.10860571 2.73100001 1.19472493e-38
0.12670667 -0.10860571 2.73100001 1.177076697e-38
0.12774858 -0.10830858 2.72900003 1.204736507e-38
0.12913714 -0.10830858 2.72900003 1.232502956e-38
0.13052571 -0.10830858 2.72900003 1.269345194e-38
0.13173334 -0.10816 2.72800004 1.306186452e-38
0.13312 -0.10816 2.72800004 1.333880033e-38
0.13450667 -0.10816 2.72800004 1.361609628e-38
0.13589333 -0.10816 2.72800004 1.398522632e-38
0.13784572 -0.10860571 2.73100001 1.435149491e-38
0.13923809 -0.10860571 2.73100001 1.4809599e-38
0.14063048 -0.10860571 2.73100001 1.535882672e-38
0.14221716 -0.10875429 2.73200005 1.508189511e-38
0.14361143 -0.10875429 2.73200005 1.480674876e-38
0.14500572 -0.10875429 2.73200005 1.499329241e-38
0.14640002 -0.10875429 2.73200005 1.517876547e-38
0.1481981 -0.10905144 2.73400003 1.508909078e-38
0.1495962 -0.10905144 2.73400003 1.499724407e-38
0.15140572 -0.10934858 2.73600006 1.508906976e-38
0.15280762 -0.10934858 2.73600006 1.527274075e-38
0.15420954 -0.10934858 2.73600006 1.518090666e-38
0.15582287 -0.10949715 2.73700005 1.508871103e-38
0.15722668 -0.10949715 2.73700005 1.527202189e-38
0.15863049 -0.10949715 2.73700005 1.554717104e-38
0.16046858 -0.10979429 2.73900002 1.57304847e-38
0.16187619 -0.10979429 2.73900002 1.600671286e-38
0.16328381 -0.10979429 2.73900002 1.619110692e-38
0.16491428 -0.10994286 2.74000001 1.646769802e-38
0.16632381 -0.10994286 2.74000001 1.610287697e-38
0.16818668 -0.11024 2.74200004 1.582699914e-38
0.16960001 -0.11024 2.74200004 1.564582806e-38
0.1712438 -0.11038858 2.74300003 1.555363523e-38
0.17312382 -0.11068572 2.74500006 1.527813155e-38
0.17501144 -0.11098286 2.74700004 1.509339697e-38
0.17643429 -0.11098286 2.74700004 1.500049649e-38
0.17785716 -0.11098286 2.74700004 1.491046026e-38
0.18000001 -0.11142858 2.75000006 1.509593052e-38
0.18094477 -0.11113143 2.74800003 1.536964054e-38
0.18285716 -0.11142858 2.75000006 1.463316151e-38
0.18428573 -0.11142858 2.75000006 1.390065095e-38
0.1857143 -0.11142858 2.75000006 1.39031831e-38
0.19924572 -0.11261714 2.75800002 1.373459148e-38
0.20068952 -0.11261714 2.75800002 1.409829429e-38
0.20213334 -0.11261714 2.75800002 1.39970785e-38
0.20304002 -0.11232001 2.75600004 1.398201314e-38
0.20448001 -0.11232001 2.75600004 1.379798622e-38
0.20592001 -0.11232001 2.75600004 1.361502289e-38
0.20736001 -0.11232001 2.75600004 1.361716687e-38
0.20852382 -0.11217143 2.75500005 1.370901638e-38
0.20996192 -0.11217143 2.75500005 1.380086449e-38
0.21140002 -0.11217143 2.75500005 1.398453128e-38
0.2128381 -0.11217143 2.75500005 1.435222919e-38
0.21370858 -0.11187429 2.75300002 1.471920964e-38
0.21514286 -0.11187429 2.75300002 1.435186485e-38
0.21657714 -0.11187429 2.75300002 1.40756423e-38
0.21801142 -0.11187429 2.75300002 1.407492624e-38
0.21944571 -0.11187429 2.75300002 1.416711907e-38
0.22146669 -0.11217143 2.75500005 1.370829892e-38
0.22290477 -0.11217143 2.75500005 1.32498431e-38
0.22434287 -0.11217143 2.75500005 1.444442622e-38
0.22578098 -0.11217143 2.75500005 1.57304819e-38
0.22721906 -0.11217143 2.75500005 1.508835089e-38
0.22865716 -0.11217143 2.75500005 1.453770506e-38
0.23100951 -0.11261714 2.75800002 1.435511867e-38
0.23245333 -0.11261714 2.75800002 1.426472791e-38
0.23389715 -0.11261714 2.75800002 1.454024561e-38
0.23534095 -0.11261714 2.75800002 1.490901272e-38
0.23678477 -0.11261714 2.75800002 1.491079517e-38
0.23822857 -0.11261714 2.75800002 1.49111567e-38
0.24030478 -0.11291429 2.76000005 1.482004288e-38
0.24175239 -0.11291429 2.76000005 1.472605358e-38
0.24320002 -0.11291429 2.76000005 1.444875203e-38
0.24496953 -0.11306286 2.76100004 1.417323573e-38
0.24706668 -0.11336 2.76300001 1.371548478e-38
0.24852002 -0.11336 2.76300001 1.334888968e-38
0.24997334 -0.11336 2.76300001 1.362155714e-38
0.25043812 -0.11291429 2.76000005 1.390244181e-38
0.25188571 -0.11291429 2.76000005 1.372450774e-38
0.25333336 -0.11291429 2.76000005 1.36330562e-38
0.1239219 -0.10721333 2.73100001 1.260951136e-38
0.12531428 -0.10721333 2.73100001 1.16706442e-38
0.12670667 -0.10721333 2.73100001 1.075877024e-38
0.12774858 -0.10692 2.72900003 1.140379493e-38
0.12913714 -0.10692 2.72900003 1.204880561e-38
0.13052571 -0.10692 2.72900003 1.232396457e-38
0.13173334 -0.10677334 2.72800004 1.250726983e-38
0.13312 -0.10677334 2.72800004 1.278384691e-38
0.13469143 -0.10692 2.72900003 1.306078132e-38
0.13608 -0.10692 2.72900003 1.352067066e-38
0.13784572 -0.10721333 2.73100001 1.398057121e-38
0.13923809 -0.10721333 2.73100001 1.397878455e-38
0.14063048 -0.10721333 2.73100001 1.397699509e-38
0.14221716 -0.10736001 2.73200005 1.416354015e-38
0.14361143 -0.10736001 2.73200005 1.434756847e-38
0.14500572 -0.10736001 2.73200005 1.462558609e-38
0.1468 -0.10765333 2.73400003 1.490181425e-38
0.1481981 -0.10765333 2.73400003 1.490181845e-38
0.15000382 -0.10794667 2.73600006 1.490217018e-38
0.15140572 -0.10794667 2.73600006 1.490431556e-38
0.15280762 -0.10794667 2.73600006 1.490575189e-38
0.15441906 -0.10809334 2.73700005 1.4996514e-38
0.15582287 -0.10809334 2.73700005 1.508655583e-38
0.15722668 -0.10809334 2.73700005 1.527022822e-38
0.15863049 -0.10809334 2.73700005 1.554573331e-38
0.16046858 -0.10838667 2.73900002 1.5822316e-38
0.16187619 -0.10838667 2.73900002 1.6005994e-38
0.16328381 -0.10838667 2.73900002 1.609855396e-38
0.16491428 -0.10853333 2.74000001 1.61000001e-38
0.16677335 -0.10882667 2.74200004 1.591741652e-38
0.16818668 -0.10882667 2.74200004 1.573480351e-38
0.16982858 -0.10897334 2.74300003 1.573514542e-38
0.1712438 -0.10897334 2.74300003 1.573550275e-38
0.17312382 -0.10926668 2.74500006 1.555075557e-38
0.17501144 -0.10956001 2.74700004 1.536602099e-38
0.17643429 -0.10956001 2.74700004 1.53649588e-38
0.17785716 -0.10956001 2.74700004 1.536424274e-38
0.17952 -0.10970667 2.74800003 1.554935146e-38
0.18094477 -0.10970667 2.74800003 1.573480491e-38
0.18285716 -0.11000001 2.75000006 1.536781045e-38
0.18477714 -0.11029334 2.75200003 1.50926795e-38
0.18620953 -0.11029334 2.75200003 1.48179087e-38
0.18839049 -0.11073335 2.75500005 1.463496078e-38
0.18982857 -0.11073335 2.75500005 1.436412482e-38
0.19765334 -0.11190666 2.76300001 1.363162687e-38
0.19858477 -0.11161334 2.76100004 1.362876122e-38
0.19977143 -0.11146668 2.76000005 1.418623558e-38
0.20121905 -0.11146668 2.76000005 1.474365389e-38
0.20213334 -0.11117333 2.75800002 1.436191076e-38
0.20357715 -0.11117333 2.75800002 1.398273762e-38
0.20448001 -0.11088 2.75600004 1.370723954e-38
0.20592001 -0.11088 2.75600004 1.352392027e-38
0.20736001 -0.11088 2.75600004 1.352355593e-38
0.2088 -0.11088 2.75600004 1.352320841e-38
0.21024001 -0.11088 2.75600004 1.370724934e-38
0.21140002 -0.11073335 2.75500005 1.389126786e-38
0.2128381 -0.11073335 2.75500005 1.407744017e-38
0.21427621 -0.11073335 2.75500005 1.435293545e-38
0.21571429 -0.11073335 2.75500005 1.416853718e-38
0.21715239 -0.11073335 2.75500005 1.398200474e-38
0.21801142 -0.11044 2.75300002 1.389089511e-38
0.21944571 -0.11044 2.75300002 1.388873992e-38
0.22146669 -0.11073335 2.75500005 1.352032033e-38
0.22290477 -0.11073335 2.75500005 1.315191056e-38
0.22434287 -0.11073335 2.75500005 1.370616194e-38
0.22578098 -0.11073335 2.75500005 1.426398522e-38
0.22721906 -0.11073335 2.75500005 1.398739693e-38
0.22865716 -0.11073335 2.75500005 1.380265675e-38
0.23009525 -0.11073335 2.75500005 1.362007036e-38
0.23184 -0.11088 2.75600004 1.343784131e-38
0.23328002 -0.11088 2.75600004 1.444911637e-38
0.23534095 -0.11117333 2.75800002 1.555257445e-38
0.23678477 -0.11117333 2.75800002 1.527706516e-38
0.23822857 -0.11117333 2.75800002 1.500192161e-38
0.24030478 -0.11146668 2.76000005 1.509304524e-38
0.24175239 -0.11146668 2.76000005 1.527634629e-38
0.24320002 -0.11146668 2.76000005 1.481536534e-38
0.24464762 -0.11146668 2.76000005 1.444836247e-38
0.24641907 -0.11161334 2.76100004 1.408171833e-38
0.2478686 -0.11161334 2.76100004 1.380732027e-38
0.24931812 -0.11161334 2.76100004 1.389739574e-38
0.25043812 -0.11146668 2.76000005 1.39888697e-38
0.25188571 -0.11146668 2.76000005 1.390241239e-38
0.25333336 -0.11146668 2.76000005 1.372309242e-38
0.1239219 -0.10582095 2.73100001 1.298008755e-38
0.12531428 -0.10582095 2.73100001 1.139442024e-38
0.12670667 -0.10582095 2.73100001 9.841484468e-39
0.12774858 -0.10553143 2.72900003 1.085240921e-38
0.12913714 -0.10553143 2.72900003 1.186333114e-38
0.13052571 -0.10553143 2.72900003 1.195589812e-38
0.13191429 -0.10553143 2.72900003 1.204807553e-38
0.13330285 -0.10553143 2.72900003 1.232535886e-38
0.13469143 -0.10553143 2.72900003 1.260051643e-38
0.13608 -0.10553143 2.72900003 1.305898625e-38
0.13784572 -0.10582095 2.73100001 1.361036077e-38
0.13923809 -0.10582095 2.73100001 1.315190355e-38
0.14082287 -0.10596572 2.73200005 1.269344494e-38
0.14221716 -0.10596572 2.73200005 1.333701368e-38
0.14361143 -0.10596572 2.73200005 1.397986215e-38
0.14540191 -0.10625524 2.73400003 1.425787977e-38
0.1468 -0.10625524 2.73400003 1.462558189e-38
0.14860192 -0.10654477 2.73600006 1.471849498e-38
0.15000382 -0.10654477 2.73600006 1.490288063e-38
0.15140572 -0.10654477 2.73600006 1.47199243e-38
0.15280762 -0.10654477 2.73600006 1.462809862e-38
0.15441906 -0.10668954 2.73700005 1.481213815e-38
0.15582287 -0.10668954 2.73700005 1.508763343e-38
0.15722668 -0.10668954 2.73700005 1.536313011e-38
0.15863049 -0.10668954 2.73700005 1.563791773e-38
0.16046858 -0.10697905 2.73900002 1.582338098e-38
0.16187619 -0.10697905 2.73900002 1.609817281e-38
0.16328381 -0.10697905 2.73900002 1.591414589e-38
0.16491428 -0.10712381 2.74000001 1.58233964e-38
0.16632381 -0.10712381 2.74000001 1.573300704e-38
0.16818668 -0.10741334 2.74200004 1.57337133e-38
0.16960001 -0.10741334 2.74200004 1.582589772e-38
0.1712438 -0.1075581 2.74300003 1.591736747e-38
0.17312382 -0.10784763 2.74500006 1.573333074e-38
0.17501144 -0.10813715 2.74700004 1.564151346e-38
0.17643429 -0.10813715 2.74700004 1.573300984e-38
0.17785716 -0.10813715 2.74700004 1.591704097e-38
0.17928 -0.10813715 2.74700004 1.6009238e-38
0.18094477 -0.10828191 2.74800003 1.619362225e-38
0.18285716 -0.10857143 2.75000006 1.619469425e-38
0.18477714 -0.10886096 2.75200003 1.628618222e-38
0.18645714 -0.10900571 2.75300002 1.582701595e-38
0.18839049 -0.10929525 2.75500005 1.536783987e-38
0.19008002 -0.10944 2.75600004 1.509233479e-38
0.19202667 -0.10972953 2.75800002 1.481754156e-38
0.1942362 -0.11016382 2.76100004 1.454274973e-38
0.19620001 -0.11045333 2.76300001 1.426581392e-38
0.19765334 -0.11045333 2.76300001 1.408107233e-38
0.19910666 -0.11045333 2.76300001 1.389955514e-38
0.19977143 -0.11001905 2.76000005 1.463675164e-38
0.20121905 -0.11001905 2.76000005 1.546253121e-38
0.20213334 -0.10972953 2.75800002 1.472710736e-38
0.20357715 -0.10972953 2.75800002 1.398668928e-38
0.20448001 -0.10944 2.75600004 1.370688361e-38
0.20592001 -0.10944 2.75600004 1.343137151e-38
0.20736001 -0.10944 2.75600004 1.343136451e-38
0.2088 -0.10944 2.75600004 1.343172044e-38
0.21024001 -0.10944 2.75600004 1.361574876e-38
0.21140002 -0.10929525 2.75500005 1.389053498e-38
0.2128381 -0.10929525 2.75500005 1.389447963e-38
0.21427621 -0.10929525 2.75500005 1.398558926e-38
0.21571429 -0.10929525 2.75500005 1.389338802e-38
0.21715239 -0.10929525 2.75500005 1.388945598e-38
0.21801142 -0.10900571 2.75300002 1.37068766e-38
0.21944571 -0.10900571 2.75300002 1.36128761e-38
0.22146669 -0.10929525 2.75500005 1.333699967e-38
0.22290477 -0.10929525 2.75500005 1.306078272e-38
0.22434287 -0.10929525 2.75500005 1.287640267e-38
0.22578098 -0.10929525 2.75500005 1.279066422e-38
0.22721906 -0.10929525 2.75500005 1.288859817e-38
0.22865716 -0.10929525 2.75500005 1.306796998e-38
0.23040001 -0.10944 2.75600004 1.288251093e-38
0.23184 -0.10944 2.75600004 1.27017126e-38
0.23389715 -0.10972953 2.75800002 1.444981842e-38
0.23534095 -0.10972953 2.75800002 1.619433411e-38
0.23678477 -0.10972953 2.75800002 1.564332254e-38
0.23822857 -0.10972953 2.75800002 1.509231517e-38
0.23967238 -0.10972953 2.75800002 1.546002149e-38
0.2411162 -0.10972953 2.75800002 1.59184759e-38
0.24320002 -0.11001905 2.76000005 1.527418689e-38
0.24464762 -0.11001905 2.76000005 1.472352004e-38
0.24609526 -0.11001905 2.76000005 1.454019516e-38
0.24754287 -0.11001905 2.76000005 1.435689972e-38
0.24899048 -0.11001905 2.76000005 1.426543837e-38
0.25043812 -0.11001905 2.76000005 1.417360708e-38
0.25221714 -0.11016382 2.76100004 1.399029902e-38
0.25433335 -0.11045333 2.76300001 1.389955654e-38
0.25578666 -0.11045333 2.76300001 1.36255018e-38
0.25724 -0.11045333 2.76300001 1.344939501e-38
0.12531428 -0.10442857 2.73100001 1.260693718e-38
0.12670667 -0.10442857 2.73100001 1.112825201e-38
0.12809904 -0.10442857 2.73100001 1.14037683e-38
0.12949143 -0.10442857 2.73100001 1.167965034e-38
0.1308838 -0.10442857 2.73100001 1.122120854e-38
0.13227619 -0.10442857 2.73100001 1.0854556e-38
0.13366857 -0.10442857 2.73100001 1.122223009e-38
0.13506095 -0.10442857 2.73100001 1.168215026e-38
0.13645333 -0.10442857 2.73100001 1.214135296e-38
0.13784572 -0.10442857 2.73100001 1.269236454e-38
0.13942859 -0.10457144 2.73200005 1.250941101e-38
0.14120762 -0.10485715 2.73400003 1.232681621e-38
0.14260572 -0.10485715 2.73400003 1.287783059e-38
0.14400382 -0.10485715 2.73400003 1.333700807e-38
0.14540191 -0.10485715 2.73400003 1.370542766e-38
0.1472 -0.10514286 2.73600006 1.416567993e-38
0.14860192 -0.10514286 2.73600006 1.389232444e-38
0.15000382 -0.10514286 2.73600006 1.371008837e-38
0.15140572 -0.10514286 2.73600006 1.38930433e-38
0.15280762 -0.10514286 2.73600006 1.416820788e-38
0.15441906 -0.10528573 2.73700005 1.453664427e-38
0.15582287 -0.10528573 2.73700005 1.481320454e-38
0.15722668 -0.10528573 2.73700005 1.499613705e-38
0.15863049 -0.10528573 2.73700005 1.527092327e-38
0.16046858 -0.10557143 2.73900002 1.545602779e-38
0.16187619 -0.10557143 2.73900002 1.573332654e-38
0.16328381 -0.10557143 2.73900002 1.563969598e-38
0.16491428 -0.10571428 2.74000001 1.554715283e-38
0.16632381 -0.10571428 2.74000001 1.55489563e-38
0.16818668 -0.106 2.74200004 1.545819279e-38
0.16960001 -0.106 2.74200004 1.554930802e-38
0.1712438 -0.10614286 2.74300003 1.564041344e-38
0.17312382 -0.10642858 2.74500006 1.555000027e-38
0.17454287 -0.10642858 2.74500006 1.554966535e-38
0.17596191 -0.10642858 2.74500006 1.57326427e-38
0.17738096 -0.10642858 2.74500006 1.591775143e-38
0.17928 -0.10671429 2.74700004 1.619290199e-38
0.18142858 -0.10714287 2.75000006 1.637729185e-38
0.18285716 -0.10714287 2.75000006 1.628545915e-38
0.18477714 -0.10742857 2.75200003 1.628582349e-38
0.18645714 -0.10757143 2.75300002 1.591884584e-38
0.18839049 -0.10785715 2.75500005 1.564190022e-38
0.19008002 -0.10800001 2.75600004 1.536710839e-38
0.19202667 -0.10828572 2.75800002 1.518305625e-38
0.19398096 -0.10857143 2.76000005 1.490716861e-38
0.19620001 -0.109 2.76300001 1.46313132e-38
0.19713524 -0.10871429 2.76100004 1.426469849e-38
0.19858477 -0.10871429 2.76100004 1.398667947e-38
0.19977143 -0.10857143 2.76000005 1.398990666e-38
0.20121905 -0.10857143 2.76000005 1.408497775e-38
0.20213334 -0.10828572 2.75800002 1.389987884e-38
0.20357715 -0.10828572 2.75800002 1.371513445e-38
0.20448001 -0.10800001 2.75600004 1.343138132e-38
0.20592001 -0.10800001 2.75600004 1.324662712e-38
0.20736001 -0.10800001 2.75600004 1.315370983e-38
0.2088 -0.10800001 2.75600004 1.296930455e-38
0.21024001 -0.10800001 2.75600004 1.324587182e-38
0.21168001 -0.10800001 2.75600004 1.343098335e-38
0.2128381 -0.10785715 2.75500005 1.352533698e-38
0.21427621 -0.10785715 2.75500005 1.362003813e-38
0.21600002 -0.10800001 2.75600004 1.370648844e-38
0.21715239 -0.10785715 2.75500005 1.370543186e-38
0.2185905 -0.10785715 2.75500005 1.379692964e-38
0.22002858 -0.10785715 2.75500005 1.388838399e-38
0.22146669 -0.10785715 2.75500005 1.315403773e-38
0.22290477 -0.10785715 2.75500005 1.242007823e-38
0.22434287 -0.10785715 2.75500005 1.2047721e-38
0.22608002 -0.10800001 2.75600004 1.167930562e-38
0.22721906 -0.10785715 2.75500005 1.20520328e-38
0.22865716 -0.10785715 2.75500005 1.24251173e-38
0.23040001 -0.10800001 2.75600004 1.233077488e-38
0.23184 -0.10800001 2.75600004 1.223678419e-38
0.23328002 -0.10800001 2.75600004 1.390022496e-38
0.23472001 -0.10800001 2.75600004 1.555326809e-38
0.23616001 -0.10800001 2.75600004 1.518413665e-38
0.23760001 -0.10800001 2.75600004 1.49079183e-38
0.23967238 -0.10828572 2.75800002 1.509123757e-38
0.2411162 -0.10828572 2.75800002 1.536674266e-38
0.24320002 -0.10857143 2.76000005 1.499868321e-38
0.24400382 -0.10828572 2.75800002 1.472281238e-38
0.24609526 -0.10857143 2.76000005 1.454021338e-38
0.24754287 -0.10857143 2.76000005 1.444873522e-38
0.24899048 -0.10857143 2.76000005 1.435689972e-38
0.25043812 -0.10857143 2.76000005 1.435690953e-38
0.25221714 -0.10871429 2.76100004 1.408177298e-38
0.25433335 -0.109 2.76300001 1.380733008e-38
0.25578666 -0.109 2.76300001 1.353360464e-38
0.25724 -0.109 2.76300001 1.335179317e-38
0.12670667 -0.1030362 2.73100001 1.251983807e-38
0.12809904 -0.1030362 2.73100001 1.205129711e-38
0.12949143 -0.1030362 2.73100001 1.158531213e-38
0.1308838 -0.1030362 2.73100001 1.056867289e-38
0.13227619 -0.1030362 2.73100001 9.653163968e-39
0.13385144 -0.10317715 2.73200005 1.020702438e-38
0.13524573 -0.10317715 2.73200005 1.076450295e-38
0.13645333 -0.1030362 2.73100001 1.131157968e-38
0.13803428 -0.10317715 2.73200005 1.186294999e-38
0.13942859 -0.10317715 2.73200005 1.195514282e-38
0.14120762 -0.10345905 2.73400003 1.204877618e-38
0.1429943 -0.10374096 2.73600006 1.241791603e-38
0.1443962 -0.10374096 2.73600006 1.278562235e-38
0.1459962 -0.10388191 2.73700005 1.32455243e-38
0.14740001 -0.10388191 2.73700005 1.370541925e-38
0.14880382 -0.10388191 2.73700005 1.306651683e-38
0.15020764 -0.10388191 2.73700005 1.251550806e-38
0.15161145 -0.10388191 2.73700005 1.315836214e-38
0.15301526 -0.10388191 2.73700005 1.380157635e-38
0.15441906 -0.10388191 2.73700005 1.416928407e-38
0.15582287 -0.10388191 2.73700005 1.462881048e-38
0.15722668 -0.10388191 2.73700005 1.47209949e-38
0.15906096 -0.10416381 2.73900002 1.49035939e-38
0.16046858 -0.10416381 2.73900002 1.508870542e-38
0.16187619 -0.10416381 2.73900002 1.536456504e-38
0.16328381 -0.10416381 2.73900002 1.53652783e-38
0.16491428 -0.10430477 2.74000001 1.53642049e-38
0.16632381 -0.10430477 2.74000001 1.527309108e-38
0.16818668 -0.10458668 2.74200004 1.527309108e-38
0.16982858 -0.10472763 2.74300003 1.527309108e-38
0.17170477 -0.10500953 2.74500006 1.536455803e-38
0.17312382 -0.10500953 2.74500006 1.545853611e-38
0.17501144 -0.10529143 2.74700004 1.554930942e-38
0.17643429 -0.10529143 2.74700004 1.57326357e-38
0.17785716 -0.10529143 2.74700004 1.600850372e-38
0.17928 -0.10529143 2.74700004 1.628472908e-38
0.18094477 -0.10543238 2.74800003 1.665243119e-38
0.18285716 -0.10571429 2.75000006 1.646840287e-38
0.18477714 -0.10599619 2.75200003 1.628546196e-38
0.18620953 -0.10599619 2.75200003 1.610252104e-38
0.18839049 -0.10641905 2.75500005 1.59184787e-38
0.19008002 -0.10656001 2.75600004 1.57347965e-38
0.19202667 -0.10684191 2.75800002 1.555038983e-38
0.19398096 -0.10712382 2.76000005 1.527593992e-38
0.19542858 -0.10712382 2.76000005 1.509156407e-38
0.1968762 -0.10712382 2.76000005 1.454020497e-38
0.19832383 -0.10712382 2.76000005 1.407922402e-38
0.19977143 -0.10712382 2.76000005 1.343564827e-38
0.20121905 -0.10712382 2.76000005 1.279353128e-38
0.20213334 -0.10684191 2.75800002 1.306976925e-38
0.20357715 -0.10684191 2.75800002 1.343747417e-38
0.20502095 -0.10684191 2.75800002 1.324770753e-38
0.20646477 -0.10684191 2.75800002 1.315407276e-38
0.20790857 -0.10684191 2.75800002 1.287748447e-38
0.2088 -0.10656001 2.75600004 1.260196958e-38
0.21024001 -0.10656001 2.75600004 1.278599089e-38
0.21168001 -0.10656001 2.75600004 1.306185751e-38
0.21312001 -0.10656001 2.75600004 1.315405314e-38
0.21456 -0.10656001 2.75600004 1.333700107e-38
0.21600002 -0.10656001 2.75600004 1.342811349e-38
0.21744001 -0.10656001 2.75600004 1.361394669e-38
0.2185905 -0.10641905 2.75500005 1.388874412e-38
0.22002858 -0.10641905 2.75500005 1.42560805e-38
0.22176 -0.10656001 2.75600004 1.306257078e-38
0.22320001 -0.10656001 2.75600004 1.1865122e-38
0.22464001 -0.10656001 2.75600004 1.121904354e-38
0.22608002 -0.10656001 2.75600004 1.0577637e-38
0.22721906 -0.10641905 2.75500005 1.113009191e-38
0.22865716 -0.10641905 2.75500005 1.177366065e-38
0.23040001 -0.10656001 2.75600004 1.177438092e-38
0.23184 -0.10656001 2.75600004 1.186908347e-38
0.23328002 -0.10656001 2.75600004 1.335064551e-38
0.23472001 -0.10656001 2.75600004 1.491041822e-38
0.23584764 -0.10641905 2.75500005 1.4817152e-38
0.23760001 -0.10656001 2.75600004 1.472388577e-38
0.23967238 -0.10684191 2.75800002 1.472460884e-38
0.2411162 -0.10684191 2.75800002 1.481572688e-38
0.24256 -0.10684191 2.75800002 1.481536814e-38
0.24400382 -0.10684191 2.75800002 1.481501502e-38
0.24544762 -0.10684191 2.75800002 1.463206569e-38
0.24754287 -0.10712382 2.76000005 1.454129518e-38
0.24899048 -0.10712382 2.76000005 1.454200284e-38
0.25043812 -0.10712382 2.76000005 1.463205028e-38
0.25221714 -0.10726476 2.76100004 1.417359727e-38
0.25366667 -0.10726476 2.76100004 1.371513305e-38
0.25478098 -0.10712382 2.76000005 1.344213489e-38
0.25724 -0.10754667 2.76300001 1.325777726e-38
0.25801525 -0.10726476 2.76100004 1.334928485e-38
0.25946477 -0.10726476 2.76100004 1.344796849e-38
0.12809904 -0.10164381 2.73100001 1.363440144e-38
0.12966858 -0.10178287 2.73200005 1.33549475e-38
0.13106287 -0.10178287 2.73200005 1.27074355e-38
0.13245715 -0.10178287 2.73200005 1.215173939e-38
0.13385144 -0.10178287 2.73200005 1.214705625e-38
0.13524573 -0.10178287 2.73200005 1.223457995e-38
0.13664001 -0.10178287 2.73200005 1.21355642e-38
0.13803428 -0.10178287 2.73200005 1.203655125e-38
0.13980952 -0.10206095 2.73400003 1.186794562e-38
0.1415924 -0.10233905 2.73600006 1.177073614e-38
0.14318858 -0.1024781 2.73700005 1.177217948e-38
0.14459239 -0.1024781 2.73700005 1.186581985e-38
0.1459962 -0.1024781 2.73700005 1.186690726e-38
0.14740001 -0.1024781 2.73700005 1.186798485e-38
0.14880382 -0.1024781 2.73700005 1.1684674e-38
0.15020764 -0.1024781 2.73700005 1.140953465e-38
0.15161145 -0.1024781 2.73700005 1.223678139e-38
0.15301526 -0.1024781 2.73700005 1.297218002e-38
0.15441906 -0.1024781 2.73700005 1.324947737e-38
0.15624571 -0.10275619 2.73900002 1.352606145e-38
0.15765335 -0.10275619 2.73900002 1.380157074e-38
0.15906096 -0.10275619 2.73900002 1.416892394e-38
0.16046858 -0.10275619 2.73900002 1.444480037e-38
0.16209523 -0.10289524 2.74000001 1.471922225e-38
0.16350476 -0.10289524 2.74000001 1.481176681e-38
0.16536 -0.10317334 2.74200004 1.49046757e-38
0.16677335 -0.10317334 2.74200004 1.490431416e-38
0.16841334 -0.10331238 2.74300003 1.490431697e-38
0.16982858 -0.10331238 2.74300003 1.490503863e-38
0.17170477 -0.10359049 2.74500006 1.499686712e-38
0.17312382 -0.10359049 2.74500006 1.508869701e-38
0.17501144 -0.10386857 2.74700004 1.527273094e-38
0.17643429 -0.10386857 2.74700004 1.54571236e-38
0.17785716 -0.10386857 2.74700004 1.57315553e-38
0.17928 -0.10386857 2.74700004 1.600921558e-38
0.18094477 -0.10400762 2.74800003 1.628543953e-38
0.18236953 -0.10400762 2.74800003 1.619360404e-38
0.18477714 -0.10456382 2.75200003 1.619362366e-38
0.18645714 -0.10470286 2.75300002 1.601068975e-38
0.18864 -0.10512 2.75600004 1.591883463e-38
0.19008002 -0.10512 2.75600004 1.564259106e-38
0.19202667 -0.1053981 2.75800002 1.545854592e-38
0.19347048 -0.1053981 2.75800002 1.527557698e-38
0.19542858 -0.1056762 2.76000005 1.509263887e-38
0.1968762 -0.1056762 2.76000005 1.463204187e-38
0.19832383 -0.1056762 2.76000005 1.42639628e-38
0.19977143 -0.1056762 2.76000005 1.371185541e-38
0.20121905 -0.1056762 2.76000005 1.325198149e-38
0.20213334 -0.1053981 2.75800002 1.352715166e-38
0.20357715 -0.1053981 2.75800002 1.371082546e-38
0.20502095 -0.1053981 2.75800002 1.352285388e-38
0.20646477 -0.1053981 2.75800002 1.342886038e-38
0.20790857 -0.1053981 2.75800002 1.278529024e-38
0.2088 -0.10512 2.75600004 1.21417229e-38
0.21079619 -0.1053981 2.75800002 1.232610996e-38
0.21168001 -0.10512 2.75600004 1.260233111e-38
0.21312001 -0.10512 2.75600004 1.26941638e-38
0.21456 -0.10512 2.75600004 1.278599229e-38
0.21600002 -0.10512 2.75600004 1.297037374e-38
0.21744001 -0.10512 2.75600004 1.306328264e-38
0.21888 -0.10512 2.75600004 1.333986392e-38
0.22032002 -0.10512 2.75600004 1.352461952e-38
0.22176 -0.10512 2.75600004 1.278671676e-38
0.22320001 -0.10512 2.75600004 1.195373171e-38
0.22464001 -0.10512 2.75600004 1.085133861e-38
0.22608002 -0.10512 2.75600004 9.74645261e-39
0.22752 -0.10512 2.75600004 1.048581131e-38
0.22865716 -0.10498096 2.75500005 1.12251602e-38
0.23040001 -0.10512 2.75600004 1.131735723e-38
0.23184 -0.10512 2.75600004 1.150174149e-38
0.23328002 -0.10512 2.75600004 1.298222593e-38
0.23440954 -0.10498096 2.75500005 1.454307483e-38
0.23584764 -0.10498096 2.75500005 1.454056931e-38
0.23760001 -0.10512 2.75600004 1.454021338e-38
0.23904002 -0.10512 2.75600004 1.463169295e-38
0.24048001 -0.10512 2.75600004 1.472245365e-38
0.24256 -0.1053981 2.75800002 1.463061955e-38
0.24400382 -0.1053981 2.75800002 1.453879807e-38
0.24544762 -0.1053981 2.75800002 1.435657742e-38
0.24689142 -0.1053981 2.75800002 1.417467907e-38
0.24833524 -0.1053981 2.75800002 1.39902696e-38
0.24977905 -0.1053981 2.75800002 1.389700057e-38
0.25188571 -0.1056762 2.76000005 1.353002012e-38
0.25333336 -0.1056762 2.76000005 1.325595417e-38
0.25478098 -0.1056762 2.76000005 1.325560244e-38
0.25656572 -0.10581524 2.76100004 1.316340261e-38
0.25767621 -0.1056762 2.76000005 1.325702756e-38
0.25912383 -0.1056762 2.76000005 1.335072819e-38
0.12966858 -0.10038857 2.73200005 1.520573486e-38
0.13106287 -0.10038857 2.73200005 1.493094444e-38
0.13245715 -0.10038857 2.73200005 1.4651824e-38
0.13421714 -0.10066286 2.73400003 1.418903397e-38
0.13561524 -0.10066286 2.73400003 1.381594246e-38
0.13664001 -0.10038857 2.73200005 1.307550896e-38
0.13841143 -0.10066286 2.73400003 1.233615307e-38
0.14019048 -0.10093715 2.73600006 1.187266379e-38
0.1415924 -0.10093715 2.73600006 1.149814435e-38
0.14318858 -0.10107429 2.73700005 1.121581775e-38
0.14459239 -0.10107429 2.73700005 1.103213694e-38
0.1459962 -0.10107429 2.73700005 1.057330839e-38
0.14740001 -0.10107429 2.73700005 1.011592036e-38
0.14880382 -0.10107429 2.73700005 1.020990405e-38
0.15061525 -0.10134857 2.73900002 1.039609318e-38
0.15202287 -0.10134857 2.73900002 1.131696767e-38
0.15343048 -0.10134857 2.73900002 1.223676877e-38
0.1548381 -0.10134857 2.73900002 1.233005181e-38
0.15624571 -0.10134857 2.73900002 1.242260337e-38
0.15765335 -0.10134857 2.73900002 1.297469255e-38
0.15927619 -0.10148571 2.74000001 1.352570833e-38
0.16068572 -0.10148571 2.74000001 1.380229381e-38
0.16253333 -0.10176001 2.74200004 1.407743737e-38
0.16394667 -0.10176001 2.74200004 1.426110556e-38
0.16536 -0.10176001 2.74200004 1.444514229e-38
0.16677335 -0.10176001 2.74200004 1.453770225e-38
0.16841334 -0.10189714 2.74300003 1.462953215e-38
0.16982858 -0.10189714 2.74300003 1.462952654e-38
0.17170477 -0.10217144 2.74500006 1.462951113e-38
0.17312382 -0.10217144 2.74500006 1.481352544e-38
0.17454287 -0.10217144 2.74500006 1.499720904e-38
0.17643429 -0.10244572 2.74700004 1.518161151e-38
0.17809524 -0.10258286 2.74800003 1.545747953e-38
0.17952 -0.10258286 2.74800003 1.573370629e-38
0.18142858 -0.10285715 2.75000006 1.600957291e-38
0.18285716 -0.10285715 2.75000006 1.601029318e-38
0.18477714 -0.10313143 2.75200003 1.610213848e-38
0.18645714 -0.10326858 2.75300002 1.601067013e-38
0.18864 -0.10368001 2.75600004 1.591846609e-38
0.19058286 -0.10395429 2.75800002 1.564259106e-38
0.19202667 -0.10395429 2.75800002 1.545891166e-38
0.19347048 -0.10395429 2.75800002 1.527559099e-38
0.19542858 -0.10422858 2.76000005 1.518340377e-38
0.1968762 -0.10422858 2.76000005 1.481570866e-38
0.19832383 -0.10422858 2.76000005 1.44476394e-38
0.19977143 -0.10422858 2.76000005 1.407993028e-38
0.20068952 -0.10395429 2.75800002 1.380371613e-38
0.20213334 -0.10395429 2.75800002 1.389556284e-38
0.20357715 -0.10395429 2.75800002 1.40767213e-38
0.20502095 -0.10395429 2.75800002 1.389018045e-38
0.20646477 -0.10395429 2.75800002 1.370614933e-38
0.20790857 -0.10395429 2.75800002 1.268447803e-38
0.20935239 -0.10395429 2.75800002 1.168002168e-38
0.21079619 -0.10395429 2.75800002 1.18661982e-38
0.21224 -0.10395429 2.75800002 1.214206622e-38
0.21368381 -0.10395429 2.75800002 1.223462339e-38
0.21456 -0.10368001 2.75600004 1.232824274e-38
0.21600002 -0.10368001 2.75600004 1.242186349e-38
0.21744001 -0.10368001 2.75600004 1.260481701e-38
0.21888 -0.10368001 2.75600004 1.269952377e-38
0.22032002 -0.10368001 2.75600004 1.288033892e-38
0.22176 -0.10368001 2.75600004 1.251121728e-38
0.22320001 -0.10368001 2.75600004 1.213884464e-38
0.22464001 -0.10368001 2.75600004 1.048400223e-38
0.22608002 -0.10368001 2.75600004 8.919933145e-39
0.22752 -0.10368001 2.75600004 9.750042737e-39
0.22865716 -0.10354286 2.75500005 1.067378429e-38
0.23040001 -0.10368001 2.75600004 1.085925315e-38
0.23184 -0.10368001 2.75600004 1.11343953e-38
0.23328002 -0.10368001 2.75600004 1.261380354e-38
0.23440954 -0.10354286 2.75500005 1.417465385e-38
0.23584764 -0.10354286 2.75500005 1.426434256e-38
0.23728573 -0.10354286 2.75500005 1.444765902e-38
0.23904002 -0.10368001 2.75600004 1.453949872e-38
0.24048001 -0.10368001 2.75600004 1.463133422e-38
0.24256 -0.10395429 2.75800002 1.444766462e-38
0.24336001 -0.10368001 2.75600004 1.426328037e-38
0.2448 -0.10368001 2.75600004 1.398921442e-38
0.24689142 -0.10395429 2.75800002 1.380695874e-38
0.24833524 -0.10395429 2.75800002 1.343888107e-38
0.24977905 -0.10395429 2.75800002 1.316194806e-38
0.25122285 -0.10395429 2.75800002 1.297828688e-38
0.25266668 -0.10395429 2.75800002 1.288788911e-38
0.25411049 -0.10395429 2.75800002 1.298008755e-38
0.25622857 -0.10422858 2.76000005 1.31633984e-38
0.25767621 -0.10422858 2.76000005 1.325308151e-38
0.25912383 -0.10422858 2.76000005 1.334782329e-38
0.13106287 -0.098994292 2.73200005 1.502501781e-38
0.13245715 -0.098994292 2.73200005 1.484167332e-38
0.13458286 -0.099535242 2.73600006 1.474944826e-38
0.13598478 -0.099535242 2.73600006 1.456540452e-38
0.13701333 -0.099264763 2.73400003 1.419984219e-38
0.13878858 -0.099535242 2.73600006 1.383428125e-38
0.14019048 -0.099535242 2.73600006 1.345939328e-38
0.14178477 -0.099670485 2.73700005 1.30845025e-38
0.14318858 -0.099670485 2.73700005 1.271104805e-38
0.14459239 -0.099670485 2.73700005 1.233793412e-38
0.14639239 -0.099940956 2.73900002 1.19605168e-38
0.1478 -0.099940956 2.73900002 1.158312049e-38
0.14920762 -0.099940956 2.73900002 1.130939926e-38
0.15061525 -0.099940956 2.73900002 1.103605077e-38
0.15202287 -0.099940956 2.73900002 1.131479146e-38
0.15343048 -0.099940956 2.73900002 1.159355316e-38
0.15504763 -0.10007619 2.74000001 1.177653331e-38
0.15645714 -0.10007619 2.74000001 1.195984137e-38
0.15829334 -0.10034667 2.74200004 1.251300394e-38
0.15970668 -0.10034667 2.74200004 1.30661637e-38
0.16112001 -0.10034667 2.74200004 1.325054656e-38
0.16275239 -0.10048191 2.74300003 1.343744754e-38
0.16416763 -0.10048191 2.74300003 1.361789275e-38
0.16558285 -0.10048191 2.74300003 1.380193929e-38
0.16744764 -0.10075239 2.74500006 1.398598583e-38
0.16886668 -0.10075239 2.74500006 1.426183563e-38
0.17028573 -0.10075239 2.74500006 1.435401445e-38
0.17216572 -0.10102286 2.74700004 1.444654359e-38
0.17358857 -0.10102286 2.74700004 1.463019076e-38
0.17524572 -0.1011581 2.74800003 1.481388277e-38
0.17667049 -0.1011581 2.74800003 1.499757618e-38
0.17809524 -0.1011581 2.74800003 1.509085081e-38
0.17952 -0.1011581 2.74800003 1.536600277e-38
0.18142858 -0.10142858 2.75000006 1.554967797e-38
0.18285716 -0.10142858 2.75000006 1.564223653e-38
0.18477714 -0.10169905 2.75200003 1.582662359e-38
0.18645714 -0.10183429 2.75300002 1.591809895e-38
0.18839049 -0.10210477 2.75500005 1.610176994e-38
