# .PCD v0.7 - Point Cloud Data file format
VERSION 0.7
FIELDS x y z rgb
SIZE 4 4 4 4
TYPE F F F F
COUNT 1 1 1 1
WIDTH 970
HEIGHT 1
VIEWPOINT 0 0 0 1 0 0 0
POINTS 970
DATA ascii
0.37376192 2.079523809 0.83500004 1.030463323e-38
0.37445337 2.079333335 0.83300006 1.067306542e-38
0.37513715 2.079142861 0.83100003 1.113259463e-38
0.37762669 2.079333335 0.83300006 1.08577986e-38
0.37830287 2.079142861 0.83100003 1.067376888e-38
0.3798857 2.079142861 0.83100003 1.067556394e-38
0.38238671 2.079333335 0.83300006 1.076775817e-38
0.38397336 2.079333335 0.83300006 1.104434085e-38
0.38556004 2.079333335 0.83300006 1.131878376e-38
0.38714668 2.079333335 0.83300006 1.141027453e-38
0.38873336 2.079333335 0.83300006 1.150424701e-38
0.38938287 2.079142861 0.83100003 1.178045555e-38
0.39190671 2.079333335 0.83300006 1.214670872e-38
0.39443812 2.079523809 0.83500004 1.205450328e-38
0.39602858 2.079523809 0.83500004 1.196482719e-38
0.39761907 2.079523809 0.83500004 1.178080447e-38
0.39920953 2.079523809 0.83500004 1.168825011e-38
0.40175998 2.079714291 0.83700001 1.168789138e-38
0.40335429 2.079714291 0.83700001 1.168754385e-38
0.40494859 2.079714291 0.83700001 1.177903323e-38
0.4075143 2.079904765 0.83900005 1.186834499e-38
0.40911239 2.079904765 0.83900005 1.159139236e-38
0.41071051 2.079904765 0.83900005 1.140880037e-38
0.41329145 2.080095239 0.84100002 1.14999226e-38
0.41588002 2.080285713 0.84300005 1.159320144e-38
0.41847622 2.080476187 0.84500003 1.150280928e-38
0.42008573 2.080476187 0.84500003 1.140953325e-38
0.42319238 2.080761909 0.84800005 1.186942259e-38
0.42580953 2.080952384 0.85000002 1.23289588e-38
0.42843431 2.081142858 0.85200006 1.140343059e-38
0.43005717 2.081142858 0.85200006 1.048829862e-38
0.43269333 2.081333332 0.85400003 1.067519119e-38
0.43432 2.081333332 0.85400003 1.094853688e-38
0.43696764 2.081523813 0.85600007 1.094816974e-38
0.43962288 2.081714287 0.85800004 1.094781941e-38
0.44125715 2.081714287 0.85800004 1.094782782e-38
0.44753715 2.082571432 0.86700004 1.103966192e-38
0.45022479 2.082761906 0.86900002 1.085598952e-38
0.45292002 2.082952388 0.87100005 1.067195139e-38
0.45457906 2.082952388 0.87100005 1.067194298e-38
0.45623812 2.082952388 0.87100005 1.076342535e-38
0.3423619 2.083542861 0.86000001 8.74088924e-39
0.34400001 2.083542861 0.86000001 7.361561734e-39
0.34764764 2.084028572 0.86500007 6.072990725e-39
0.34727621 2.083542861 0.86000001 6.16518075e-39
0.34810287 2.08334858 0.85800004 6.349570608e-39
0.34892195 2.083154291 0.85600007 6.347421016e-39
0.34973332 2.082960002 0.85400003 6.348851742e-39
0.34971428 2.082571432 0.85000002 6.531801066e-39
0.35050666 2.082377143 0.84800005 6.715116128e-39
0.35087621 2.082085714 0.84500003 6.991344285e-39
0.35248572 2.082085714 0.84500003 7.267573844e-39
0.35409525 2.082085714 0.84500003 7.451250441e-39
0.35486287 2.081891432 0.84300005 7.543440466e-39
0.35477716 2.081502862 0.83900005 7.360841467e-39
0.35637528 2.081502862 0.83900005 7.178246672e-39
0.35712001 2.081308573 0.83700001 7.637066821e-39
0.35871428 2.081308573 0.83700001 8.096242901e-39
0.36030856 2.081308573 0.83700001 8.372824185e-39
0.36190286 2.081308573 0.83700001 8.740904654e-39
0.36436573 2.081502862 0.83900005 8.741285807e-39
0.36509144 2.081308573 0.83700001 8.834538016e-39
0.36668572 2.081308573 0.83700001 8.834519799e-39
0.36827999 2.081308573 0.83700001 8.926352493e-39
0.3698743 2.081308573 0.83700001 9.29440914e-39
0.37058097 2.081114292 0.83500004 9.754313895e-39
0.37217146 2.081114292 0.83500004 9.936561168e-39
0.37376192 2.081114292 0.83500004 1.021209288e-38
0.37535241 2.081114292 0.83500004 1.048905952e-38
0.37604004 2.080920003 0.83300006 1.085817695e-38
0.37762669 2.080920003 0.83300006 1.067413041e-38
0.37830287 2.080725715 0.83100003 1.058230332e-38
0.3798857 2.080725715 0.83100003 1.076634145e-38
0.38146859 2.080725715 0.83100003 1.09518005e-38
0.38305143 2.080725715 0.83100003 1.113510716e-38
0.38463432 2.080725715 0.83100003 1.131879637e-38
0.38807619 2.081114292 0.83500004 1.141208501e-38
0.38873336 2.080920003 0.83300006 1.150533442e-38
0.39032003 2.080920003 0.83300006 1.168826692e-38
0.39284763 2.081114292 0.83500004 1.187156097e-38
0.39443812 2.081114292 0.83500004 1.187118542e-38
0.39602858 2.081114292 0.83500004 1.178150932e-38
0.39857143 2.081308573 0.83700001 1.16893235e-38
0.40016571 2.081308573 0.83700001 1.150529238e-38
0.40175998 2.081308573 0.83700001 1.159640901e-38
0.40431812 2.081502862 0.83900005 1.159605868e-38
0.40591621 2.081502862 0.83900005 1.168718512e-38
0.4075143 2.081502862 0.83900005 1.168430966e-38
0.40911239 2.081502862 0.83900005 1.150099179e-38
0.41071051 2.081502862 0.83900005 1.131804387e-38
0.41329145 2.081697144 0.84100002 1.15020792e-38
0.41588002 2.081891432 0.84300005 1.168648027e-38
0.41847622 2.082085714 0.84500003 1.159394132e-38
0.42008573 2.082085714 0.84500003 1.140989898e-38
0.42319238 2.082377143 0.84800005 1.15939175e-38
0.42480764 2.082377143 0.84800005 1.177865628e-38
0.42843431 2.082765721 0.85200006 1.122942996e-38
0.43005717 2.082765721 0.85200006 1.068021205e-38
0.43269333 2.082960002 0.85400003 1.085922232e-38
0.43432 2.082960002 0.85400003 1.113292394e-38
0.43696764 2.083154291 0.85600007 1.10396423e-38
0.43962288 2.08334858 0.85800004 1.094710055e-38
0.44331428 2.083737142 0.86200005 1.094783063e-38
0.4465048 2.084028572 0.86500007 1.104002345e-38
0.44918859 2.084222861 0.86700004 1.058048724e-38
0.45188001 2.084417142 0.86900002 1.021277952e-38
0.45353523 2.084417142 0.86900002 1.05801159e-38
0.45519048 2.084417142 0.86900002 1.094745648e-38
0.34764764 2.085676193 0.86500007 5.15427563e-39
0.34808382 2.085379049 0.86200005 5.615961435e-39
0.34810287 2.084982857 0.85800004 6.165539482e-39
0.34892195 2.084784769 0.85600007 6.347416812e-39
0.34973332 2.084586665 0.85400003 6.531086403e-39
0.34971428 2.08419048 0.85000002 6.531085002e-39
0.35133335 2.08419048 0.85000002 6.623283434e-39
0.35212192 2.083992384 0.84800005 6.899512993e-39
0.35248572 2.08369524 0.84500003 7.267222118e-39
0.35409525 2.08369524 0.84500003 7.267949392e-39
0.35486287 2.083497144 0.84300005 7.267939583e-39
0.35562289 2.083299048 0.84100002 6.809469758e-39
0.35637528 2.083100952 0.83900005 6.351011143e-39
0.35797334 2.083100952 0.83900005 6.994578482e-39
0.35957146 2.083100952 0.83900005 7.729619782e-39
0.36030856 2.082902864 0.83700001 8.097317697e-39
0.36190286 2.082902864 0.83700001 8.556507789e-39
0.36436573 2.083100952 0.83900005 8.558315464e-39
0.36596382 2.083100952 0.83900005 8.649781018e-39
0.36668572 2.082902864 0.83700001 8.8334408e-39
0.36827999 2.082902864 0.83700001 9.017467722e-39
0.3698743 2.082902864 0.83700001 9.29333014e-39
0.37058097 2.082704768 0.83500004 9.570635896e-39
0.37217146 2.082704768 0.83500004 9.845431926e-39
0.37376192 2.082704768 0.83500004 1.02124334e-38
0.37535241 2.082704768 0.83500004 1.03971988e-38
0.37604004 2.082506672 0.83300006 1.058014392e-38
0.37762669 2.082506672 0.83300006 1.048794269e-38
0.37830287 2.082308576 0.83100003 1.048902169e-38
0.3798857 2.082308576 0.83100003 1.076560858e-38
0.38238671 2.082506672 0.83300006 1.113366522e-38
0.38305143 2.082308576 0.83100003 1.122621678e-38
0.38463432 2.082308576 0.83100003 1.131806629e-38
0.38807619 2.082704768 0.83500004 1.141350312e-38
0.38966668 2.082704768 0.83500004 1.150461135e-38
0.39032003 2.082506672 0.83300006 1.159571957e-38
0.39284763 2.082704768 0.83500004 1.168754105e-38
0.39538285 2.082902864 0.83700001 1.168788717e-38
0.39697716 2.082902864 0.83700001 1.168789418e-38
0.39761907 2.082704768 0.83500004 1.150423159e-38
0.40016571 2.082902864 0.83700001 1.141274923e-38
0.40272 2.083100952 0.83900005 1.150565531e-38
0.40431812 2.083100952 0.83900005 1.159642302e-38
0.40591621 2.083100952 0.83900005 1.159571537e-38
0.4075143 2.083100952 0.83900005 1.159319163e-38
0.40911239 2.083100952 0.83900005 1.141022689e-38
0.41071051 2.083100952 0.83900005 1.122584123e-38
0.41329145 2.083299048 0.84100002 1.150135053e-38
0.41588002 2.083497144 0.84300005 1.186870232e-38
0.41847622 2.08369524 0.84500003 1.168504114e-38
0.42008573 2.08369524 0.84500003 1.150172467e-38
0.42319238 2.083992384 0.84800005 1.141060244e-38
0.42480764 2.083992384 0.84800005 1.131912287e-38
0.42843431 2.084388576 0.85200006 1.113760287e-38
0.43005717 2.084388576 0.85200006 1.095285148e-38
0.43269333 2.084586665 0.85400003 1.113544347e-38
0.43432 2.084586665 0.85400003 1.131659913e-38
0.43696764 2.084784769 0.85600007 1.113149041e-38
0.43962288 2.084982857 0.85800004 1.103966332e-38
0.44228572 2.085180953 0.86000001 1.104003046e-38
0.44495621 2.085379049 0.86200005 1.104003046e-38
0.44815239 2.085676193 0.86500007 1.039574565e-38
0.45084003 2.085874289 0.86700004 9.845440334e-39
0.45249146 2.085874289 0.86700004 1.048792027e-38
0.4541429 2.085874289 0.86700004 1.113076874e-38
0.34764764 2.087323815 0.86500007 4.786933645e-39
0.34808382 2.087020956 0.86200005 5.246467056e-39
0.3489143 2.086819053 0.86000001 5.614166371e-39
0.34973717 2.086617149 0.85800004 5.888236529e-39
0.35055238 2.086415246 0.85600007 6.161949355e-39
0.35053715 2.086011432 0.85200006 6.161950757e-39
0.35216004 2.086011432 0.85200006 6.162315094e-39
0.35295239 2.085809529 0.85000002 6.53038155e-39
0.35373715 2.085607626 0.84800005 6.990289107e-39
0.3553524 2.085607626 0.84800005 7.082856081e-39
0.35570478 2.085304759 0.84500003 7.175392227e-39
0.35646859 2.085102864 0.84300005 6.899870324e-39
0.35722476 2.084900953 0.84100002 6.716202134e-39
0.35882667 2.084900953 0.84100002 7.17574115e-39
0.35957146 2.08469905 0.83900005 7.635274561e-39
0.36030856 2.084497139 0.83700001 8.00368994e-39
0.36190286 2.084497139 0.83700001 8.28027683e-39
0.36436573 2.08469905 0.83900005 8.464669491e-39
0.36596382 2.08469905 0.83900005 8.55757698e-39
0.36668572 2.084497139 0.83700001 8.740886437e-39
0.36827999 2.084497139 0.83700001 8.924554627e-39
0.3698743 2.084497139 0.83700001 9.108940282e-39
0.37058097 2.084295236 0.83500004 9.386959298e-39
0.37217146 2.084295236 0.83500004 9.569196762e-39
0.37376192 2.084295236 0.83500004 9.843996996e-39
0.37535241 2.084295236 0.83500004 9.934767506e-39
0.37604004 2.08409334 0.83300006 1.011772243e-38
0.37762669 2.08409334 0.83300006 1.021243059e-38
0.37921336 2.08409334 0.83300006 1.039645892e-38
0.3798857 2.083891436 0.83100003 1.048829301e-38
0.38238671 2.08409334 0.83300006 1.06719654e-38
0.38305143 2.083891436 0.83100003 1.07659561e-38
0.38463432 2.083891436 0.83100003 1.095035296e-38
0.38714668 2.08409334 0.83300006 1.104219827e-38
0.38966668 2.084295236 0.83500004 1.11343939e-38
0.39125714 2.084295236 0.83500004 1.131734883e-38
0.39284763 2.084295236 0.83500004 1.150065128e-38
0.39538285 2.084497139 0.83700001 1.150136033e-38
0.39697716 2.084497139 0.83700001 1.150244354e-38
0.39857143 2.084497139 0.83700001 1.141133391e-38
0.40112191 2.08469905 0.83900005 1.132020607e-38
0.40272 2.08469905 0.83900005 1.150422599e-38
0.40431812 2.08469905 0.83900005 1.178045975e-38
0.40591621 2.08469905 0.83900005 1.159464617e-38
0.4075143 2.08469905 0.83900005 1.1502075e-38
0.40911239 2.08469905 0.83900005 1.140950382e-38
0.41071051 2.08469905 0.83900005 1.131730959e-38
0.41329145 2.084900953 0.84100002 1.140914509e-38
0.41588002 2.085102864 0.84300005 1.159318042e-38
0.41748571 2.085102864 0.84300005 1.150171066e-38
0.42008573 2.085304759 0.84500003 1.150350712e-38
0.42319238 2.085607626 0.84800005 1.141059963e-38
0.42480764 2.085607626 0.84800005 1.131912567e-38
0.42843431 2.086011432 0.85200006 1.122765311e-38
0.43106669 2.086213335 0.85400003 1.104433245e-38
0.43269333 2.086213335 0.85400003 1.131911306e-38
0.43432 2.086213335 0.85400003 1.159211123e-38
0.43696764 2.086415246 0.85600007 1.113150302e-38
0.43962288 2.086617149 0.85800004 1.076416664e-38
0.44125715 2.086617149 0.85800004 1.085600774e-38
0.44495621 2.087020956 0.86200005 1.104003606e-38
0.44815239 2.087323815 0.86500007 1.067233535e-38
0.44980004 2.087323815 0.86500007 1.039645611e-38
0.45249146 2.087525718 0.86700004 1.067230872e-38
0.4541429 2.087525718 0.86700004 1.094817534e-38
0.34727621 2.088457145 0.86000001 4.784416913e-39
0.3489143 2.088457145 0.86000001 5.152835095e-39
0.34973717 2.088251427 0.85800004 5.521254678e-39
0.35055238 2.088045716 0.85600007 5.887519064e-39
0.35053715 2.087634288 0.85200006 5.794248638e-39
0.35216004 2.087634288 0.85200006 5.702060015e-39
0.35295239 2.08742857 0.85000002 6.161244502e-39
0.35248572 2.086914286 0.84500003 6.71441688e-39
0.35409525 2.086914286 0.84500003 6.897020083e-39
0.35570478 2.086914286 0.84500003 7.081398731e-39
0.35646859 2.086708575 0.84300005 7.082106387e-39
0.35807431 2.086708575 0.84300005 7.174302017e-39
0.35968003 2.086708575 0.84300005 7.358333143e-39
0.36042857 2.086502858 0.84100002 7.634198364e-39
0.36116955 2.086297147 0.83900005 7.818228088e-39
0.36276761 2.086297147 0.83900005 8.095168105e-39
0.36436573 2.086297147 0.83900005 8.280632759e-39
0.36596382 2.086297147 0.83900005 8.556136445e-39
0.36756194 2.086297147 0.83900005 8.648329273e-39
0.36827999 2.086091429 0.83700001 8.832357596e-39
0.3698743 2.086091429 0.83700001 9.016385919e-39
0.37058097 2.085885718 0.83500004 9.292255344e-39
0.37217146 2.085885718 0.83500004 9.384811108e-39
0.37465715 2.086091429 0.83700001 9.476297681e-39
0.37535241 2.085885718 0.83500004 9.567785655e-39
0.37694287 2.085885718 0.83500004 9.752172711e-39
0.37853336 2.085885718 0.83500004 1.00287554e-38
0.37921336 2.08568 0.83300006 1.030461922e-38
0.38080001 2.08568 0.83300006 1.030497515e-38
0.38330477 2.085885718 0.83500004 1.030533388e-38
0.38489524 2.085885718 0.83500004 1.039752951e-38
0.38556004 2.08568 0.83300006 1.05812033e-38
0.38807619 2.085885718 0.83500004 1.0673043e-38
0.38966668 2.085885718 0.83500004 1.085707833e-38
0.39125714 2.085885718 0.83500004 1.113330649e-38
0.39378858 2.086091429 0.83700001 1.140880877e-38
0.39538285 2.086091429 0.83700001 1.131661034e-38
0.39697716 2.086091429 0.83700001 1.131876414e-38
0.39857143 2.086091429 0.83700001 1.122693144e-38
0.40112191 2.086297147 0.83900005 1.122657131e-38
0.40272 2.086297147 0.83900005 1.159391049e-38
0.40431812 2.086297147 0.83900005 1.196089655e-38
0.40591621 2.086297147 0.83900005 1.168539286e-38
0.4075143 2.086297147 0.83900005 1.140915349e-38
0.40911239 2.086297147 0.83900005 1.140877935e-38
0.41071051 2.086297147 0.83900005 1.150098058e-38
0.41329145 2.086502858 0.84100002 1.140843603e-38
0.41588002 2.086708575 0.84300005 1.131732781e-38
0.41748571 2.086708575 0.84300005 1.141024931e-38
0.42008573 2.086914286 0.84500003 1.15020792e-38
0.42319238 2.087222867 0.84800005 1.141059823e-38
0.42480764 2.087222867 0.84800005 1.141024511e-38
0.42742857 2.08742857 0.85000002 1.131841521e-38
0.43005717 2.087634288 0.85200006 1.122801465e-38
0.43269333 2.087839998 0.85400003 1.159463917e-38
0.43432 2.087839998 0.85400003 1.195982175e-38
0.43696764 2.088045716 0.85600007 1.122369725e-38
0.43859813 2.088045716 0.85600007 1.048937061e-38
0.44125715 2.088251427 0.85800004 1.076559316e-38
0.44495621 2.088662863 0.86200005 1.104038359e-38
0.44659814 2.088662863 0.86200005 1.094783343e-38
0.44980004 2.088971436 0.86500007 1.094818235e-38
0.45249146 2.089177147 0.86700004 1.085669578e-38
0.4541429 2.089177147 0.86700004 1.085633985e-38
0.34727621 2.090095237 0.86000001 4.785132976e-39
0.34810287 2.089885719 0.85800004 4.96880537e-39
0.34973717 2.089885719 0.85800004 5.245749591e-39
0.35055238 2.089676194 0.85600007 5.613090174e-39
0.35135999 2.089466669 0.85400003 5.980072025e-39
0.35216004 2.089257151 0.85200006 6.438896379e-39
0.35295239 2.089047618 0.85000002 6.530378748e-39
0.35373715 2.0888381 0.84800005 6.622217046e-39
0.3553524 2.0888381 0.84800005 6.805173376e-39
0.35696763 2.0888381 0.84800005 6.988840165e-39
0.35731432 2.088523813 0.84500003 7.081749056e-39
0.35807431 2.088314287 0.84300005 7.173225819e-39
0.35968003 2.088314287 0.84300005 7.356896812e-39
0.36042857 2.088104762 0.84100002 7.632404701e-39
0.36116955 2.087895244 0.83900005 7.726395395e-39
0.36276761 2.087895244 0.83900005 7.910419514e-39
0.36523429 2.088104762 0.84100002 8.094443634e-39
0.36596382 2.087895244 0.83900005 8.278471957e-39
0.36756194 2.087895244 0.83900005 8.371742383e-39
0.36827999 2.087685712 0.83700001 8.464654076e-39
0.3698743 2.087685712 0.83700001 8.740161966e-39
0.37146857 2.087685712 0.83700001 9.01567406e-39
0.37306285 2.087685712 0.83700001 9.107873894e-39
0.37465715 2.087685712 0.83700001 9.20007653e-39
0.37625143 2.087685712 0.83700001 9.383757331e-39
0.3778457 2.087685712 0.83700001 9.569219183e-39
0.37944001 2.087685712 0.83700001 9.845081601e-39
0.38103428 2.087685712 0.83700001 1.012130275e-38
0.38171428 2.087476194 0.83500004 1.012165868e-38
0.38330477 2.087476194 0.83500004 1.021385151e-38
0.38489524 2.087476194 0.83500004 1.030640307e-38
0.38556004 2.087266669 0.83300006 1.039895463e-38
0.38807619 2.087476194 0.83500004 1.048935379e-38
0.38966668 2.087476194 0.83500004 1.067159826e-38
0.39125714 2.087476194 0.83500004 1.094926555e-38
0.39378858 2.087685712 0.83700001 1.122513078e-38
0.39538285 2.087685712 0.83700001 1.122548951e-38
0.39697716 2.087685712 0.83700001 1.122728037e-38
0.39952382 2.087895244 0.83900005 1.12265601e-38
0.40112191 2.087895244 0.83900005 1.113293655e-38
0.40272 2.087895244 0.83900005 1.140988357e-38
0.40431812 2.087895244 0.83900005 1.168466699e-38
0.40591621 2.087895244 0.83900005 1.150170926e-38
0.4075143 2.087895244 0.83900005 1.140699129e-38
0.40911239 2.087895244 0.83900005 1.131765431e-38
0.41071051 2.087895244 0.83900005 1.131731099e-38
0.41427431 2.088314287 0.84300005 1.131732781e-38
0.41588002 2.088314287 0.84300005 1.131734042e-38
0.41847622 2.088523813 0.84500003 1.131771176e-38
0.42008573 2.088523813 0.84500003 1.140989338e-38
0.42319238 2.0888381 0.84800005 1.150171626e-38
0.42480764 2.0888381 0.84800005 1.1502082e-38
0.42742857 2.089047618 0.85000002 1.131770195e-38
0.43005717 2.089257151 0.85200006 1.122838459e-38
0.43269333 2.089466669 0.85400003 1.141062906e-38
0.43432 2.089466669 0.85400003 1.16846838e-38
0.43696764 2.089676194 0.85600007 1.122513218e-38
0.43859813 2.089676194 0.85600007 1.076558756e-38
0.44022858 2.089676194 0.85600007 1.085705731e-38
0.4439238 2.090095237 0.86000001 1.085706152e-38
0.44659814 2.09030477 0.86200005 1.085742445e-38
0.44980004 2.090619057 0.86500007 1.094961168e-38
0.45144767 2.090619057 0.86500007 1.085633564e-38
0.45309526 2.090619057 0.86500007 1.076450435e-38
0.34810287 2.091520004 0.85800004 4.875536346e-39
0.34892195 2.091306672 0.85600007 5.062438732e-39
0.34973332 2.091093332 0.85400003 5.337592093e-39
0.35135999 2.091093332 0.85400003 6.25595266e-39
0.35216004 2.090879999 0.85200006 7.265782984e-39
0.35378286 2.090879999 0.85200006 6.898080866e-39
0.35457143 2.090666667 0.85000002 6.530020015e-39
0.3553524 2.090453334 0.84800005 6.713330874e-39
0.35696763 2.090453334 0.84800005 6.988835961e-39
0.35731432 2.090133332 0.84500003 7.081746253e-39
0.35807431 2.089920007 0.84300005 7.265417245e-39
0.35968003 2.089920007 0.84300005 7.449448371e-39
0.36128575 2.089920007 0.84300005 7.632043166e-39
0.36203048 2.089706667 0.84100002 7.726391191e-39
0.36363238 2.089706667 0.84100002 7.818222483e-39
0.36523429 2.089706667 0.84100002 7.911131374e-39
0.36683619 2.089706667 0.84100002 8.095159697e-39
0.36756194 2.089493334 0.83900005 8.09551843e-39
0.36916 2.089493334 0.83900005 8.188790257e-39
0.3698743 2.089280002 0.83700001 8.464299548e-39
0.37146857 2.089280002 0.83700001 8.739813043e-39
0.37306285 2.089280002 0.83700001 8.832731743e-39
0.37465715 2.089280002 0.83700001 8.924214112e-39
0.37625143 2.089280002 0.83700001 9.199727607e-39
0.3778457 2.089280002 0.83700001 9.477026356e-39
0.37944001 2.089280002 0.83700001 9.753609041e-39
0.38103428 2.089280002 0.83700001 1.002947006e-38
0.38171428 2.089066669 0.83500004 1.003054205e-38
0.38330477 2.089066669 0.83500004 1.012237755e-38
0.38581714 2.089280002 0.83700001 1.012416981e-38
0.38556004 2.088853337 0.83300006 1.02149221e-38
0.38900569 2.089280002 0.83700001 1.039750989e-38
0.3906 2.089280002 0.83700001 1.057975576e-38
0.3921943 2.089280002 0.83700001 1.076558896e-38
0.39378858 2.089280002 0.83700001 1.104109545e-38
0.39632761 2.089493334 0.83900005 1.113436587e-38
0.39792573 2.089493334 0.83900005 1.122655309e-38
0.39952382 2.089493334 0.83900005 1.113471199e-38
0.40112191 2.089493334 0.83900005 1.113292674e-38
0.40272 2.089493334 0.83900005 1.122620557e-38
0.40431812 2.089493334 0.83900005 1.140951783e-38
0.40591621 2.089493334 0.83900005 1.140987656e-38
0.4075143 2.089493334 0.83900005 1.14102353e-38
0.40911239 2.089493334 0.83900005 1.131875853e-38
0.41071051 2.089493334 0.83900005 1.122584684e-38
0.41329145 2.089706667 0.84100002 1.122548671e-38
0.41588002 2.089920007 0.84300005 1.131661595e-38
0.41847622 2.090133332 0.84500003 1.131626702e-38
0.42008573 2.090133332 0.84500003 1.140845144e-38
0.42319238 2.090453334 0.84800005 1.1500996e-38
0.42580953 2.090666667 0.85000002 1.168466839e-38
0.42843431 2.090879999 0.85200006 1.14091633e-38
0.43005717 2.090879999 0.85200006 1.122585805e-38
0.43269333 2.091093332 0.85400003 1.131841802e-38
0.43432 2.091093332 0.85400003 1.150064567e-38
0.43696764 2.091306672 0.85600007 1.131660614e-38
0.43859813 2.091306672 0.85600007 1.113364981e-38
0.44022858 2.091306672 0.85600007 1.095105221e-38
0.4439238 2.091733329 0.86000001 1.076702669e-38
0.44556189 2.091733329 0.86000001 1.085850626e-38
0.44980004 2.092266671 0.86500007 1.094854108e-38
0.45144767 2.092266671 0.86500007 1.085634125e-38
0.45309526 2.092266671 0.86500007 1.076486168e-38
0.34892195 2.092937149 0.85600007 4.694021952e-39
0.34973332 2.092720002 0.85400003 4.785870059e-39
0.35135999 2.092720002 0.85400003 5.520207908e-39
0.35298669 2.092720002 0.85400003 6.25201361e-39
0.35378286 2.092502862 0.85200006 6.252363935e-39
0.35457143 2.092285715 0.85000002 6.344552558e-39
0.35619047 2.092285715 0.85000002 6.528936811e-39
0.35696763 2.092068575 0.84800005 6.713325269e-39
0.35731432 2.091742858 0.84500003 6.896637529e-39
0.35892382 2.091742858 0.84500003 7.080309922e-39
0.36053333 2.091742858 0.84500003 7.172505552e-39
0.36128575 2.091525719 0.84300005 7.264699781e-39
0.36289144 2.091525719 0.84300005 7.358328939e-39
0.36363238 2.091308571 0.84100002 7.450520365e-39
0.36523429 2.091308571 0.84100002 7.635266153e-39
0.36683619 2.091308571 0.84100002 7.820013342e-39
0.36843809 2.091308571 0.84100002 7.820372075e-39
0.36916 2.091091432 0.83900005 7.912927838e-39
0.3698743 2.090874285 0.83700001 8.096601633e-39
0.37146857 2.090874285 0.83700001 8.280281033e-39
0.37306285 2.090874285 0.83700001 8.463603102e-39
0.37465715 2.090874285 0.83700001 8.647276897e-39
0.37625143 2.090874285 0.83700001 8.83202689e-39
0.3778457 2.090874285 0.83700001 9.109328441e-39
0.37944001 2.090874285 0.83700001 9.294078433e-39
0.38103428 2.090874285 0.83700001 9.570296782e-39
0.38262859 2.090874285 0.83700001 9.570649909e-39
0.38330477 2.090657145 0.83500004 9.663561602e-39
0.38581714 2.090874285 0.83700001 9.663920335e-39
0.38648573 2.090657145 0.83500004 9.75287336e-39
0.38807619 2.090657145 0.83500004 1.002836724e-38
0.3906 2.090874285 0.83700001 1.039607776e-38
0.3921943 2.090874285 0.83700001 1.05811949e-38
0.39378858 2.090874285 0.83700001 1.076522462e-38
0.39632761 2.091091432 0.83900005 1.085921251e-38
0.39792573 2.091091432 0.83900005 1.095139693e-38
0.39952382 2.091091432 0.83900005 1.095102839e-38
0.40112191 2.091091432 0.83900005 1.094924594e-38
0.40272 2.091091432 0.83900005 1.113328687e-38
0.40431812 2.091091432 0.83900005 1.13173208e-38
0.40688381 2.091308571 0.84100002 1.150063867e-38
0.40848571 2.091308571 0.84100002 1.168432227e-38
0.40911239 2.091091432 0.83900005 1.140918853e-38
0.41071051 2.091091432 0.83900005 1.122621678e-38
0.41329145 2.091308571 0.84100002 1.113292954e-38
0.41686669 2.091742858 0.84500003 1.113257922e-38
0.41847622 2.091742858 0.84500003 1.113258762e-38
0.42157719 2.092068575 0.84800005 1.122477485e-38
0.42419049 2.092285715 0.85000002 1.140879897e-38
0.42580953 2.092285715 0.85000002 1.159354195e-38
0.42843431 2.092502862 0.85200006 1.140914929e-38
0.43106669 2.092720002 0.85400003 1.122476644e-38
0.43269333 2.092720002 0.85400003 1.131660894e-38
0.43432 2.092720002 0.85400003 1.140880037e-38
0.43696764 2.092937149 0.85600007 1.113329248e-38
0.43859813 2.092937149 0.85600007 1.095069908e-38
0.44022858 2.092937149 0.85600007 1.05833599e-38
0.44289145 2.093154289 0.85800004 1.030821495e-38
0.44556189 2.093371429 0.86000001 1.058264804e-38
0.44824004 2.093588576 0.86200005 1.094783063e-38
0.44988194 2.093588576 0.86200005 1.085598812e-38
0.45152384 2.093588576 0.86200005 1.085813211e-38
0.35135999 2.094346665 0.85400003 4.784798066e-39
0.35298669 2.094346665 0.85400003 5.333653043e-39
0.35461336 2.094346665 0.85400003 5.702067021e-39
0.35540575 2.094125718 0.85200006 6.160881566e-39
0.3570286 2.094125718 0.85200006 6.344189622e-39
0.35780954 2.093904763 0.85000002 6.527859213e-39
0.35858288 2.093683809 0.84800005 6.711530205e-39
0.36019811 2.093683809 0.84800005 6.895918662e-39
0.36053333 2.093352385 0.84500003 6.896637529e-39
0.36214286 2.093352385 0.84500003 6.989190489e-39
0.36289144 2.093131438 0.84300005 7.082102183e-39
0.36449715 2.093131438 0.84300005 7.173578947e-39
0.36610287 2.093131438 0.84300005 7.356889805e-39
0.36858097 2.093352385 0.84500003 7.542714593e-39
0.36931431 2.093131438 0.84300005 7.637062618e-39
0.36916 2.092689529 0.83900005 7.729258247e-39
0.37075812 2.092689529 0.83900005 7.821814011e-39
0.37146857 2.092468575 0.83700001 7.91329638e-39
0.3739543 2.092689529 0.83900005 8.096614245e-39
0.37555239 2.092689529 0.83900005 8.371763402e-39
0.37715051 2.092689529 0.83900005 8.55615186e-39
0.3787486 2.092689529 0.83900005 8.832378615e-39
0.38034669 2.092689529 0.83900005 8.92672664e-39
0.38103428 2.092468575 0.83700001 9.110756364e-39
0.38262859 2.092468575 0.83700001 9.111115097e-39
0.38422287 2.092468575 0.83700001 9.203309325e-39
0.38581714 2.092468575 0.83700001 9.20402679e-39
0.38741145 2.092468575 0.83700001 9.293701484e-39
0.38807619 2.09224762 0.83500004 9.752870557e-39
0.39153334 2.092689529 0.83900005 1.021205364e-38
0.39313143 2.092689529 0.83900005 1.039680644e-38
0.39472955 2.092689529 0.83900005 1.058048163e-38
0.39632761 2.092689529 0.83900005 1.058407456e-38
0.39792573 2.092689529 0.83900005 1.067554292e-38
0.39952382 2.092689529 0.83900005 1.067553451e-38
0.40112191 2.092689529 0.83900005 1.076557915e-38
0.40272 2.092689529 0.83900005 1.094889421e-38
0.40431812 2.092689529 0.83900005 1.122368183e-38
0.40591621 2.092689529 0.83900005 1.159066509e-38
0.4075143 2.092689529 0.83900005 1.195801968e-38
0.41008762 2.092910476 0.84100002 1.159105044e-38
0.41168955 2.092910476 0.84100002 1.122369725e-38
0.41329145 2.092910476 0.84100002 1.104001645e-38
0.41588002 2.093131438 0.84300005 1.094855229e-38
0.41847622 2.093352385 0.84500003 1.104183533e-38
0.42157719 2.093683809 0.84800005 1.113294495e-38
0.42319238 2.093683809 0.84800005 1.131660894e-38
0.42580953 2.093904763 0.85000002 1.150063026e-38
0.42843431 2.094125718 0.85200006 1.140914368e-38
0.43005717 2.094125718 0.85200006 1.131731239e-38
0.43168002 2.094125718 0.85200006 1.1317318e-38
0.43330288 2.094125718 0.85200006 1.140879756e-38
0.43594667 2.094346665 0.85400003 1.104181852e-38
0.43757334 2.094346665 0.85400003 1.076631623e-38
0.44022858 2.094567627 0.85600007 1.030714436e-38
0.44289145 2.094788581 0.85800004 9.847975283e-39
0.44452572 2.094788581 0.85800004 1.039899527e-38
0.4472 2.095009528 0.86000001 1.094748731e-38
0.44988194 2.095230483 0.86200005 1.09474761e-38
0.45152384 2.095230483 0.86200005 1.094818656e-38
0.35298669 2.095973335 0.85400003 4.782994595e-39
0.35627431 2.096422859 0.85800004 5.333288706e-39
0.35624 2.095973335 0.85400003 5.975774243e-39
0.35619047 2.095523812 0.85000002 6.159442432e-39
0.35780954 2.095523812 0.85000002 6.43494752e-39
0.35942858 2.095523812 0.85000002 6.527857812e-39
0.36104763 2.095523812 0.85000002 6.711528804e-39
0.36053333 2.094961911 0.84500003 6.803006969e-39
0.36214286 2.094961911 0.84500003 6.894842465e-39
0.36289144 2.09473715 0.84300005 6.804083166e-39
0.36449715 2.09473715 0.84300005 6.713323867e-39
0.36697143 2.094961911 0.84500003 6.897354993e-39
0.36770859 2.09473715 0.84300005 7.173581749e-39
0.36931431 2.09473715 0.84300005 7.269366104e-39
0.37004003 2.094512381 0.84100002 7.361919065e-39
0.37075812 2.094287626 0.83900005 7.545950191e-39
0.37235621 2.094287626 0.83900005 7.730700184e-39
0.37484571 2.094512381 0.84100002 7.912580316e-39
0.37555239 2.094287626 0.83900005 8.188085404e-39
0.37715051 2.094287626 0.83900005 8.371754995e-39
0.3787486 2.094287626 0.83900005 8.555427388e-39
0.38034669 2.094287626 0.83900005 8.649418081e-39
0.38103428 2.094062857 0.83700001 8.742694112e-39
0.38262859 2.094062857 0.83700001 8.741982253e-39
0.38422287 2.094062857 0.83700001 8.833459017e-39
0.38581714 2.094062857 0.83700001 9.017847474e-39
0.38741145 2.094062857 0.83700001 9.202231727e-39
0.38807619 2.093838103 0.83500004 9.568852043e-39
0.3906 2.094062857 0.83700001 9.935835295e-39
0.3921943 2.094062857 0.83700001 1.011986502e-38
0.39378858 2.094062857 0.83700001 1.039574005e-38
0.39538285 2.094062857 0.83700001 1.030499196e-38
0.39792573 2.094287626 0.83900005 1.030605975e-38
0.39857143 2.094062857 0.83700001 1.012274048e-38
0.40112191 2.094287626 0.83900005 1.003125812e-38
0.40272 2.094287626 0.83900005 1.048971393e-38
0.40431812 2.094287626 0.83900005 1.094816694e-38
0.40688381 2.094512381 0.84100002 1.131550192e-38
0.40848571 2.094512381 0.84100002 1.158958749e-38
0.41106287 2.09473715 0.84300005 1.131588867e-38
0.41266859 2.09473715 0.84300005 1.104109545e-38
0.41427431 2.09473715 0.84300005 1.094889701e-38
0.41686669 2.094961911 0.84500003 1.09485551e-38
0.41847622 2.094961911 0.84500003 1.067342416e-38
0.42157719 2.09529905 0.84800005 1.049010349e-38
0.42419049 2.095523812 0.85000002 1.085743707e-38
0.42681146 2.095748574 0.85200006 1.122404757e-38
0.42843431 2.095748574 0.85200006 1.122510976e-38
0.43106669 2.095973335 0.85400003 1.113471199e-38
0.43168002 2.095748574 0.85200006 1.113399733e-38
0.43432 2.095973335 0.85400003 1.104145278e-38
0.43594667 2.095973335 0.85400003 1.085779159e-38
0.43757334 2.095973335 0.85400003 1.076560577e-38
0.44022858 2.096198104 0.85600007 1.049010769e-38
0.44185907 2.096198104 0.85600007 1.021497255e-38
0.44348955 2.096198104 0.85600007 1.058196841e-38
0.44616002 2.096422859 0.85800004 1.103933822e-38
0.44988194 2.096872382 0.86200005 1.094748871e-38
0.45152384 2.096872382 0.86200005 1.09474803e-38
0.35627431 2.098057151 0.85800004 4.969896982e-39
0.35874283 2.09828572 0.86000001 5.793539581e-39
0.35954288 2.098057151 0.85800004 6.068323e-39
0.35865143 2.097371429 0.85200006 6.344545552e-39
0.36027431 2.097371429 0.85200006 6.437097111e-39
0.36104763 2.097142853 0.85000002 6.619333174e-39
0.36181334 2.096914291 0.84800005 6.709017677e-39
0.36342859 2.096914291 0.84800005 6.802646835e-39
0.36375237 2.096571431 0.84500003 6.527141748e-39
0.36449715 2.096342862 0.84300005 6.252712858e-39
0.36697143 2.096571431 0.84500003 6.52857948e-39
0.36858097 2.096571431 0.84500003 6.806957229e-39
0.37019047 2.096571431 0.84500003 6.901663986e-39
0.37180001 2.096571431 0.84500003 7.086053845e-39
0.3716419 2.096114293 0.84100002 7.270445104e-39
0.37324381 2.096114293 0.84100002 7.54559286e-39
0.37662858 2.096571431 0.84500003 7.72890512e-39
0.37734288 2.096342862 0.84300005 8.004410207e-39
0.3789486 2.096342862 0.84300005 8.1880812e-39
0.38055432 2.096342862 0.84300005 8.371756396e-39
0.38125333 2.096114293 0.84100002 8.372478065e-39
0.38285524 2.096114293 0.84100002 8.373558466e-39
0.38445717 2.096114293 0.84100002 8.466472962e-39
0.38605905 2.096114293 0.84100002 8.557946923e-39
0.38673908 2.095885724 0.83900005 8.833450609e-39
0.38833717 2.095885724 0.83900005 9.108596964e-39
0.38993526 2.095885724 0.83900005 9.384102051e-39
0.39153334 2.095885724 0.83900005 9.752520233e-39
0.39313143 2.095885724 0.83900005 9.936549957e-39
0.39472955 2.095885724 0.83900005 1.021241798e-38
0.39632761 2.095885724 0.83900005 1.012130275e-38
0.39887431 2.096114293 0.84100002 1.003018472e-38
0.40047619 2.096114293 0.84100002 9.663920335e-39
0.40207809 2.096114293 0.84100002 9.296219618e-39
0.40368 2.096114293 0.84100002 1.003090499e-38
0.40528193 2.096114293 0.84100002 1.076450715e-38
0.40688381 2.096114293 0.84100002 1.104036817e-38
0.40945715 2.096342862 0.84300005 1.1315167e-38
0.41106287 2.096342862 0.84300005 1.113294215e-38
0.41266859 2.096342862 0.84300005 1.094926415e-38
0.41427431 2.096342862 0.84300005 1.094925715e-38
0.41588002 2.096342862 0.84300005 1.094890963e-38
0.41847622 2.096571431 0.84500003 1.039755053e-38
0.42157719 2.096914291 0.84800005 9.847609544e-39
0.42419049 2.097142853 0.85000002 1.039861832e-38
0.42681146 2.097371429 0.85200006 1.104110666e-38
0.42843431 2.097371429 0.85200006 1.104110525e-38
0.43005717 2.097371429 0.85200006 1.104289191e-38
0.43168002 2.097371429 0.85200006 1.085921391e-38
0.43330288 2.097371429 0.85200006 1.076666515e-38
0.43594667 2.097600006 0.85400003 1.076595329e-38
0.43757334 2.097600006 0.85400003 1.076560017e-38
0.44022858 2.097828582 0.85600007 1.067377028e-38
0.44185907 2.097828582 0.85600007 1.058194039e-38
0.44348955 2.097828582 0.85600007 1.085673642e-38
0.44616002 2.098057151 0.85800004 1.113151703e-38
0.44988194 2.098514289 0.86200005 1.10393144e-38
0.45152384 2.098514289 0.86200005 1.103894726e-38
0.36290666 2.10201524 0.87800002 4.417100152e-39
0.36250287 2.10143429 0.87300003 4.968108925e-39
0.36333144 2.10120191 0.87100005 5.519470825e-39
0.3641524 2.10096953 0.86900002 5.794608772e-39
0.36286098 2.1001562 0.86200005 6.161949355e-39
0.36112002 2.099226668 0.85400003 6.437455844e-39
0.36274666 2.099226668 0.85400003 6.71116867e-39
0.36352 2.098994292 0.85200006 6.710809938e-39
0.36514288 2.098994292 0.85200006 6.618975843e-39
0.36590478 2.098761909 0.85000002 6.435664984e-39
0.36752382 2.098761909 0.85000002 6.252714259e-39
0.3682743 2.098529533 0.84800005 6.437105519e-39
0.37076193 2.098761909 0.85000002 6.71619793e-39
0.37019047 2.098180957 0.84500003 6.808033427e-39
0.37180001 2.098180957 0.84500003 6.899871725e-39
0.37340954 2.098180957 0.84500003 7.083905654e-39
0.37501907 2.098180957 0.84500003 7.267932576e-39
0.37662858 2.098180957 0.84500003 7.360842868e-39
0.37823811 2.098180957 0.84500003 7.544871192e-39
0.3789486 2.097948581 0.84300005 7.728542184e-39
0.38055432 2.097948581 0.84300005 8.003696946e-39
0.38216004 2.097948581 0.84300005 8.095898182e-39
0.38376576 2.097948581 0.84300005 8.188452544e-39
0.38537145 2.097948581 0.84300005 8.281006906e-39
0.38697717 2.097948581 0.84300005 8.465747089e-39
0.38766095 2.097716197 0.84100002 8.649771209e-39
0.38926286 2.097716197 0.84100002 8.925279098e-39
0.39086479 2.097716197 0.84100002 9.201147122e-39
0.39153334 2.097483814 0.83900005 9.385535579e-39
0.39406857 2.097716197 0.84100002 9.65996587e-39
0.39472955 2.097483814 0.83900005 9.84255506e-39
0.39632761 2.097483814 0.83900005 9.936178613e-39
0.39887431 2.097716197 0.84100002 1.002981758e-38
0.40047619 2.097716197 0.84100002 9.84651513e-39
0.40207809 2.097716197 0.84100002 9.755402704e-39
0.40464002 2.097948581 0.84300005 1.021422706e-38
0.40624571 2.097948581 0.84300005 1.07648785e-38
0.40785143 2.097948581 0.84300005 1.094818936e-38
0.41042858 2.098180957 0.84500003 1.113114849e-38
0.41203812 2.098180957 0.84500003 1.085672521e-38
0.41364762 2.098180957 0.84500003 1.058192637e-38
0.41525716 2.098180957 0.84500003 1.076558896e-38
0.41686669 2.098180957 0.84500003 1.094962429e-38
0.41847622 2.098180957 0.84500003 1.07659603e-38
0.42157719 2.098529533 0.84800005 1.067448354e-38
0.42419049 2.098761909 0.85000002 1.07659603e-38
0.42681146 2.098994292 0.85200006 1.094928377e-38
0.42843431 2.098994292 0.85200006 1.094929498e-38
0.43005717 2.098994292 0.85200006 1.095143056e-38
0.43168002 2.098994292 0.85200006 1.067590726e-38
0.43330288 2.098994292 0.85200006 1.049223767e-38
0.43594667 2.099226668 0.85400003 1.067447513e-38
0.43757334 2.099226668 0.85400003 1.085743006e-38
0.44022858 2.099459052 0.85600007 1.076559737e-38
0.44185907 2.099459052 0.85600007 1.067376187e-38
0.44348955 2.099459052 0.85600007 1.085743286e-38
0.44616002 2.099691428 0.85800004 1.104145978e-38
0.44883808 2.099923804 0.86000001 1.113257641e-38
0.4504762 2.099923804 0.86000001 1.122404337e-38
0.36290666 2.10368762 0.87800002 4.599700552e-39
0.36250287 2.10309715 0.87300003 4.877007709e-39
0.36333144 2.10286096 0.87100005 5.243971343e-39
0.3641524 2.10262477 0.86900002 5.61273004e-39
0.36412382 2.10215239 0.86500007 5.978637095e-39
0.36365715 2.1015619 0.86000001 6.438173309e-39
0.36444575 2.10132572 0.85800004 6.89448093e-39
0.36522669 2.10108953 0.85600007 6.709733741e-39
0.36600003 2.10085334 0.85400003 6.526783016e-39
0.36676574 2.10061715 0.85200006 6.344192425e-39
0.36752382 2.10038095 0.85000002 6.252363935e-39
0.36914286 2.10038095 0.85000002 6.437835596e-39
0.3716343 2.10061715 0.85200006 6.621858314e-39
0.37150478 2.10014477 0.84800005 6.622570174e-39
0.37180001 2.099790484 0.84500003 6.715486071e-39
0.37340954 2.099790484 0.84500003 6.808044637e-39
0.37501907 2.099790484 0.84500003 6.99242889e-39
0.37662858 2.099790484 0.84500003 6.993143552e-39
0.37823811 2.099790484 0.84500003 7.085333577e-39
0.37984765 2.099790484 0.84500003 7.361194594e-39
0.38145715 2.099790484 0.84500003 7.635989223e-39
0.38216004 2.099554293 0.84300005 7.818591025e-39
0.38376576 2.099554293 0.84300005 8.00405708e-39
0.38537145 2.099554293 0.84300005 8.188446939e-39
0.38697717 2.099554293 0.84300005 8.373192727e-39
0.38766095 2.099318095 0.84100002 8.557938515e-39
0.38926286 2.099318095 0.84100002 8.833799532e-39
0.39086479 2.099318095 0.84100002 8.92634969e-39
0.39246666 2.099318095 0.84100002 9.109666154e-39
0.39406857 2.099318095 0.84100002 9.291546287e-39
0.39472955 2.099081904 0.83900005 9.567049973e-39
0.39632761 2.099081904 0.83900005 9.751076895e-39
0.39887431 2.099318095 0.84100002 1.002874559e-38
0.40047619 2.099318095 0.84100002 1.012130836e-38
0.40207809 2.099318095 0.84100002 1.030570382e-38
0.40464002 2.099554293 0.84300005 1.048974055e-38
0.40720952 2.099790484 0.84500003 1.07648827e-38
0.40785143 2.099554293 0.84300005 1.085635386e-38
0.41042858 2.099790484 0.84500003 1.094783203e-38
0.41203812 2.099790484 0.84500003 1.058085018e-38
0.41364762 2.099790484 0.84500003 1.030569121e-38
0.41525716 2.099790484 0.84500003 1.067481565e-38
0.41686669 2.099790484 0.84500003 1.104181291e-38
0.41847622 2.099790484 0.84500003 1.122514058e-38
0.42157719 2.10014477 0.84800005 1.150136174e-38
0.42419049 2.10038095 0.85000002 1.122656991e-38
0.42580953 2.10038095 0.85000002 1.094855229e-38
0.42843431 2.10061715 0.85200006 1.094926976e-38
0.43005717 2.10061715 0.85200006 1.095034035e-38
0.43168002 2.10061715 0.85200006 1.058478642e-38
0.43330288 2.10061715 0.85200006 1.021673118e-38
0.43594667 2.10085334 0.85400003 1.05833613e-38
0.43757334 2.10085334 0.85400003 1.094998582e-38
0.43919998 2.10085334 0.85400003 1.085743286e-38
0.44185907 2.10108953 0.85600007 1.085742726e-38
0.44348955 2.10108953 0.85600007 1.085813912e-38
0.44616002 2.10132572 0.85800004 1.094961728e-38
0.44883808 2.1015619 0.86000001 1.113293234e-38
0.4504762 2.1015619 0.86000001 1.140771016e-38
0.36250287 2.10476 0.87300003 4.691918603e-39
0.36333144 2.10452001 0.87100005 5.060308759e-39
0.3649905 2.10452001 0.87100005 5.335787221e-39
0.36664954 2.10452001 0.87100005 5.611653843e-39
0.36365715 2.1032 0.86000001 5.978638497e-39
0.36529523 2.1032 0.86000001 6.343109221e-39
0.36522669 2.10272001 0.85600007 6.251273725e-39
0.36685717 2.10272001 0.85600007 6.067608338e-39
0.3676267 2.10248 0.85400003 6.067972675e-39
0.36838859 2.10224 0.85200006 5.976865854e-39
0.37001145 2.10224 0.85200006 6.160548057e-39
0.37250668 2.10248 0.85400003 6.34456517e-39
0.37150478 2.10176001 0.84800005 6.437465653e-39
0.37312004 2.10176001 0.84800005 6.531100416e-39
0.37473524 2.10176001 0.84800005 6.71406095e-39
0.37635049 2.10176001 0.84800005 6.805173376e-39
0.37796572 2.10176001 0.84800005 6.714051141e-39
0.37823811 2.1014 0.84500003 6.7147616e-39
0.37984765 2.1014 0.84500003 7.083531507e-39
0.38145715 2.1014 0.84500003 7.452312625e-39
0.38306665 2.1014 0.84500003 7.727824719e-39
0.38467619 2.1014 0.84500003 8.003332609e-39
0.38628572 2.1014 0.84500003 8.188082601e-39
0.38697717 2.10116 0.84300005 8.372832593e-39
0.38858289 2.10116 0.84300005 8.556506388e-39
0.3901886 2.10116 0.84300005 8.740168973e-39
0.39179432 2.10116 0.84300005 8.832713526e-39
0.39153334 2.10068 0.83900005 9.017467722e-39
0.39406857 2.10092 0.84100002 9.201504453e-39
0.39567047 2.10092 0.84100002 9.477727005e-39
0.39727238 2.10092 0.84100002 9.6603218e-39
0.39982289 2.10116 0.84300005 9.935838098e-39
0.40047619 2.10092 0.84100002 9.936924104e-39
0.40207809 2.10092 0.84100002 1.002984421e-38
0.40464002 2.10116 0.84300005 1.021280754e-38
0.40720952 2.1014 0.84500003 1.048794549e-38
0.40785143 2.10116 0.84300005 1.076344357e-38
0.41042858 2.1014 0.84500003 1.103930459e-38
0.41203812 2.1014 0.84500003 1.067231853e-38
0.41364762 2.1014 0.84500003 1.039715676e-38
0.41525716 2.1014 0.84500003 1.057973895e-38
0.41686669 2.1014 0.84500003 1.085455039e-38
0.41847622 2.1014 0.84500003 1.103896127e-38
0.42008573 2.1014 0.84500003 1.122334412e-38
0.42319238 2.10176001 0.84800005 1.103966752e-38
0.42480764 2.10176001 0.84800005 1.085598532e-38
0.42843431 2.10224 0.85200006 1.094852847e-38
0.43005717 2.10224 0.85200006 1.113220507e-38
0.43168002 2.10224 0.85200006 1.076522742e-38
0.43330288 2.10224 0.85200006 1.049044541e-38
0.43594667 2.10248 0.85400003 1.067448354e-38
0.43757334 2.10248 0.85400003 1.095070609e-38
0.43919998 2.10248 0.85400003 1.094891103e-38
0.44185907 2.10272001 0.85600007 1.094961588e-38
0.44348955 2.10272001 0.85600007 1.076629241e-38
0.44512004 2.10272001 0.85600007 1.067518138e-38
0.44779429 2.10296 0.85800004 1.085706572e-38
0.44942859 2.10296 0.85800004 1.113219946e-38
0.36333144 2.10617905 0.87100005 4.875555964e-39
0.3649905 2.10617905 0.87100005 5.058491274e-39
0.36664954 2.10617905 0.87100005 5.334716629e-39
0.36365715 2.1048381 0.86000001 5.610941984e-39
0.36529523 2.1048381 0.86000001 5.886085536e-39
0.36608002 2.10459429 0.85800004 5.794247237e-39
0.36685717 2.10435048 0.85600007 5.702417346e-39
0.3676267 2.10410667 0.85400003 5.702780282e-39
0.36925334 2.10410667 0.85400003 5.793543785e-39
0.37088001 2.10410667 0.85400003 5.976860249e-39
0.37250668 2.10410667 0.85400003 6.160527037e-39
0.37413335 2.10410667 0.85400003 6.252718463e-39
0.37312004 2.10337524 0.84800005 6.437832793e-39
0.37473524 2.10337524 0.84800005 6.529678098e-39
0.37635049 2.10337524 0.84800005 6.712983352e-39
0.37796572 2.10337524 0.84800005 6.529306754e-39
0.37958097 2.10337524 0.84800005 6.347065086e-39
0.37984765 2.10300953 0.84500003 6.806595694e-39
0.38145715 2.10300953 0.84500003 7.358327537e-39
0.38306665 2.10300953 0.84500003 7.634554293e-39
0.38467619 2.10300953 0.84500003 8.00333401e-39
0.38628572 2.10300953 0.84500003 8.188085404e-39
0.38789526 2.10300953 0.84500003 8.372124937e-39
0.38858289 2.10276572 0.84300005 8.556524605e-39
0.3901886 2.10276572 0.84300005 8.740180183e-39
0.39179432 2.10276572 0.84300005 8.832360399e-39
0.39340004 2.10276572 0.84300005 8.92492457e-39
0.39500573 2.10276572 0.84300005 9.201877198e-39
0.39567047 2.1025219 0.84100002 9.477016547e-39
0.39727238 2.1025219 0.84100002 9.6603218e-39
0.39982289 2.10276572 0.84300005 9.844355729e-39
0.40047619 2.1025219 0.84100002 9.844720066e-39
0.40303433 2.10276572 0.84300005 9.844727073e-39
0.40464002 2.10276572 0.84300005 1.002840507e-38
0.40720952 2.10300953 0.84500003 1.021207326e-38
0.40785143 2.10276572 0.84300005 1.067160667e-38
0.41042858 2.10300953 0.84500003 1.113078275e-38
0.41203812 2.10300953 0.84500003 1.085563219e-38
0.41364762 2.10300953 0.84500003 1.057976277e-38
0.41525716 2.10300953 0.84500003 1.057975856e-38
0.41686669 2.10300953 0.84500003 1.067089761e-38
0.41847622 2.10300953 0.84500003 1.085458963e-38
0.42008573 2.10300953 0.84500003 1.103968294e-38
0.42319238 2.10337524 0.84800005 1.09474775e-38
0.42580953 2.10361905 0.85000002 1.085599373e-38
0.42843431 2.10386287 0.85200006 1.104037518e-38
0.43005717 2.10386287 0.85200006 1.131552714e-38
0.43168002 2.10386287 0.85200006 1.104002345e-38
0.43432 2.10410667 0.85400003 1.085707973e-38
0.43594667 2.10410667 0.85400003 1.085780561e-38
0.43757334 2.10410667 0.85400003 1.094927957e-38
0.43919998 2.10410667 0.85400003 1.094891803e-38
0.44185907 2.10435048 0.85600007 1.104110525e-38
0.44348955 2.10435048 0.85600007 1.067447233e-38
0.44512004 2.10435048 0.85600007 1.039825118e-38
0.44779429 2.10459429 0.85800004 1.067160807e-38
0.44942859 2.10459429 0.85800004 1.094854108e-38
0.36365715 2.1064762 0.86000001 5.704575346e-39
0.36529523 2.1064762 0.86000001 6.163388489e-39
0.36693332 2.1064762 0.86000001 5.88715893e-39
0.36685717 2.10598096 0.85600007 5.611297913e-39
0.36848763 2.10598096 0.85600007 5.610584652e-39
0.36925334 2.10573334 0.85400003 5.702415945e-39
0.37088001 2.10573334 0.85400003 5.977919631e-39
0.37337908 2.10598096 0.85600007 6.253430323e-39
0.37500957 2.10598096 0.85600007 6.253794661e-39
0.37575999 2.10573334 0.85400003 6.3460001e-39
0.37561905 2.10523809 0.85000002 6.529683704e-39
0.37723809 2.10523809 0.85000002 6.712630225e-39
0.37796572 2.10499048 0.84800005 6.620787722e-39
0.37958097 2.10499048 0.84800005 6.622575779e-39
0.3811962 2.10499048 0.84800005 6.989913559e-39
0.38145715 2.10461906 0.84500003 7.44909104e-39
0.38306665 2.10461906 0.84500003 7.541644001e-39
0.38467619 2.10461906 0.84500003 7.727830324e-39
0.38628572 2.10461906 0.84500003 7.910070591e-39
0.38789526 2.10461906 0.84500003 8.092683603e-39
0.38950476 2.10461906 0.84500003 8.278883939e-39
0.39111429 2.10461906 0.84500003 8.556521802e-39
0.39272383 2.10461906 0.84500003 8.648696413e-39
0.39340004 2.10437143 0.84300005 8.83274015e-39
0.39500573 2.10437143 0.84300005 9.016426557e-39
0.39661145 2.10437143 0.84300005 9.200082135e-39
0.39821717 2.10437143 0.84300005 9.385174044e-39
0.39982289 2.10437143 0.84300005 9.66175673e-39
0.40142861 2.10437143 0.84300005 9.661397997e-39
0.40303433 2.10437143 0.84300005 9.661402201e-39
0.40560001 2.10461906 0.84500003 9.844720066e-39
0.40720952 2.10461906 0.84500003 9.937635964e-39
0.40881905 2.10461906 0.84500003 1.030462342e-38
0.41042858 2.10461906 0.84500003 1.057976977e-38
0.41203812 2.10461906 0.84500003 1.048865174e-38
0.41364762 2.10461906 0.84500003 1.039789665e-38
0.41525716 2.10461906 0.84500003 1.039718339e-38
0.41686669 2.10461906 0.84500003 1.039540934e-38
0.41847622 2.10461906 0.84500003 1.067093545e-38
0.42008573 2.10461906 0.84500003 1.104005288e-38
0.42319238 2.10499048 0.84800005 1.085492874e-38
0.42580953 2.10523809 0.85000002 1.076201424e-38
0.42843431 2.10548572 0.85200006 1.067268707e-38
0.43005717 2.10548572 0.85200006 1.067232974e-38
0.43168002 2.10548572 0.85200006 1.067233114e-38
0.43432 2.10573334 0.85400003 1.076453518e-38
0.43594667 2.10573334 0.85400003 1.085638189e-38
0.43757334 2.10573334 0.85400003 1.094821318e-38
0.43919998 2.10573334 0.85400003 1.094820898e-38
0.44185907 2.10598096 0.85600007 1.104004027e-38
0.44348955 2.10598096 0.85600007 1.085636647e-38
0.44512004 2.10598096 0.85600007 1.067269408e-38
0.44779429 2.10622858 0.85800004 1.067269268e-38
0.44942859 2.10622858 0.85800004 1.07648827e-38
0.36529523 2.10811429 0.86000001 6.439972576e-39
0.36693332 2.10811429 0.86000001 5.980073426e-39
0.36857143 2.10811429 0.86000001 5.51982115e-39
0.36848763 2.10761144 0.85600007 5.610224519e-39
0.36925334 2.10736001 0.85400003 5.702778881e-39
0.3717486 2.10761144 0.85600007 5.979004236e-39
0.37337908 2.10761144 0.85600007 6.345628755e-39
0.37500957 2.10761144 0.85600007 6.345987488e-39
0.37664002 2.10761144 0.85600007 6.345991692e-39
0.37650287 2.10710858 0.85200006 6.530024219e-39
0.37901336 2.10736001 0.85400003 6.712976345e-39
0.37885717 2.10685714 0.85000002 6.804091574e-39
0.38047618 2.10685714 0.85000002 6.989194693e-39
0.3811962 2.10660572 0.84800005 7.265415844e-39
0.38281146 2.10660572 0.84800005 7.540925135e-39
