# .PCD v0.7 - Point Cloud Data file format
VERSION 0.7
FIELDS x y z rgb
SIZE 4 4 4 4
TYPE F F F F
COUNT 1 1 1 1
WIDTH 971
HEIGHT 1
VIEWPOINT 0 0 0 1 0 0 0
POINTS 971
DATA ascii
0.14056 2.08462286 0.75300002 9.572458985e-39
0.1419943 2.08462286 0.75300002 9.845085805e-39
0.1432381 2.084510483 0.75200003 1.04882832e-38
0.14428572 2.084285721 0.75000006 1.11314876e-38
0.14532572 2.084060952 0.74800003 1.149882819e-38
0.14675048 2.084060952 0.74800003 1.177470182e-38
0.14817524 2.084060952 0.74800003 1.186762332e-38
0.1496 2.084060952 0.74800003 1.186869671e-38
0.15102476 2.084060952 0.74800003 1.195945461e-38
0.15244953 2.084060952 0.74800003 1.214241234e-38
0.15387429 2.084060952 0.74800003 1.186834639e-38
0.15529905 2.084060952 0.74800003 1.168789978e-38
0.15672383 2.084060952 0.74800003 1.196412094e-38
0.15814857 2.084060952 0.74800003 1.224070782e-38
0.15957333 2.084060952 0.74800003 1.205596484e-38
0.16078286 2.083948575 0.74700004 1.196341888e-38
0.16242287 2.084060952 0.74800003 1.242296351e-38
0.16384763 2.084060952 0.74800003 1.29743226e-38
0.16527238 2.084060952 0.74800003 1.315798239e-38
0.16669716 2.084060952 0.74800003 1.334164917e-38
0.1681219 2.084060952 0.74800003 1.343348187e-38
0.17000002 2.084285721 0.75000006 1.352567329e-38
0.17142859 2.084285721 0.75000006 1.3250164e-38
0.17285715 2.084285721 0.75000006 1.306649721e-38
0.17475048 2.084510483 0.75200003 1.278920267e-38
0.17618287 2.084510483 0.75200003 1.251692197e-38
0.17761524 2.084510483 0.75200003 1.14080773e-38
0.17904763 2.084510483 0.75200003 1.039214572e-38
0.18048 2.084510483 0.75200003 9.737098943e-39
0.18626668 2.086533338 0.77000004 9.095682597e-39
0.18773334 2.086533338 0.77000004 1.094638168e-38
0.1892 2.086533338 0.77000004 1.278273988e-38
0.19066668 2.086533338 0.77000004 1.287888857e-38
0.19213334 2.086533338 0.77000004 1.30661609e-38
0.19360001 2.086533338 0.77000004 1.334132407e-38
0.19506668 2.086533338 0.77000004 1.370576537e-38
0.19602285 2.086308569 0.76800001 1.205054322e-38
0.19748572 2.086308569 0.76800001 1.039786162e-38
0.19894856 2.086308569 0.76800001 1.076448614e-38
0.20015047 2.086196192 0.76700002 1.11314792e-38
0.20161143 2.086196192 0.76700002 1.131265027e-38
0.20254287 2.08597143 0.76500005 1.149380874e-38
0.20346667 2.085746668 0.76300001 1.168178312e-38
0.20491999 2.085746668 0.76300001 1.195943219e-38
0.20637333 2.085746668 0.76300001 1.214237591e-38
0.20782667 2.085746668 0.76300001 1.241754188e-38
0.20928 2.085746668 0.76300001 1.251011306e-38
0.21073334 2.085746668 0.76300001 1.26023157e-38
0.21218666 2.085746668 0.76300001 1.287818932e-38
0.21364 2.085746668 0.76300001 1.324625018e-38
0.21452953 2.085521907 0.76100004 1.343100017e-38
0.21597905 2.085521907 0.76100004 1.361645782e-38
0.21742858 2.085521907 0.76100004 1.389159857e-38
0.21945333 2.085746668 0.76300001 1.407527376e-38
0.22090666 2.085746668 0.76300001 1.370757865e-38
0.22294286 2.08597143 0.76500005 1.343098896e-38
0.22528 2.086308569 0.76800001 1.361644801e-38
0.22733334 2.086533338 0.77000004 1.389482856e-38
0.22969145 2.086870477 0.77300006 1.371188064e-38
0.2317619 2.087095238 0.77500004 1.352929145e-38
0.2332381 2.087095238 0.77500004 1.38962803e-38
0.2347143 2.087095238 0.77500004 1.417177979e-38
0.2368 2.08732 0.77700001 1.426432574e-38
0.23828 2.08732 0.77700001 1.435688431e-38
0.24037716 2.087544769 0.77900004 1.435689131e-38
0.24186096 2.087544769 0.77900004 1.435688991e-38
0.24365716 2.087657146 0.78000003 1.454020077e-38
0.24577145 2.087881915 0.78200006 1.472388017e-38
0.24726097 2.087881915 0.78200006 1.454057632e-38
0.24875049 2.087881915 0.78200006 1.435726126e-38
0.25088 2.088106669 0.78400004 1.380516928e-38
0.25237334 2.088106669 0.78400004 1.33459932e-38
0.2538667 2.088106669 0.78400004 1.353038306e-38
0.25601143 2.088331431 0.78600001 1.371225338e-38
0.25750858 2.088331431 0.78600001 1.398775286e-38
0.25966477 2.0885562 0.78800005 1.426361108e-38
0.26149717 2.088668577 0.78900003 1.426324674e-38
0.26366666 2.088893332 0.79100001 1.417139022e-38
0.26584381 2.089118101 0.79300004 1.389586272e-38
0.26802856 2.089342862 0.79500002 1.352853615e-38
0.27022097 2.089567624 0.79700005 1.371186522e-38
0.27173907 2.089567624 0.79700005 1.380442939e-38
0.27325717 2.089567624 0.79700005 1.371188764e-38
0.27477524 2.089567624 0.79700005 1.352785371e-38
0.27664 2.089680001 0.79800004 1.343565668e-38
0.27885717 2.089904763 0.80000001 1.334381558e-38
0.28038093 2.089904763 0.80000001 1.316049912e-38
0.28260955 2.090129524 0.80200005 1.306687276e-38
0.28555432 2.090579055 0.80600005 1.288105218e-38
0.28851432 2.091028579 0.81000006 1.278670976e-38
0.29005715 2.091028579 0.81000006 1.25126424e-38
0.29087999 2.090803809 0.80800003 1.232824414e-38
0.29169527 2.090579055 0.80600005 1.223747503e-38
0.2932305 2.090579055 0.80600005 1.205526279e-38
0.29549715 2.090803809 0.80800003 1.214640464e-38
0.2970362 2.090803809 0.80800003 1.214567176e-38
0.30005333 2.091253333 0.81200004 1.18694338e-38
0.30234283 2.091478094 0.81400001 1.159714049e-38
0.30501333 2.091815241 0.81700003 1.122798942e-38
0.30581906 2.091590479 0.81500006 1.095068507e-38
0.30737144 2.091590479 0.81500006 1.058298015e-38
0.13571809 2.086628571 0.75800002 9.939824792e-39
0.13680001 2.086400002 0.75600004 9.573553399e-39
0.13824001 2.086400002 0.75600004 9.115806644e-39
0.13949525 2.086285718 0.75500005 8.654821488e-39
0.14056 2.086057141 0.75300002 9.016409741e-39
0.1419943 2.086057141 0.75300002 9.475940349e-39
0.1432381 2.085942864 0.75200003 1.021097745e-38
0.14428572 2.085714296 0.75000006 1.103893184e-38
0.14532572 2.085485712 0.74800003 1.13151572e-38
0.14675048 2.085485712 0.74800003 1.159102942e-38
0.14817524 2.085485712 0.74800003 1.168323066e-38
0.1496 2.085485712 0.74800003 1.186653871e-38
0.15102476 2.085485712 0.74800003 1.195837001e-38
0.15244953 2.085485712 0.74800003 1.205021111e-38
0.15387429 2.085485712 0.74800003 1.168431106e-38
0.15529905 2.085485712 0.74800003 1.131767953e-38
0.15672383 2.085485712 0.74800003 1.177792761e-38
0.15814857 2.085485712 0.74800003 1.232894899e-38
0.15957333 2.085485712 0.74800003 1.23289588e-38
0.16099809 2.085485712 0.74800003 1.242044537e-38
0.16242287 2.085485712 0.74800003 1.269596167e-38
0.16384763 2.085485712 0.74800003 1.306687556e-38
0.16527238 2.085485712 0.74800003 1.315869565e-38
0.16669716 2.085485712 0.74800003 1.325089548e-38
0.1681219 2.085485712 0.74800003 1.343528954e-38
0.17000002 2.085714296 0.75000006 1.371078202e-38
0.17142859 2.085714296 0.75000006 1.334378475e-38
0.17285715 2.085714296 0.75000006 1.306540981e-38
0.17475048 2.085942864 0.75200003 1.288138148e-38
0.17618287 2.085942864 0.75200003 1.278882712e-38
0.17761524 2.085942864 0.75200003 1.131909765e-38
0.17904763 2.085942864 0.75200003 9.926857176e-39
0.1848 2.088 0.77000004 9.460503646e-39
0.18626668 2.088 0.77000004 9.095671387e-39
0.18773334 2.088 0.77000004 1.076592947e-38
0.1892 2.088 0.77000004 1.251009624e-38
0.19066668 2.088 0.77000004 1.260158422e-38
0.19213334 2.088 0.77000004 1.269665812e-38
0.19360001 2.088 0.77000004 1.334238766e-38
0.19506668 2.088 0.77000004 1.407274442e-38
0.19602285 2.087771431 0.76800001 1.260227786e-38
0.19748572 2.087771431 0.76800001 1.113075332e-38
0.19894856 2.087771431 0.76800001 1.112823939e-38
0.20015047 2.087657146 0.76700002 1.121972597e-38
0.20161143 2.087657146 0.76700002 1.131156987e-38
0.20254287 2.08742857 0.76500005 1.1495601e-38
0.20346667 2.087199993 0.76300001 1.158815676e-38
0.20491999 2.087199993 0.76300001 1.177325568e-38
0.20637333 2.087199993 0.76300001 1.205019149e-38
0.20782667 2.087199993 0.76300001 1.232606792e-38
0.20928 2.087199993 0.76300001 1.232643926e-38
0.21073334 2.087199993 0.76300001 1.24186391e-38
0.21218666 2.087199993 0.76300001 1.278491049e-38
0.21364 2.087199993 0.76300001 1.315297274e-38
0.21509334 2.087199993 0.76300001 1.333772414e-38
0.21654667 2.087199993 0.76300001 1.361430122e-38
0.21800001 2.087199993 0.76300001 1.361537181e-38
0.21945333 2.087199993 0.76300001 1.370721011e-38
0.22090666 2.087199993 0.76300001 1.343206515e-38
0.22294286 2.08742857 0.76500005 1.315619573e-38
0.22528 2.087771431 0.76800001 1.343133788e-38
0.22733334 2.088 0.77000004 1.380155533e-38
0.22969145 2.088342868 0.77300006 1.352749078e-38
0.23116381 2.088342868 0.77300006 1.334418973e-38
0.2332381 2.088571437 0.77500004 1.380373715e-38
0.2347143 2.088571437 0.77500004 1.426326356e-38
0.2368 2.088799998 0.77700001 1.417285458e-38
0.23828 2.088799998 0.77700001 1.408102329e-38
0.24037716 2.089028575 0.77900004 1.426469849e-38
0.24186096 2.089028575 0.77900004 1.453948891e-38
0.24365716 2.089142859 0.78000003 1.481427934e-38
0.24577145 2.089371435 0.78200006 1.518199407e-38
0.24726097 2.089371435 0.78200006 1.472318793e-38
0.24875049 2.089371435 0.78200006 1.42636405e-38
0.25024 2.089371435 0.78200006 1.352894392e-38
0.25172952 2.089371435 0.78200006 1.279497882e-38
0.2538667 2.089600004 0.78400004 1.316268094e-38
0.25536001 2.089600004 0.78400004 1.362113535e-38
0.25750858 2.089828573 0.78600001 1.3804442e-38
0.25966477 2.09005715 0.78800005 1.407994289e-38
0.26149717 2.090171434 0.78900003 1.408029461e-38
0.26366666 2.090399995 0.79100001 1.41710427e-38
0.26517335 2.090399995 0.79100001 1.371185541e-38
0.26735431 2.090628572 0.79300004 1.325268914e-38
0.26954287 2.090857141 0.79500002 1.352820684e-38
0.27105716 2.090857141 0.79500002 1.389555723e-38
0.27325717 2.091085717 0.79700005 1.380408888e-38
0.27477524 2.091085717 0.79700005 1.371153031e-38
0.27629337 2.091085717 0.79700005 1.361897174e-38
0.27816001 2.091200002 0.79800004 1.352713064e-38
0.27967998 2.091200002 0.79800004 1.334381278e-38
0.28260955 2.091657147 0.80200005 1.315871246e-38
0.28484571 2.091885716 0.80400002 1.315441468e-38
0.28708956 2.092114292 0.80600005 1.315477201e-38
0.28934097 2.092342861 0.80800003 1.297181848e-38
0.29016003 2.092114292 0.80600005 1.278777334e-38
0.29169527 2.092114292 0.80600005 1.26037282e-38
0.2932305 2.092114292 0.80600005 1.251191093e-38
0.29549715 2.092342861 0.80800003 1.251228787e-38
0.2970362 2.092342861 0.80800003 1.251192214e-38
0.30005333 2.092799999 0.81200004 1.232824274e-38
0.30234283 2.093028568 0.81400001 1.214492487e-38
0.30501333 2.093371429 0.81700003 1.223747223e-38
0.30581906 2.09314286 0.81500006 1.232894479e-38
0.30812573 2.093371429 0.81700003 1.223710509e-38
0.30892384 2.09314286 0.81500006 1.223639323e-38
0.31047621 2.09314286 0.81500006 1.159319163e-38
0.13680001 2.087839998 0.75600004 9.112572447e-39
0.13824001 2.087839998 0.75600004 8.836342889e-39
0.13949525 2.087723814 0.75500005 8.468626757e-39
0.14056 2.08749143 0.75300002 8.832726137e-39
0.1419943 2.08749143 0.75300002 9.291900816e-39
0.1432381 2.087375239 0.75200003 1.011913634e-38
0.14428572 2.087142862 0.75000006 1.094673621e-38
0.14532572 2.086910479 0.74800003 1.122296437e-38
0.14675048 2.086910479 0.74800003 1.149919253e-38
0.14817524 2.086910479 0.74800003 1.168358659e-38
0.1496 2.086910479 0.74800003 1.195980353e-38
0.15102476 2.086910479 0.74800003 1.223458555e-38
0.15244953 2.086910479 0.74800003 1.260121708e-38
0.15387429 2.086910479 0.74800003 1.223567716e-38
0.1557143 2.087142862 0.75000006 1.18686841e-38
0.15672383 2.086910479 0.74800003 1.24200474e-38
0.15814857 2.086910479 0.74800003 1.297035693e-38
0.15957333 2.086910479 0.74800003 1.269629938e-38
0.16099809 2.086910479 0.74800003 1.25126396e-38
0.16242287 2.086910479 0.74800003 1.269811687e-38
0.16384763 2.086910479 0.74800003 1.288392204e-38
0.16527238 2.086910479 0.74800003 1.306757481e-38
0.16669716 2.086910479 0.74800003 1.325161855e-38
0.1681219 2.086910479 0.74800003 1.334346806e-38
0.17000002 2.087142862 0.75000006 1.343527833e-38
0.17142859 2.087142862 0.75000006 1.306719366e-38
0.17285715 2.087142862 0.75000006 1.269698041e-38
0.17475048 2.087375239 0.75200003 1.251294929e-38
0.17618287 2.087375239 0.75200003 1.242075366e-38
0.17714287 2.087142862 0.75000006 1.066690952e-38
0.17857145 2.087142862 0.75000006 9.002391152e-39
0.1848 2.089466669 0.77000004 8.727602128e-39
0.18626668 2.089466669 0.77000004 8.453171837e-39
0.18773334 2.089466669 0.77000004 1.030207866e-38
0.1892 2.089466669 0.77000004 1.214238992e-38
0.19066668 2.089466669 0.77000004 1.232679239e-38
0.19213334 2.089466669 0.77000004 1.260302195e-38
0.19360001 2.089466669 0.77000004 1.306220504e-38
0.19506668 2.089466669 0.77000004 1.3613204e-38
0.19602285 2.089234285 0.76800001 1.269304136e-38
0.19748572 2.089234285 0.76800001 1.177181094e-38
0.19894856 2.089234285 0.76800001 1.131226912e-38
0.20041144 2.089234285 0.76800001 1.085238118e-38
0.20161143 2.089118101 0.76700002 1.112789608e-38
0.20307238 2.089118101 0.76700002 1.14037655e-38
0.20453334 2.089118101 0.76700002 1.158815956e-38
0.20545715 2.088885717 0.76500005 1.186438071e-38
0.20691429 2.088885717 0.76500005 1.204840764e-38
0.20782667 2.088653333 0.76300001 1.223244297e-38
0.20928 2.088653333 0.76300001 1.205128871e-38
0.21073334 2.088653333 0.76300001 1.195945601e-38
0.21218666 2.088653333 0.76300001 1.24175615e-38
0.21364 2.088653333 0.76300001 1.287602572e-38
0.21509334 2.088653333 0.76300001 1.324516557e-38
0.21654667 2.088653333 0.76300001 1.352138532e-38
0.21800001 2.088653333 0.76300001 1.361501168e-38
0.21945333 2.088653333 0.76300001 1.370899957e-38
0.22090666 2.088653333 0.76300001 1.379940153e-38
0.22294286 2.088885717 0.76500005 1.379975606e-38
0.22528 2.089234285 0.76800001 1.389015383e-38
0.22733334 2.089466669 0.77000004 1.398414872e-38
0.22939429 2.089699045 0.77200001 1.380156093e-38
0.23116381 2.089815244 0.77300006 1.371081845e-38
0.2332381 2.09004762 0.77500004 1.398670049e-38
0.2347143 2.09004762 0.77500004 1.426291323e-38
0.2368 2.090279996 0.77700001 1.435581371e-38
0.23828 2.090279996 0.77700001 1.435617525e-38
0.24037716 2.09051238 0.77900004 1.435546059e-38
0.24186096 2.09051238 0.77900004 1.444694155e-38
0.24365716 2.090628572 0.78000003 1.463025802e-38
0.24514288 2.090628572 0.78000003 1.481179483e-38
0.24726097 2.090860955 0.78200006 1.453702403e-38
0.2481143 2.090628572 0.78000003 1.426221398e-38
0.25024 2.090860955 0.78200006 1.380373295e-38
0.25172952 2.090860955 0.78200006 1.334635053e-38
0.2538667 2.091093332 0.78400004 1.353002292e-38
0.25536001 2.091093332 0.78400004 1.371440718e-38
0.25750858 2.091325715 0.78600001 1.38962803e-38
0.25966477 2.091558106 0.78800005 1.407958556e-38
0.26149717 2.091674291 0.78900003 1.398738572e-38
0.26300001 2.091674291 0.78900003 1.398738432e-38
0.26517335 2.091906667 0.79100001 1.380299586e-38
0.26668 2.091906667 0.79100001 1.361753682e-38
0.26886478 2.09213905 0.79300004 1.398524454e-38
0.27037525 2.09213905 0.79300004 1.426111536e-38
0.27257144 2.092371434 0.79500002 1.407673251e-38
0.27408573 2.092371434 0.79500002 1.380086029e-38
0.27629337 2.092603818 0.79700005 1.371009398e-38
0.27816001 2.092720002 0.79800004 1.371080444e-38
0.28038093 2.092952378 0.80000001 1.36186046e-38
0.28190476 2.092952378 0.80000001 1.352606005e-38
0.28413716 2.093184769 0.80200005 1.343387563e-38
0.28637716 2.093417145 0.80400002 1.343387003e-38
0.28862479 2.093649529 0.80600005 1.32487599e-38
0.29016003 2.093649529 0.80600005 1.306470776e-38
0.29097146 2.093417145 0.80400002 1.288029828e-38
0.2932305 2.093649529 0.80600005 1.278775793e-38
0.29549715 2.093881905 0.80800003 1.278848941e-38
0.2970362 2.093881905 0.80800003 1.269736997e-38
0.29931432 2.094114289 0.81000006 1.251334025e-38
0.30160001 2.094346665 0.81200004 1.242115023e-38
0.30314669 2.094346665 0.81200004 1.242115443e-38
0.30544382 2.094579048 0.81400001 1.251262699e-38
0.30699429 2.094579048 0.81400001 1.242042856e-38
0.30854478 2.094579048 0.81400001 1.233075386e-38
0.31009525 2.094579048 0.81400001 1.196091056e-38
0.3127943 2.094927624 0.81700003 1.150566512e-38
0.31435049 2.094927624 0.81700003 1.086244531e-38
0.31590667 2.094927624 0.81700003 1.021959403e-38
0.31824005 2.095160007 0.81900007 1.021564657e-38
0.32058096 2.095392384 0.82100004 1.03078408e-38
0.32214478 2.095392384 0.82100004 1.012309361e-38
0.13680001 2.089280002 0.75600004 8.744150062e-39
0.13805714 2.08916191 0.75500005 8.560833598e-39
0.13949525 2.08916191 0.75500005 8.375360536e-39
0.14056 2.088925712 0.75300002 8.741259183e-39
0.14237143 2.08916191 0.75500005 9.110030492e-39
0.1432381 2.08880762 0.75200003 9.937979282e-39
0.14428572 2.088571437 0.75000006 1.085813351e-38
0.14532572 2.088335246 0.74800003 1.113544067e-38
0.14675048 2.088335246 0.74800003 1.140736824e-38
0.14817524 2.088335246 0.74800003 1.177579483e-38
0.1496 2.088335246 0.74800003 1.21431256e-38
0.15102476 2.088335246 0.74800003 1.260265201e-38
0.15285715 2.088571437 0.75000006 1.315223846e-38
0.15387429 2.088335246 0.74800003 1.278741601e-38
0.1557143 2.088571437 0.75000006 1.251225705e-38
0.15714286 2.088571437 0.75000006 1.306397628e-38
0.15857144 2.088571437 0.75000006 1.361499766e-38
0.15957333 2.088335246 0.74800003 1.306399309e-38
0.16099809 2.088335246 0.74800003 1.260589601e-38
0.16242287 2.088335246 0.74800003 1.270168037e-38
0.16384763 2.088335246 0.74800003 1.279314732e-38
0.16527238 2.088335246 0.74800003 1.307007893e-38
0.16669716 2.088335246 0.74800003 1.334344143e-38
0.1681219 2.088335246 0.74800003 1.325197308e-38
0.17000002 2.088571437 0.75000006 1.325088287e-38
0.17142859 2.088571437 0.75000006 1.279061658e-38
0.17285715 2.088571437 0.75000006 1.2418967e-38
0.17475048 2.08880762 0.75200003 1.223421701e-38
0.17618287 2.08880762 0.75200003 1.204875236e-38
0.17714287 2.088571437 0.75000006 1.010693384e-38
0.17857145 2.088571437 0.75000006 8.178028285e-39
0.18552002 2.09128762 0.77300006 7.993997159e-39
0.18699239 2.09128762 0.77300006 7.813198828e-39
0.18846478 2.09128762 0.77300006 9.746769304e-39
0.18969144 2.091169529 0.77200001 1.177289694e-38
0.1911619 2.091169529 0.77200001 1.213917114e-38
0.19213334 2.090933338 0.77000004 1.251010886e-38
0.19360001 2.090933338 0.77000004 1.278454755e-38
0.19506668 2.090933338 0.77000004 1.315403353e-38
0.19653335 2.090933338 0.77000004 1.278417341e-38
0.19748572 2.090697147 0.76800001 1.250758231e-38
0.19894856 2.090697147 0.76800001 1.149630585e-38
0.20041144 2.090697147 0.76800001 1.057723903e-38
0.20161143 2.090579048 0.76700002 1.094351042e-38
0.20307238 2.090579048 0.76700002 1.140412844e-38
0.20453334 2.090579048 0.76700002 1.167999926e-38
0.20545715 2.090342864 0.76500005 1.195586308e-38
0.20691429 2.090342864 0.76500005 1.204805591e-38
0.20782667 2.090106666 0.76300001 1.214132774e-38
0.20928 2.090106666 0.76300001 1.186797504e-38
0.21073334 2.090106666 0.76300001 1.159175109e-38
0.21218666 2.090106666 0.76300001 1.214240674e-38
0.21364 2.090106666 0.76300001 1.269341831e-38
0.21509334 2.090106666 0.76300001 1.30607589e-38
0.21654667 2.090106666 0.76300001 1.352209438e-38
0.21800001 2.090106666 0.76300001 1.361465434e-38
0.21945333 2.090106666 0.76300001 1.379940153e-38
0.22148572 2.090342864 0.76500005 1.416566732e-38
0.22294286 2.090342864 0.76500005 1.45330009e-38
0.22528 2.090697147 0.76800001 1.43493215e-38
0.22733334 2.090933338 0.77000004 1.416781271e-38
0.22939429 2.091169529 0.77200001 1.416818265e-38
0.23116381 2.09128762 0.77300006 1.416998752e-38
0.23263621 2.09128762 0.77300006 1.426183563e-38
0.2347143 2.091523811 0.77500004 1.435510185e-38
0.23619048 2.091523811 0.77500004 1.453912738e-38
0.23828 2.091760002 0.77700001 1.472279837e-38
0.24037716 2.0919962 0.77900004 1.453877004e-38
0.24186096 2.0919962 0.77900004 1.435510466e-38
0.24365716 2.092114285 0.78000003 1.43543928e-38
0.24514288 2.092114285 0.78000003 1.444551784e-38
0.24662858 2.092114285 0.78000003 1.435297188e-38
0.2481143 2.092114285 0.78000003 1.435296067e-38
0.25024 2.092350483 0.78200006 1.416927847e-38
0.25172952 2.092350483 0.78200006 1.398848294e-38
0.25321907 2.092350483 0.78200006 1.389737051e-38
0.25536001 2.092586666 0.78400004 1.389700337e-38
0.25685334 2.092586666 0.78400004 1.398847173e-38
0.25834668 2.092586666 0.78400004 1.407922963e-38
0.26050287 2.092822857 0.78600001 1.398775006e-38
0.26266667 2.093059056 0.78800005 1.38951929e-38
0.26450288 2.093177147 0.78900003 1.398630672e-38
0.26600572 2.093177147 0.78900003 1.407743036e-38
0.26818666 2.093413331 0.79100001 1.435114879e-38
0.26969334 2.093413331 0.79100001 1.471921104e-38
0.2712 2.093413331 0.79100001 1.435223199e-38
0.27339619 2.093649529 0.79300004 1.398488581e-38
0.27560002 2.093885712 0.79500002 1.389304611e-38
0.27781144 2.094121903 0.79700005 1.389339503e-38
0.27932954 2.094121903 0.79700005 1.389374255e-38
0.28119999 2.094240002 0.79800004 1.398558926e-38
0.28342858 2.094476193 0.80000001 1.380228821e-38
0.2849524 2.094476193 0.80000001 1.371008837e-38
0.28719237 2.094712384 0.80200005 1.352461812e-38
0.28872001 2.094712384 0.80200005 1.334164917e-38
0.29024762 2.094712384 0.80200005 1.325087586e-38
0.29250288 2.094948567 0.80400002 1.315833131e-38
0.2940343 2.094948567 0.80400002 1.306578816e-38
0.29630098 2.095184766 0.80600005 1.297394706e-38
0.29857522 2.095420949 0.80800003 1.279063059e-38
0.30085716 2.095657155 0.81000006 1.269736857e-38
0.30314669 2.095893338 0.81200004 1.269701825e-38
0.30469334 2.095893338 0.81200004 1.269629658e-38
0.30699429 2.096129529 0.81400001 1.260409955e-38
0.30854478 2.096129529 0.81400001 1.251226686e-38
0.31009525 2.096129529 0.81400001 1.23289574e-38
0.3127943 2.096483812 0.81700003 1.21463542e-38
0.31435049 2.096483812 0.81700003 1.223925888e-38
0.31590667 2.096483812 0.81700003 1.242186209e-38
0.31824005 2.096720003 0.81900007 1.205345371e-38
0.32058096 2.096956201 0.82100004 1.177758289e-38
0.32136002 2.096720003 0.81900007 1.140987656e-38
0.32292002 2.096720003 0.81900007 1.113508474e-38
0.32527238 2.096956201 0.82100004 1.086065164e-38
0.3268362 2.096956201 0.82100004 1.058514936e-38
0.32840002 2.096956201 0.82100004 1.067698906e-38
0.32916003 2.096720003 0.81900007 1.076738122e-38
0.33072004 2.096720003 0.81900007 9.939777148e-39
0.4015238 2.10038095 0.85000002 1.54856078e-38
0.40314287 2.10038095 0.85000002 1.612773741e-38
0.40476191 2.10038095 0.85000002 1.603518444e-38
0.41968 2.10085334 0.85400003 1.667911892e-38
0.42032003 2.10061715 0.85200006 1.677059849e-38
0.42194289 2.10061715 0.85200006 1.677024256e-38
0.44883808 2.1015619 0.86000001 1.67716901e-38
0.4504762 2.1015619 0.86000001 1.677131736e-38
0.13680001 2.090720005 0.75600004 8.466486975e-39
0.13805714 2.090600006 0.75500005 8.281020919e-39
0.13949525 2.090600006 0.75500005 8.095912195e-39
0.14056 2.090360008 0.75300002 8.185951226e-39
0.1419943 2.090360008 0.75300002 8.368178881e-39
0.1432381 2.090240002 0.75200003 9.105724302e-39
0.14428572 2.090000004 0.75000006 9.849024855e-39
0.14532572 2.089759998 0.74800003 1.021494032e-38
0.14675048 2.089759998 0.74800003 1.058121872e-38
0.14817524 2.089759998 0.74800003 1.104112627e-38
0.1496 2.089759998 0.74800003 1.159068891e-38
0.15102476 2.089759998 0.74800003 1.195873434e-38
0.15285715 2.090000004 0.75000006 1.24175629e-38
0.15428573 2.090000004 0.75000006 1.251191933e-38
0.1557143 2.090000004 0.75000006 1.260158842e-38
0.15714286 2.090000004 0.75000006 1.269592103e-38
0.15857144 2.090000004 0.75000006 1.288282342e-38
0.15957333 2.089759998 0.74800003 1.251548564e-38
0.16099809 2.089759998 0.74800003 1.214813805e-38
0.16242287 2.089759998 0.74800003 1.214921004e-38
0.16384763 2.089759998 0.74800003 1.215028484e-38
0.16527238 2.089759998 0.74800003 1.21499247e-38
0.16714287 2.090000004 0.75000006 1.205809061e-38
0.16857144 2.090000004 0.75000006 1.178043453e-38
0.17000002 2.090000004 0.75000006 1.141093875e-38
0.17142859 2.090000004 0.75000006 1.168429284e-38
0.17285715 2.090000004 0.75000006 1.186580583e-38
0.17475048 2.090240002 0.75200003 1.186472543e-38
0.17618287 2.090240002 0.75200003 1.186042205e-38
0.17714287 2.090000004 0.75000006 1.103247045e-38
0.18452382 2.093000002 0.77500004 1.020451326e-38
0.186 2.093000002 0.77500004 9.469467752e-39
0.18699239 2.092760012 0.77300006 8.734430655e-39
0.18846478 2.092760012 0.77300006 1.00212094e-38
0.18969144 2.092640005 0.77200001 1.14037641e-38
0.1911619 2.092640005 0.77200001 1.195657214e-38
0.19213334 2.092399999 0.77000004 1.250903126e-38
0.19360001 2.092399999 0.77000004 1.287710192e-38
0.19506668 2.092399999 0.77000004 1.324587743e-38
0.19602285 2.092159994 0.76800001 1.306148897e-38
0.19748572 2.092159994 0.76800001 1.287744664e-38
0.19894856 2.092159994 0.76800001 1.214059766e-38
0.20041144 2.092159994 0.76800001 1.131264607e-38
0.20187429 2.092159994 0.76800001 1.149632126e-38
0.20307238 2.092040002 0.76700002 1.168035659e-38
0.20453334 2.092040002 0.76700002 1.177327389e-38
0.20545715 2.091800004 0.76500005 1.195837982e-38
0.20691429 2.091800004 0.76500005 1.205021531e-38
0.20837143 2.091800004 0.76500005 1.22338835e-38
0.20928 2.091559999 0.76300001 1.214348013e-38
0.21073334 2.091559999 0.76300001 1.205451169e-38
0.21218666 2.091559999 0.76300001 1.251297031e-38
0.21364 2.091559999 0.76300001 1.297142332e-38
0.21509334 2.091559999 0.76300001 1.324728153e-38
0.21654667 2.091559999 0.76300001 1.352316357e-38
0.21800001 2.091559999 0.76300001 1.343242108e-38
0.22002858 2.091800004 0.76500005 1.343349588e-38
0.22148572 2.091800004 0.76500005 1.38001204e-38
0.22352572 2.092040002 0.76700002 1.42585664e-38
0.22528 2.092159994 0.76800001 1.416743436e-38
0.22674286 2.092159994 0.76800001 1.407633034e-38
0.2288 2.092399999 0.77000004 1.407670309e-38
0.23086476 2.092640005 0.77200001 1.407850375e-38
0.23263621 2.092760012 0.77300006 1.416998752e-38
0.2341086 2.092760012 0.77300006 1.435545498e-38
0.23619048 2.093000002 0.77500004 1.444729328e-38
0.23828 2.09324 0.77700001 1.453948611e-38
0.23976 2.09324 0.77700001 1.435581512e-38
0.24186096 2.093480006 0.77900004 1.426398663e-38
0.24334477 2.093480006 0.77900004 1.42636349e-38
0.24482858 2.093480006 0.77900004 1.426362929e-38
0.24662858 2.093600005 0.78000003 1.426362509e-38
0.2481143 2.093600005 0.78000003 1.426362369e-38
0.24960001 2.093600005 0.78000003 1.407959396e-38
0.25108573 2.093600005 0.78000003 1.398776688e-38
0.25321907 2.093840003 0.78200006 1.380410569e-38
0.25470859 2.093840003 0.78200006 1.362078082e-38
0.25685334 2.094080001 0.78400004 1.371224637e-38
0.25834668 2.094080001 0.78400004 1.389556004e-38
0.26050287 2.094319999 0.78600001 1.371225058e-38
0.26266667 2.094560005 0.78800005 1.352785371e-38
0.26416764 2.094560005 0.78800005 1.37115177e-38
0.26600572 2.094680004 0.78900003 1.398738712e-38
0.26750857 2.094680004 0.78900003 1.416927006e-38
0.26969334 2.094920002 0.79100001 1.444370035e-38
0.2712 2.094920002 0.79100001 1.407743596e-38
0.27339619 2.095160007 0.79300004 1.371116878e-38
0.27490667 2.095160007 0.79300004 1.380192808e-38
0.27711427 2.095400006 0.79500002 1.398414872e-38
0.27932954 2.095640004 0.79700005 1.398449344e-38
0.28084764 2.095640004 0.79700005 1.398629972e-38
0.28272 2.095760003 0.79800004 1.398631373e-38
0.28424001 2.095760003 0.79800004 1.398666546e-38
0.28647619 2.096000001 0.80000001 1.380226999e-38
0.28872001 2.096239999 0.80200005 1.352603763e-38
0.29024762 2.096239999 0.80200005 1.34338364e-38
0.29250288 2.096479997 0.80400002 1.33420051e-38
0.2940343 2.096479997 0.80400002 1.315833972e-38
0.29630098 2.096720003 0.80600005 1.306685314e-38
0.29783621 2.096720003 0.80600005 1.288209755e-38
0.3001143 2.096960008 0.80800003 1.269808043e-38
0.30240002 2.097200006 0.81000006 1.278921108e-38
0.30394286 2.097200006 0.81000006 1.278849081e-38
0.30623999 2.097440004 0.81200004 1.269701124e-38
0.30778667 2.097440004 0.81200004 1.260553027e-38
0.31009525 2.097680002 0.81400001 1.242042155e-38
0.31164572 2.097680002 0.81400001 1.223567296e-38
0.31358096 2.097800009 0.81500006 1.214455353e-38
0.31590667 2.09804 0.81700003 1.214529061e-38
0.31824005 2.098280005 0.81900007 1.196163924e-38
0.31901905 2.09804 0.81700003 1.187122746e-38
0.32057524 2.09804 0.81700003 1.159571116e-38
0.32292002 2.098280005 0.81900007 1.132056341e-38
0.32448003 2.098280005 0.81900007 1.113653508e-38
0.32604003 2.098280005 0.81900007 1.104613452e-38
0.32760003 2.098280005 0.81900007 1.104326466e-38
0.32916003 2.098280005 0.81900007 1.113365681e-38
0.33072004 2.098280005 0.81900007 1.085778459e-38
0.33228004 2.098280005 0.81900007 1.058695563e-38
0.33384001 2.098280005 0.81900007 1.049657048e-38
0.33540002 2.098280005 0.81900007 1.049798159e-38
0.33696002 2.098280005 0.81900007 1.012774732e-38
0.39573336 2.10176001 0.84800005 1.34533705e-38
0.39594287 2.1014 0.84500003 1.327041276e-38
0.39661145 2.10116 0.84300005 1.308782358e-38
0.40057907 2.10176001 0.84800005 1.345409637e-38
0.40314287 2.10200001 0.85000002 1.382072509e-38
0.40476191 2.10200001 0.85000002 1.382144816e-38
0.40638095 2.10200001 0.85000002 1.382215722e-38
0.40464002 2.10116 0.84300005 1.373246571e-38
0.41154668 2.10248 0.85400003 1.373498945e-38
0.41317335 2.10248 0.85400003 1.3734286e-38
0.41480002 2.10248 0.85400003 1.373356993e-38
0.41642669 2.10248 0.85400003 1.392047232e-38
0.41805336 2.10248 0.85400003 1.41073691e-38
0.41968 2.10248 0.85400003 1.419848573e-38
0.42032003 2.10224 0.85200006 1.42899653e-38
0.42194289 2.10224 0.85200006 1.447399783e-38
0.4472 2.1032 0.86000001 1.162568774e-38
0.44779429 2.10296 0.85800004 1.208701341e-38
0.44942859 2.10296 0.85800004 1.264050668e-38
0.13824001 2.092160001 0.75600004 8.004784354e-39
0.13968 2.092160001 0.75600004 7.820032961e-39
0.14093335 2.092038102 0.75500005 7.726399599e-39
0.1419943 2.09179429 0.75300002 7.724241599e-39
0.1432381 2.091672383 0.75200003 8.273814041e-39
0.14428572 2.091428578 0.75000006 8.829854877e-39
0.14532572 2.091184765 0.74800003 9.294418949e-39
0.14675048 2.091184765 0.74800003 9.846157799e-39
0.14817524 2.091184765 0.74800003 1.039825398e-38
0.1496 2.091184765 0.74800003 1.104109264e-38
0.15142858 2.091428578 0.75000006 1.140842622e-38
0.15285715 2.091428578 0.75000006 1.177649268e-38
0.15428573 2.091428578 0.75000006 1.223639463e-38
0.1557143 2.091428578 0.75000006 1.269520917e-38
0.15714286 2.091428578 0.75000006 1.241969988e-38
0.15857144 2.091428578 0.75000006 1.214383326e-38
0.16000001 2.091428578 0.75000006 1.186832537e-38
0.16142859 2.091428578 0.75000006 1.168321384e-38
0.16285716 2.091428578 0.75000006 1.159029514e-38
0.16428573 2.091428578 0.75000006 1.158599876e-38
0.16571429 2.091428578 0.75000006 1.121471913e-38
0.16714287 2.091428578 0.75000006 1.084952113e-38
0.16857144 2.091428578 0.75000006 1.020881805e-38
0.17000002 2.091428578 0.75000006 9.659608539e-39
0.17142859 2.091428578 0.75000006 1.048829021e-38
0.17285715 2.091428578 0.75000006 1.140520463e-38
0.17475048 2.091672383 0.75200003 1.14955996e-38
0.17618287 2.091672383 0.75200003 1.167819019e-38
0.17761524 2.091672383 0.75200003 1.195261768e-38
0.18452382 2.094476193 0.77500004 1.231888066e-38
0.186 2.094476193 0.77500004 1.103246345e-38
0.18747619 2.094476193 0.77500004 9.74569731e-39
0.18846478 2.094232388 0.77300006 1.038747659e-38
0.18969144 2.094110474 0.77200001 1.103463126e-38
0.1911619 2.094110474 0.77200001 1.177398015e-38
0.19213334 2.093866669 0.77000004 1.250938579e-38
0.19360001 2.093866669 0.77000004 1.287816831e-38
0.19506668 2.093866669 0.77000004 1.333879753e-38
0.19653335 2.093866669 0.77000004 1.334024928e-38
0.19748572 2.093622856 0.76800001 1.333807166e-38
0.19894856 2.093622856 0.76800001 1.269304697e-38
0.20041144 2.093622856 0.76800001 1.213808934e-38
0.20187429 2.093622856 0.76800001 1.204625664e-38
0.20333713 2.093622856 0.76800001 1.195621761e-38
0.20480001 2.093622856 0.76800001 1.195801548e-38
0.20599429 2.093500957 0.76700002 1.205021251e-38
0.20745523 2.093500957 0.76700002 1.214240954e-38
0.20837143 2.093257144 0.76500005 1.2326805e-38
0.20982857 2.093257144 0.76500005 1.241936357e-38
0.21073334 2.093013331 0.76300001 1.251226826e-38
0.21218666 2.093013331 0.76300001 1.288103816e-38
0.21364 2.093013331 0.76300001 1.324693541e-38
0.21509334 2.093013331 0.76300001 1.343095533e-38
0.21654667 2.093013331 0.76300001 1.3616441e-38
0.21800001 2.093013331 0.76300001 1.334310793e-38
0.22002858 2.093257144 0.76500005 1.30672357e-38
0.22206476 2.093500957 0.76700002 1.352604604e-38
0.22352572 2.093500957 0.76700002 1.398449625e-38
0.22528 2.093622856 0.76800001 1.398412911e-38
0.22674286 2.093622856 0.76800001 1.407633034e-38
0.2288 2.093866669 0.77000004 1.407741354e-38
0.23086476 2.094110474 0.77200001 1.407849535e-38
0.23263621 2.094232388 0.77300006 1.417033785e-38
0.2347143 2.094476193 0.77500004 1.435508644e-38
0.23619048 2.094476193 0.77500004 1.435544797e-38
0.23828 2.094719999 0.77700001 1.444728767e-38
0.24037716 2.094963811 0.77900004 1.426362229e-38
0.24186096 2.094963811 0.77900004 1.41717938e-38
0.24271999 2.094719999 0.77700001 1.407996671e-38
0.24482858 2.094963811 0.77900004 1.407959256e-38
0.24631239 2.094963811 0.77900004 1.408101068e-38
0.24779619 2.094963811 0.77900004 1.417141545e-38
0.24960001 2.095085718 0.78000003 1.408030302e-38
0.25108573 2.095085718 0.78000003 1.398739553e-38
0.25321907 2.095329531 0.78200006 1.362005775e-38
0.25470859 2.095329531 0.78200006 1.334454846e-38
0.25685334 2.095573336 0.78400004 1.352821805e-38
0.25834668 2.095573336 0.78400004 1.380372734e-38
0.26050287 2.095817141 0.78600001 1.343674689e-38
0.26199999 2.095817141 0.78600001 1.316158933e-38
0.26349714 2.095817141 0.78600001 1.352927883e-38
0.26600572 2.09618286 0.78900003 1.389553902e-38
0.26750857 2.09618286 0.78900003 1.398665144e-38
0.26969334 2.096426666 0.79100001 1.417033365e-38
0.2712 2.096426666 0.79100001 1.38033616e-38
0.27339619 2.096670479 0.79300004 1.352749778e-38
0.27490667 2.096670479 0.79300004 1.380300567e-38
0.27711427 2.096914284 0.79500002 1.407671009e-38
0.27862856 2.096914284 0.79500002 1.398379139e-38
0.28084764 2.097158097 0.79700005 1.398630812e-38
0.28272 2.097280003 0.79800004 1.417034345e-38
0.28424001 2.097280003 0.79800004 1.435365852e-38
0.28576002 2.097280003 0.79800004 1.407815483e-38
0.28799999 2.097523808 0.80000001 1.380048474e-38
0.28952381 2.097523808 0.80000001 1.36164438e-38
0.29177526 2.097767621 0.80200005 1.352532857e-38
0.29330286 2.097767621 0.80200005 1.333950799e-38
0.29556569 2.098011427 0.80400002 1.315726772e-38
0.29709715 2.098011427 0.80400002 1.297394986e-38
0.29937145 2.098255247 0.80600005 1.278992714e-38
0.30165336 2.098499052 0.80800003 1.288176824e-38
0.30319241 2.098499052 0.80800003 1.297323379e-38
0.30548573 2.098742865 0.81000006 1.288138849e-38
0.30778667 2.09898667 0.81200004 1.278919146e-38
0.30933335 2.09898667 0.81200004 1.251188991e-38
0.31164572 2.099230476 0.81400001 1.232857484e-38
0.31319621 2.099230476 0.81400001 1.214561711e-38
0.31513333 2.09935239 0.81500006 1.19616014e-38
0.31668574 2.09935239 0.81500006 1.196161541e-38
0.31823811 2.09935239 0.81500006 1.196160841e-38
0.31939811 2.099230476 0.81400001 1.177793041e-38
0.32213143 2.099596195 0.81700003 1.159498389e-38
0.32368761 2.099596195 0.81700003 1.150423019e-38
0.32524383 2.099596195 0.81700003 1.150279947e-38
0.32680002 2.099596195 0.81700003 1.150137014e-38
0.32755241 2.09935239 0.81500006 1.159248397e-38
0.32991239 2.099596195 0.81700003 1.186762752e-38
0.33228004 2.099840008 0.81900007 1.214636961e-38
0.33384001 2.099840008 0.81900007 1.224179944e-38
0.33540002 2.099840008 0.81900007 1.233397685e-38
0.3394286 2.10057143 0.82500005 1.233539496e-38
0.34100002 2.10057143 0.82500005 1.233504884e-38
0.34257144 2.10057143 0.82500005 1.251873245e-38
0.34414285 2.10057143 0.82500005 1.270241465e-38
0.3457143 2.10057143 0.82500005 1.279462149e-38
0.34728575 2.10057143 0.82500005 1.297148077e-38
0.34885716 2.10057143 0.82500005 1.279104397e-38
0.35042858 2.10057143 0.82500005 1.260665271e-38
0.35614288 2.10130286 0.83100003 1.214604871e-38
0.35772571 2.10130286 0.83100003 1.178087173e-38
0.39504763 2.10361905 0.85000002 1.123204478e-38
0.39433333 2.10300953 0.84500003 1.132566974e-38
0.39500573 2.10276572 0.84300005 1.132781933e-38
0.39567047 2.1025219 0.84100002 1.142037649e-38
0.39916193 2.10300953 0.84500003 1.142109676e-38
0.40077144 2.10300953 0.84500003 1.151113859e-38
0.40238094 2.10300953 0.84500003 1.150970507e-38
0.40303433 2.10276572 0.84300005 1.160117623e-38
0.40464002 2.10276572 0.84300005 1.150897779e-38
0.41058287 2.10386287 0.85200006 1.151221479e-38
0.41220576 2.10386287 0.85200006 1.14236163e-38
0.41382858 2.10386287 0.85200006 1.133249826e-38
0.41545147 2.10386287 0.85200006 1.142504982e-38
0.41805336 2.10410667 0.85400003 1.151975238e-38
0.41869715 2.10386287 0.85200006 1.170629043e-38
0.42032003 2.10386287 0.85200006 1.18874587e-38
0.42194289 2.10386287 0.85200006 1.216046387e-38
0.4472 2.1048381 0.86000001 6.36441176e-39
0.44779429 2.10459429 0.85800004 7.376758816e-39
0.44942859 2.10459429 0.85800004 8.479852559e-39
0.13824001 2.093600005 0.75600004 8.095889774e-39
0.13968 2.093600005 0.75600004 7.820018948e-39
0.14093335 2.093476199 0.75500005 7.726026853e-39
0.14237143 2.093476199 0.75500005 7.631318695e-39
0.14342858 2.093228571 0.75300002 7.99901661e-39
0.14467049 2.093104765 0.75200003 8.368872524e-39
0.1457143 2.092857152 0.75000006 8.737294909e-39
0.14675048 2.092609525 0.74800003 9.19755139e-39
0.14817524 2.092609525 0.74800003 9.658884068e-39
0.1496 2.092609525 0.74800003 1.021240397e-38
0.15142858 2.092857152 0.75000006 1.058189414e-38
0.15285715 2.092857152 0.75000006 1.095139273e-38
0.15428573 2.092857152 0.75000006 1.10407213e-38
0.1557143 2.092857152 0.75000006 1.113041141e-38
0.15714286 2.092857152 0.75000006 1.140556757e-38
0.15857144 2.092857152 0.75000006 1.177290255e-38
0.16000001 2.092857152 0.75000006 1.140555496e-38
0.16099809 2.092609525 0.74800003 1.103820457e-38
0.16242287 2.092609525 0.74800003 1.131262785e-38
0.16384763 2.092609525 0.74800003 1.157918425e-38
0.16527238 2.092609525 0.74800003 1.158099613e-38
0.16669716 2.092609525 0.74800003 1.167460707e-38
0.1681219 2.092609525 0.74800003 1.18611297e-38
0.17000002 2.092857152 0.75000006 1.20480489e-38
0.17142859 2.092857152 0.75000006 1.232644627e-38
0.1733181 2.093104765 0.75200003 1.269665111e-38
0.17475048 2.093104765 0.75200003 1.241934535e-38
0.17618287 2.093104765 0.75200003 1.223387229e-38
0.17761524 2.093104765 0.75200003 1.232282952e-38
0.17904763 2.093104765 0.75200003 1.241430348e-38
0.18048 2.093104765 0.75200003 1.140339276e-38
0.18747619 2.095952384 0.77500004 1.048432874e-38
0.18846478 2.095704764 0.77300006 1.048003236e-38
0.18969144 2.09558095 0.77200001 1.047572897e-38
0.1911619 2.09558095 0.77200001 1.159031196e-38
0.19263239 2.09558095 0.77200001 1.269341271e-38
0.19360001 2.095333338 0.77000004 1.306254835e-38
0.19506668 2.095333338 0.77000004 1.343207636e-38
0.19653335 2.095333338 0.77000004 1.352358816e-38
0.19800001 2.095333338 0.77000004 1.361538582e-38
0.19946668 2.095333338 0.77000004 1.306254275e-38
0.20041144 2.095085718 0.76800001 1.250435512e-38
0.20187429 2.095085718 0.76800001 1.232068553e-38
0.20333713 2.095085718 0.76800001 1.204876777e-38
0.20480001 2.095085718 0.76800001 1.214132213e-38
0.20599429 2.094961904 0.76700002 1.223423943e-38
0.20745523 2.094961904 0.76700002 1.232500574e-38
0.20837143 2.094714291 0.76500005 1.241578045e-38
0.20982857 2.094714291 0.76500005 1.250978375e-38
0.21128573 2.094714291 0.76500005 1.269451833e-38
0.21218666 2.094466671 0.76300001 1.297073108e-38
0.21364 2.094466671 0.76300001 1.324694242e-38
0.21565716 2.094714291 0.76500005 1.343239446e-38
0.2171143 2.094714291 0.76500005 1.361931927e-38
0.21857144 2.094714291 0.76500005 1.380229802e-38
0.22002858 2.094714291 0.76500005 1.407814782e-38
0.22206476 2.094961904 0.76700002 1.398558085e-38
0.22352572 2.094961904 0.76700002 1.389338102e-38
0.22528 2.095085718 0.76800001 1.380118258e-38
0.22674286 2.095085718 0.76800001 1.380118258e-38
0.2288 2.095333338 0.77000004 1.389409428e-38
0.23086476 2.09558095 0.77200001 1.407848834e-38
0.23263621 2.095704764 0.77300006 1.417068817e-38
0.2341086 2.095704764 0.77300006 1.426324254e-38
0.23619048 2.095952384 0.77500004 1.426288661e-38
0.23828 2.096200004 0.77700001 1.426289642e-38
0.23976 2.096200004 0.77700001 1.408067016e-38
0.24186096 2.096447624 0.77900004 1.380696574e-38
0.24334477 2.096447624 0.77900004 1.408032965e-38
0.24420001 2.096200004 0.77700001 1.426325515e-38
0.24631239 2.096447624 0.77900004 1.417139303e-38
0.24779619 2.096447624 0.77900004 1.417140284e-38
0.24960001 2.096571431 0.78000003 1.417177138e-38
0.25108573 2.096571431 0.78000003 1.426217194e-38
0.25257143 2.096571431 0.78000003 1.389482996e-38
0.25470859 2.096819058 0.78200006 1.361968921e-38
0.25685334 2.097066671 0.78400004 1.371153171e-38
0.25834668 2.097066671 0.78400004 1.389520691e-38
0.26050287 2.097314283 0.78600001 1.371225759e-38
0.26199999 2.097314283 0.78600001 1.343781328e-38
0.26349714 2.097314283 0.78600001 1.371258969e-38
0.2656686 2.097561903 0.78800005 1.389588514e-38
0.26750857 2.097685717 0.78900003 1.417065735e-38
0.26969334 2.097933337 0.79100001 1.444654359e-38
0.2712 2.097933337 0.79100001 1.407886529e-38
0.27270669 2.097933337 0.79100001 1.38044378e-38
0.27490667 2.098180957 0.79300004 1.398667807e-38
0.27641714 2.098180957 0.79300004 1.426110836e-38
0.27862856 2.09842857 0.79500002 1.40777961e-38
0.28084764 2.098676197 0.79700005 1.398667526e-38
0.28236571 2.098676197 0.79700005 1.407886669e-38
0.28424001 2.098800004 0.79800004 1.42603979e-38
0.28576002 2.098800004 0.79800004 1.407602346e-38
0.28799999 2.099047616 0.80000001 1.389161958e-38
0.28952381 2.099047616 0.80000001 1.380048614e-38
0.29104763 2.099047616 0.80000001 1.370901078e-38
0.29257143 2.099047616 0.80000001 1.370829471e-38
0.2948305 2.099295244 0.80200005 1.379977008e-38
0.29635811 2.099295244 0.80200005 1.343278682e-38
0.29862857 2.099542864 0.80400002 1.30661623e-38
0.30015999 2.099542864 0.80400002 1.306652104e-38
0.30244192 2.099790484 0.80600005 1.306686015e-38
0.30473143 2.1000381 0.80800003 1.297321277e-38
0.30702859 2.10028572 0.81000006 1.297321277e-38
0.30857146 2.10028572 0.81000006 1.278990052e-38
0.31088001 2.10053334 0.81200004 1.251510589e-38
0.31319621 2.10078095 0.81400001 1.242111239e-38
0.31474668 2.10078095 0.81400001 1.232892657e-38
0.31629714 2.10078095 0.81400001 1.223709948e-38
0.31706667 2.10053334 0.81200004 1.223817147e-38
0.31939811 2.10078095 0.81400001 1.214525698e-38
0.32134289 2.10090476 0.81500006 1.205343269e-38
0.32289526 2.10090476 0.81500006 1.214492207e-38
0.32444763 2.10090476 0.81500006 1.232824274e-38
0.32600001 2.10090476 0.81500006 1.214386409e-38
0.32715046 2.10078095 0.81400001 1.205023493e-38
0.32991239 2.10115238 0.81700003 1.214350536e-38
0.33146858 2.10115238 0.81700003 1.214458015e-38
0.33384001 2.10140001 0.81900007 1.214708988e-38
0.33540002 2.10140001 0.81900007 1.214994853e-38
0.33696002 2.10140001 0.81900007 1.214922125e-38
0.34100002 2.10214286 0.82500005 1.224034489e-38
0.34257144 2.10214286 0.82500005 1.242366275e-38
0.34414285 2.10214286 0.82500005 1.269881892e-38
0.34487617 2.10189524 0.82300001 1.269810986e-38
0.34728575 2.10214286 0.82500005 1.269740641e-38
0.34801143 2.10189524 0.82300001 1.251410816e-38
0.35042858 2.10214286 0.82500005 1.242262299e-38
0.35285333 2.10239048 0.82700002 1.233042176e-38
0.35528573 2.1026381 0.82900006 1.223823593e-38
0.35686478 2.1026381 0.82900006 1.205529222e-38
0.35930857 2.10288572 0.83100003 1.187269462e-38
0.36002287 2.1026381 0.82900006 1.178049899e-38
0.36247429 2.10288572 0.83100003 1.178011503e-38
0.36405715 2.10288572 0.83100003 1.178080868e-38
0.36564001 2.10288572 0.83100003 1.186978412e-38
0.36722288 2.10288572 0.83100003 1.159428744e-38
0.36969337 2.10313334 0.83300006 1.141097798e-38
0.37128001 2.10313334 0.83300006 1.159429305e-38
0.37286669 2.10313334 0.83300006 1.177760951e-38
0.39504763 2.10523809 0.85000002 1.168865228e-38
0.39340004 2.10437143 0.84300005 1.186550456e-38
0.39406857 2.10412381 0.84100002 1.168290836e-38
0.39567047 2.10412381 0.84100002 1.150031356e-38
0.39821717 2.10437143 0.84300005 1.149923877e-38
0.39982289 2.10437143 0.84300005 1.149815837e-38
0.40142861 2.10437143 0.84300005 1.141564571e-38
0.40303433 2.10437143 0.84300005 1.141349191e-38
0.40464002 2.10437143 0.84300005 1.150425121e-38
0.41058287 2.10548572 0.85200006 1.159501331e-38
0.41220576 2.10548572 0.85200006 1.150318202e-38
0.41382858 2.10548572 0.85200006 1.150353655e-38
0.41350096 2.10499048 0.84800005 1.159752164e-38
0.41707432 2.10548572 0.85200006 1.160002856e-38
0.41869715 2.10548572 0.85200006 1.178226182e-38
0.41933334 2.10523809 0.85000002 1.18726764e-38
0.42095238 2.10523809 0.85000002 1.196380985e-38
0.42257145 2.10523809 0.85000002 1.205530903e-38
0.4251886 2.10548572 0.85200006 1.224653723e-38
0.42681146 2.10548572 0.85200006 1.243811715e-38
0.42843431 2.10548572 0.85200006 1.262252242e-38
0.44824004 2.10672382 0.86200005 4.224825187e-39
0.44883808 2.1064762 0.86000001 4.500345688e-39
0.4504762 2.1064762 0.86000001 4.684030694e-39
0.13824001 2.095040008 0.75600004 8.279196428e-39
0.13968 2.095040008 0.75600004 7.911134176e-39
0.14056 2.09466286 0.75300002 7.725666719e-39
0.1419943 2.09466286 0.75300002 7.631317294e-39
0.14342858 2.09466286 0.75300002 7.724227586e-39
0.14467049 2.094537146 0.75200003 7.907541247e-39
0.1457143 2.094285719 0.75000006 8.182691806e-39
0.14714287 2.094285719 0.75000006 8.548242931e-39
0.14857145 2.094285719 0.75000006 9.005629552e-39
0.15000001 2.094285719 0.75000006 9.466237759e-39
0.15142858 2.094285719 0.75000006 9.835369202e-39
0.15326478 2.094537146 0.75200003 1.020594959e-38
0.15469715 2.094537146 0.75200003 9.841844602e-39
0.15612952 2.094537146 0.75200003 9.565986387e-39
0.1575619 2.094537146 0.75200003 1.048434836e-38
0.15857144 2.094285719 0.75000006 1.140270332e-38
0.16000001 2.094285719 0.75000006 1.094388457e-38
0.16142859 2.094285719 0.75000006 1.048433995e-38
0.16285716 2.094285719 0.75000006 1.103534592e-38
0.16428573 2.094285719 0.75000006 1.159210982e-38
0.16571429 2.094285719 0.75000006 1.205703823e-38
0.16714287 2.094285719 0.75000006 1.260840854e-38
0.16857144 2.094285719 0.75000006 1.352747957e-38
0.17000002 2.094285719 0.75000006 1.444727226e-38
0.17188573 2.094537146 0.75200003 1.417356224e-38
0.1733181 2.094537146 0.75200003 1.398772904e-38
0.17475048 2.094537146 0.75200003 1.343491399e-38
0.17618287 2.094537146 0.75200003 1.288030669e-38
0.17761524 2.094537146 0.75200003 1.269053024e-38
0.17904763 2.094537146 0.75200003 1.259797447e-38
0.18048 2.094537146 0.75200003 1.186293037e-38
0.18747619 2.097428575 0.77500004 1.121972597e-38
0.18846478 2.097177155 0.77300006 1.057293424e-38
0.18969144 2.097051427 0.77200001 9.925790788e-39
0.1911619 2.097051427 0.77200001 1.14070067e-38
0.19213334 2.096800007 0.77000004 1.296856887e-38
0.19360001 2.096800007 0.77000004 1.324694522e-38
0.19506668 2.096800007 0.77000004 1.352282866e-38
0.19653335 2.096800007 0.77000004 1.370831153e-38
0.19800001 2.096800007 0.77000004 1.398343686e-38
0.19894856 2.096548572 0.76800001 1.343204413e-38
0.20041144 2.096548572 0.76800001 1.2967843e-38
0.20187429 2.096548572 0.76800001 1.259547876e-38
0.20333713 2.096548572 0.76800001 1.223136257e-38
0.20480001 2.096548572 0.76800001 1.232499032e-38
0.20626286 2.096548572 0.76800001 1.241790762e-38
0.20745523 2.096422859 0.76700002 1.250795506e-38
0.20891619 2.096422859 0.76700002 1.260015069e-38
0.20982857 2.096171431 0.76500005 1.269234772e-38
0.21128573 2.096171431 0.76500005 1.287745084e-38
0.21218666 2.095920004 0.76300001 1.306147776e-38
0.21364 2.095920004 0.76300001 1.333877511e-38
0.21565716 2.096171431 0.76500005 1.352567189e-38
0.2171143 2.096171431 0.76500005 1.370971423e-38
0.21857144 2.096171431 0.76500005 1.435293264e-38
0.22060381 2.096422859 0.76700002 1.508797114e-38
0.22206476 2.096422859 0.76700002 1.44454772e-38
0.22352572 2.096422859 0.76700002 1.380190565e-38
0.22528 2.096548572 0.76800001 1.361787173e-38
0.22674286 2.096548572 0.76800001 1.352674949e-38
0.2288 2.096800007 0.77000004 1.38036867e-38
0.23086476 2.097051427 0.77200001 1.417103149e-38
0.23263621 2.097177155 0.77300006 1.41710357e-38
0.2347143 2.097428575 0.77500004 1.417103429e-38
0.23619048 2.097428575 0.77500004 1.417103429e-38
0.23828 2.097680002 0.77700001 1.417105251e-38
0.23976 2.097680002 0.77700001 1.380588114e-38
0.24186096 2.09793143 0.77900004 1.353002152e-38
0.24271999 2.097680002 0.77700001 1.398920461e-38
0.24482858 2.09793143 0.77900004 1.453840571e-38
