# .PCD v0.7 - Point Cloud Data file format
VERSION 0.7
FIELDS x y z rgb
SIZE 4 4 4 4
TYPE F F F F
COUNT 1 1 1 1
WIDTH 985
HEIGHT 1
VIEWPOINT 0 0 0 1 0 0 0
POINTS 985
DATA ascii
0.40464002 0.10597715 2.84300005 1.150640501e-38
0.40720952 0.10622857 2.84500003 1.168649148e-38
0.41027051 0.10660572 2.84800005 1.168757048e-38
0.41188571 0.10660572 2.84800005 1.177940037e-38
0.41203812 0.10622857 2.84500003 1.17797535e-38
0.41511622 0.10660572 2.84800005 1.177724237e-38
0.4177143 0.10685714 2.85000002 1.186692547e-38
0.41933334 0.10685714 2.85000002 1.195805612e-38
0.42095238 0.10685714 2.85000002 1.1774039e-38
0.42257145 0.10685714 2.85000002 1.159144841e-38
0.4251886 0.10710858 2.85200006 1.113335133e-38
0.42681146 0.10710858 2.85200006 1.076063256e-38
0.42742857 0.10685714 2.85000002 1.057194352e-38
0.42904761 0.10685714 2.85000002 1.048514149e-38
0.44824004 0.10836571 2.86200005 2.204452679e-39
0.44779429 0.10786286 2.85800004 1.561609811e-39
0.44942859 0.10786286 2.85800004 1.010591229e-39
0.13824001 0.096480004 2.75600004 8.646174076e-39
0.13949525 0.096352383 2.75500005 8.185920397e-39
0.14056 0.096097142 2.75300002 7.35760727e-39
0.1419943 0.096097142 2.75300002 6.437455844e-39
0.1432381 0.095969528 2.75200003 6.897349388e-39
0.14467049 0.095969528 2.75200003 7.354734608e-39
0.14610286 0.095969528 2.75200003 7.723512924e-39
0.14753523 0.095969528 2.75200003 8.177312221e-39
0.14896762 0.095969528 2.75200003 8.910922796e-39
0.15000001 0.095714293 2.75000006 9.73636186e-39
0.15183239 0.095969528 2.75200003 1.011553781e-38
0.15326478 0.095969528 2.75200003 1.05768817e-38
0.15469715 0.095969528 2.75200003 1.057725444e-38
0.15612952 0.095969528 2.75200003 1.057797751e-38
0.15714286 0.095714293 2.75000006 1.122226792e-38
0.15857144 0.095714293 2.75000006 1.186655693e-38
0.16000001 0.095714293 2.75000006 1.186512761e-38
0.16142859 0.095714293 2.75000006 1.1864043e-38
0.16285716 0.095714293 2.75000006 1.251298292e-38
0.16428573 0.095714293 2.75000006 1.316229278e-38
0.16571429 0.095714293 2.75000006 1.306759163e-38
0.16714287 0.095714293 2.75000006 1.297648901e-38
0.16857144 0.095714293 2.75000006 1.334384641e-38
0.17000002 0.095714293 2.75000006 1.380408467e-38
0.17142859 0.095714293 2.75000006 1.36196822e-38
0.17285715 0.095714293 2.75000006 1.352747676e-38
0.17475048 0.095969528 2.75200003 1.315976484e-38
0.17618287 0.095969528 2.75200003 1.288389261e-38
0.17761524 0.095969528 2.75200003 1.296890658e-38
0.17904763 0.095969528 2.75200003 1.296531786e-38
0.18048 0.095969528 2.75200003 1.213879699e-38
0.18747619 0.098904766 2.77500004 1.131227472e-38
0.18846478 0.098649532 2.77300006 1.038925344e-38
0.18969144 0.098521911 2.77200001 9.559523599e-39
0.1911619 0.098521911 2.77200001 1.113114989e-38
0.19263239 0.098521911 2.77200001 1.278490629e-38
0.19360001 0.098266676 2.77000004 1.306148897e-38
0.19506668 0.098266676 2.77000004 1.343026729e-38
0.19653335 0.098266676 2.77000004 1.398487039e-38
0.19800001 0.098266676 2.77000004 1.453767002e-38
0.19946668 0.098266676 2.77000004 1.380046932e-38
0.20093334 0.098266676 2.77000004 1.315582439e-38
0.2024 0.098266676 2.77000004 1.278166508e-38
0.20333713 0.098011427 2.76800001 1.241395876e-38
0.20480001 0.098011427 2.76800001 1.250794245e-38
0.20626286 0.098011427 2.76800001 1.250974031e-38
0.20745523 0.097883806 2.76700002 1.260122268e-38
0.20891619 0.097883806 2.76700002 1.260085134e-38
0.20982857 0.097628579 2.76500005 1.241752787e-38
0.21128573 0.097628579 2.76500005 1.223422262e-38
0.21274288 0.097628579 2.76500005 1.269412457e-38
0.21420002 0.097628579 2.76500005 1.315546145e-38
0.21565716 0.097628579 2.76500005 1.333878072e-38
0.2171143 0.097628579 2.76500005 1.36142858e-38
0.21857144 0.097628579 2.76500005 1.398593118e-38
0.22060381 0.097883806 2.76700002 1.44443968e-38
0.22206476 0.097883806 2.76700002 1.416925465e-38
0.22352572 0.097883806 2.76700002 1.389410269e-38
0.22528 0.098011427 2.76800001 1.380154552e-38
0.22674286 0.098011427 2.76800001 1.380333077e-38
0.2288 0.098266676 2.77000004 1.417066435e-38
0.23026668 0.098266676 2.77000004 1.463091803e-38
0.23263621 0.098649532 2.77300006 1.435433675e-38
0.2341086 0.098649532 2.77300006 1.417102168e-38
0.23619048 0.098904766 2.77500004 1.417101888e-38
0.23766668 0.098904766 2.77500004 1.407956874e-38
0.23976 0.099160001 2.77700001 1.38973593e-38
0.24123999 0.099160001 2.77700001 1.371368971e-38
0.24271999 0.099160001 2.77700001 1.398848154e-38
0.24420001 0.099160001 2.77700001 1.426254469e-38
0.24567999 0.099160001 2.77700001 1.417141825e-38
0.24716 0.099160001 2.77700001 1.398774586e-38
0.24928002 0.099415243 2.77900004 1.389591036e-38
0.2507638 0.099415243 2.77900004 1.380405665e-38
0.25257143 0.099542864 2.78000003 1.371220293e-38
0.25470859 0.099798106 2.78200006 1.362038706e-38
0.25619811 0.099798106 2.78200006 1.371188344e-38
0.25768763 0.099798106 2.78200006 1.380372314e-38
0.25984001 0.10005334 2.78400004 1.371153311e-38
0.26133335 0.10005334 2.78400004 1.361860881e-38
0.26282668 0.10005334 2.78400004 1.343672027e-38
0.26499429 0.10030857 2.78600001 1.334488898e-38
0.26716954 0.10056381 2.78800005 1.38033546e-38
0.26901144 0.10069143 2.78900003 1.426254749e-38
0.27051428 0.10069143 2.78900003 1.416965121e-38
0.27270669 0.10094667 2.79100001 1.407672971e-38
0.27421334 0.10094667 2.79100001 1.416999173e-38
0.27641714 0.10120191 2.79300004 1.416998752e-38
0.27792761 0.10120191 2.79300004 1.389483697e-38
0.27943811 0.10120191 2.79300004 1.362003533e-38
0.28165716 0.10145714 2.79500002 1.398772484e-38
0.28317145 0.10145714 2.79500002 1.435398222e-38
0.28540194 0.10171238 2.79700005 1.417030282e-38
0.28692001 0.10171238 2.79700005 1.407848694e-38
0.28880003 0.10184 2.79800004 1.389447823e-38
0.29032004 0.10184 2.79800004 1.380264274e-38
0.29184002 0.10184 2.79800004 1.398667246e-38
0.29336002 0.10184 2.79800004 1.416819386e-38
0.29561904 0.10209524 2.80000001 1.379942115e-38
0.29714286 0.10209524 2.80000001 1.352464474e-38
0.29866666 0.10209524 2.80000001 1.343282186e-38
0.30019048 0.10209524 2.80000001 1.343279663e-38
0.30322286 0.10260572 2.80400002 1.343241268e-38
0.30475429 0.10260572 2.80400002 1.352388944e-38
0.30704764 0.10286096 2.80600005 1.333914225e-38
0.30934858 0.10311619 2.80800003 1.315474398e-38
0.31165716 0.10337143 2.81000006 1.297106318e-38
0.3132 0.10337143 2.81000006 1.287958922e-38
0.31552002 0.10362667 2.81200004 1.278811666e-38
0.31628576 0.10337143 2.81000006 1.269628537e-38
0.3178286 0.10337143 2.81000006 1.260409675e-38
0.32016003 0.10362667 2.81200004 1.260194575e-38
0.32170668 0.10362667 2.81200004 1.269414138e-38
0.32325333 0.10362667 2.81200004 1.287853264e-38
0.32480001 0.10362667 2.81200004 1.269522319e-38
0.32634667 0.10362667 2.81200004 1.260374922e-38
0.32789335 0.10362667 2.81200004 1.24197223e-38
0.32944003 0.10362667 2.81200004 1.232752387e-38
0.33220956 0.10400953 2.81500006 1.214492487e-38
0.33335239 0.10388191 2.81400001 1.20545215e-38
0.33408001 0.10362667 2.81200004 1.205595503e-38
0.33852002 0.10452001 2.81900007 1.214744861e-38
0.34091049 0.10477524 2.82100004 1.233006022e-38
0.34247431 0.10477524 2.82100004 1.260376464e-38
0.3432 0.10452001 2.81900007 1.251299693e-38
0.34476 0.10452001 2.81900007 1.242223763e-38
0.34632 0.10452001 2.81900007 1.214529762e-38
0.34788001 0.10452001 2.81900007 1.186979533e-38
0.35029334 0.10477524 2.82100004 1.214458996e-38
0.3527143 0.10503048 2.82300001 1.251121728e-38
0.3542819 0.10503048 2.82300001 1.241974332e-38
0.35757905 0.10554095 2.82700002 1.242009925e-38
0.35915428 0.10554095 2.82700002 1.196271403e-38
0.36072955 0.10554095 2.82700002 1.150350572e-38
0.36230478 0.10554095 2.82700002 1.177934011e-38
0.36388001 0.10554095 2.82700002 1.205561451e-38
0.36457145 0.10528572 2.82500005 1.19641882e-38
0.36614287 0.10528572 2.82500005 1.196452731e-38
0.36771432 0.10528572 2.82500005 1.196379163e-38
0.37286669 0.10630667 2.83300006 1.19634371e-38
0.37355432 0.10605143 2.83100003 1.20552768e-38
0.37423429 0.1057962 2.82900006 1.214746823e-38
0.37490666 0.10554095 2.82700002 1.20552712e-38
0.37648189 0.10554095 2.82700002 1.196199657e-38
0.37805715 0.10554095 2.82700002 1.168756347e-38
0.39250287 0.10822096 2.84800005 1.187121204e-38
0.39086479 0.10732762 2.84100002 1.196199096e-38
0.39153334 0.10707238 2.83900005 1.214566336e-38
0.3921943 0.10681715 2.83700001 1.186980094e-38
0.39284763 0.10656191 2.83500004 1.159429024e-38
0.39538285 0.10681715 2.83700001 1.150280928e-38
0.39697716 0.10681715 2.83700001 1.141169265e-38
0.39857143 0.10681715 2.83700001 1.113618756e-38
0.39920953 0.10656191 2.83500004 1.095252077e-38
0.40175998 0.10681715 2.83700001 1.131914949e-38
0.40239048 0.10656191 2.83500004 1.168613415e-38
0.40785143 0.10758286 2.84300005 1.177797105e-38
0.40945715 0.10758286 2.84300005 1.187015827e-38
0.41008762 0.10732762 2.84100002 1.177795703e-38
0.41266859 0.10758286 2.84300005 1.177795984e-38
0.41525716 0.10783809 2.84500003 1.177688644e-38
0.41686669 0.10783809 2.84500003 1.186801428e-38
0.41649523 0.10732762 2.84100002 1.177547253e-38
0.41909143 0.10758286 2.84300005 1.168326289e-38
0.42069715 0.10758286 2.84300005 1.140810112e-38
0.42580953 0.10847619 2.85000002 1.11300751e-38
0.42491427 0.10783809 2.84500003 1.094711316e-38
0.42551431 0.10758286 2.84300005 1.085601194e-38
0.42712003 0.10758286 2.84300005 1.103862356e-38
0.4472 0.10975239 2.86000001 6.904214349e-39
0.44675052 0.10924191 2.85600007 6.347817584e-39
0.44838101 0.10924191 2.85600007 5.791399799e-39
0.13949525 0.09779048 2.75500005 8.552195994e-39
0.14056 0.09753143 2.75300002 6.893785886e-39
0.1419943 0.09753143 2.75300002 5.335089374e-39
0.1432381 0.09740191 2.75200003 6.070846738e-39
0.14486286 0.09753143 2.75300002 6.805532109e-39
0.14610286 0.09740191 2.75200003 7.356547888e-39
0.14753523 0.09740191 2.75200003 7.909710457e-39
0.14896762 0.09740191 2.75200003 8.922051908e-39
0.15040001 0.09740191 2.75200003 1.002622745e-38
0.15183239 0.09740191 2.75200003 1.048791326e-38
0.15326478 0.09740191 2.75200003 1.104109404e-38
0.15469715 0.09740191 2.75200003 1.131912567e-38
0.1557143 0.09714286 2.75000006 1.159606989e-38
0.1575619 0.09740191 2.75200003 1.196484821e-38
0.15857144 0.09714286 2.75000006 1.233399366e-38
0.16000001 0.09714286 2.75000006 1.279497462e-38
0.16142859 0.09714286 2.75000006 1.334525331e-38
0.16285716 0.09714286 2.75000006 1.4079203e-38
0.16428573 0.09714286 2.75000006 1.481425411e-38
0.16571429 0.09714286 2.75000006 1.407850375e-38
0.16714287 0.09714286 2.75000006 1.334382959e-38
0.16857144 0.09714286 2.75000006 1.325236264e-38
0.17000002 0.09714286 2.75000006 1.32519955e-38
0.17142859 0.09714286 2.75000006 1.316015019e-38
0.17285715 0.09714286 2.75000006 1.306830489e-38
0.17475048 0.09740191 2.75200003 1.297646098e-38
0.17641714 0.09753143 2.75300002 1.297465751e-38
0.17761524 0.09740191 2.75200003 1.315580757e-38
0.17904763 0.09740191 2.75200003 1.342521561e-38
0.18048 0.09740191 2.75200003 1.241430769e-38
0.18191239 0.09740191 2.75200003 1.140411723e-38
0.18846478 0.10012191 2.77300006 1.029742915e-38
0.18969144 0.099992387 2.77200001 9.284018512e-39
0.1911619 0.099992387 2.77200001 1.094747049e-38
0.19263239 0.099992387 2.77200001 1.260015209e-38
0.19360001 0.099733338 2.77000004 1.296642068e-38
0.19506668 0.099733338 2.77000004 1.342846802e-38
0.19653335 0.099733338 2.77000004 1.42618048e-38
0.19800001 0.099733338 2.77000004 1.50876012e-38
0.19946668 0.099733338 2.77000004 1.42607174e-38
0.20093334 0.099733338 2.77000004 1.343096373e-38
0.2024 0.099733338 2.77000004 1.306002882e-38
0.20386668 0.099733338 2.77000004 1.269089738e-38
0.20480001 0.099474281 2.76800001 1.269125891e-38
0.20626286 0.099474281 2.76800001 1.269377144e-38
0.20745523 0.099344768 2.76700002 1.269341411e-38
0.20891619 0.099344768 2.76700002 1.26934085e-38
0.20982857 0.099085718 2.76500005 1.214239132e-38
0.21128573 0.099085718 2.76500005 1.159174128e-38
0.21274288 0.099085718 2.76500005 1.223495409e-38
0.21420002 0.099085718 2.76500005 1.297143733e-38
0.21565716 0.099085718 2.76500005 1.324659069e-38
0.2171143 0.099085718 2.76500005 1.352389224e-38
0.21857144 0.099085718 2.76500005 1.371079323e-38
0.22060381 0.099344768 2.76700002 1.389339083e-38
0.22206476 0.099344768 2.76700002 1.389231743e-38
0.22352572 0.099344768 2.76700002 1.398450886e-38
0.22528 0.099474281 2.76800001 1.398522492e-38
0.22674286 0.099474281 2.76800001 1.407777508e-38
0.2288 0.099733338 2.77000004 1.453766862e-38
0.23026668 0.099733338 2.77000004 1.508867459e-38
0.23233524 0.099992387 2.77200001 1.462985024e-38
0.2341086 0.10012191 2.77300006 1.426250966e-38
0.23558097 0.10012191 2.77300006 1.417067696e-38
0.23766668 0.10038095 2.77500004 1.407887089e-38
0.23976 0.10064001 2.77700001 1.398921722e-38
0.24123999 0.10064001 2.77700001 1.389665585e-38
0.24271999 0.10064001 2.77700001 1.398776547e-38
0.24420001 0.10064001 2.77700001 1.407959677e-38
0.24567999 0.10064001 2.77700001 1.398775707e-38
0.24716 0.10064001 2.77700001 1.389556004e-38
0.24928002 0.10089906 2.77900004 1.343637975e-38
0.2507638 0.10089906 2.77900004 1.297719386e-38
0.25257143 0.10102857 2.78000003 1.316265011e-38
0.25470859 0.10128763 2.78200006 1.343636994e-38
0.25619811 0.10128763 2.78200006 1.352821385e-38
0.25768763 0.10128763 2.78200006 1.361969201e-38
0.25984001 0.10154667 2.78400004 1.352750059e-38
0.26133335 0.10154667 2.78400004 1.352677191e-38
0.26282668 0.10154667 2.78400004 1.307009435e-38
0.26499429 0.10180572 2.78600001 1.27020419e-38
0.26716954 0.10206477 2.78800005 1.325234442e-38
0.26901144 0.10219429 2.78900003 1.380229101e-38
0.2712 0.10245334 2.79100001 1.398489702e-38
0.27270669 0.10245334 2.79100001 1.416820087e-38
0.27421334 0.10245334 2.79100001 1.39859578e-38
0.27572 0.10245334 2.79100001 1.38941209e-38
0.27722669 0.10245334 2.79100001 1.352677892e-38
0.27873334 0.10245334 2.79100001 1.325233882e-38
0.28094858 0.10271239 2.79300004 1.389625368e-38
0.28245905 0.10271239 2.79300004 1.453694695e-38
0.28468573 0.10297143 2.79500002 1.426143626e-38
0.28692001 0.10323048 2.79700005 1.407813802e-38
0.28843811 0.10323048 2.79700005 1.389483977e-38
0.29032004 0.10336 2.79800004 1.371116878e-38
0.29184002 0.10336 2.79800004 1.3803363e-38
0.29336002 0.10336 2.79800004 1.389340624e-38
0.29488003 0.10336 2.79800004 1.370758425e-38
0.29640001 0.10336 2.79800004 1.361647323e-38
0.29866666 0.10361905 2.80000001 1.36171963e-38
0.30019048 0.10361905 2.80000001 1.370865905e-38
0.3017143 0.10361905 2.80000001 1.370864644e-38
0.30399621 0.1038781 2.80200005 1.379868967e-38
0.30628571 0.10413714 2.80400002 1.361394389e-38
0.30858287 0.10439619 2.80600005 1.352281184e-38
0.31011811 0.10439619 2.80600005 1.324836894e-38
0.31242666 0.10465524 2.80800003 1.306327002e-38
0.31474286 0.10491429 2.81000006 1.29721604e-38
0.31628576 0.10491429 2.81000006 1.29721604e-38
0.3178286 0.10491429 2.81000006 1.278741461e-38
0.31937146 0.10491429 2.81000006 1.269522038e-38
0.3209143 0.10491429 2.81000006 1.260338489e-38
0.32245716 0.10491429 2.81000006 1.260374222e-38
0.324 0.10491429 2.81000006 1.260445688e-38
0.3255429 0.10491429 2.81000006 1.260481701e-38
0.32708573 0.10491429 2.81000006 1.251334165e-38
0.3286286 0.10491429 2.81000006 1.242113902e-38
0.33098668 0.10517334 2.81200004 1.223746102e-38
0.33253333 0.10517334 2.81200004 1.205451309e-38
0.33408001 0.10517334 2.81200004 1.214778912e-38
0.33562669 0.10517334 2.81200004 1.22392757e-38
0.33841908 0.10556191 2.81500006 1.23311224e-38
0.34080571 0.10582096 2.81700003 1.251443046e-38
0.34152383 0.10556191 2.81500006 1.242259076e-38
0.3430762 0.10556191 2.81500006 1.232967907e-38
0.3454743 0.10582096 2.81700003 1.196197975e-38
0.34703049 0.10582096 2.81700003 1.159355596e-38
0.34944001 0.10608001 2.81900007 1.205165304e-38
0.35100001 0.10608001 2.81900007 1.260267303e-38
0.35256001 0.10608001 2.81900007 1.260268143e-38
0.3558495 0.10659809 2.82300001 1.260411356e-38
0.35741714 0.10659809 2.82300001 1.187086312e-38
0.35985717 0.10685714 2.82500005 1.113616374e-38
0.3605524 0.10659809 2.82300001 1.159460974e-38
0.36212 0.10659809 2.82300001 1.205489425e-38
0.36457145 0.10685714 2.82500005 1.205636001e-38
0.36614287 0.10685714 2.82500005 1.214746963e-38
0.36949715 0.10737525 2.82900006 1.205526559e-38
0.37197143 0.10763429 2.83100003 1.196307417e-38
0.37265527 0.10737525 2.82900006 1.205455233e-38
0.37333143 0.10711619 2.82700002 1.223893939e-38
0.37400001 0.10685714 2.82500005 1.196414896e-38
0.37830287 0.10763429 2.83100003 1.16879194e-38
0.38080001 0.10789334 2.83300006 1.177939056e-38
0.38146859 0.10763429 2.83100003 1.187193231e-38
0.38305143 0.10763429 2.83100003 1.17811632e-38
0.38807619 0.10815238 2.83500004 1.18705156e-38
0.38966668 0.10815238 2.83500004 1.196163783e-38
0.39032003 0.10789334 2.83300006 1.177689485e-38
0.39190671 0.10789334 2.83300006 1.159429165e-38
0.39160383 0.10737525 2.82900006 1.141132831e-38
0.39508003 0.10789334 2.83300006 1.131913268e-38
0.39666671 0.10789334 2.83300006 1.095178789e-38
0.39825338 0.10789334 2.83300006 1.058445151e-38
0.40080002 0.10815238 2.83500004 1.113547009e-38
0.40239048 0.10815238 2.83500004 1.17775983e-38
0.40494859 0.10841143 2.83700001 1.186907366e-38
0.4075143 0.10867048 2.83900005 1.196162102e-38
0.40813714 0.10841143 2.83700001 1.187085752e-38
0.41071051 0.10867048 2.83900005 1.187014425e-38
0.41329145 0.10892952 2.84100002 1.177939056e-38
0.41390669 0.10867048 2.83900005 1.177652911e-38
0.41550478 0.10867048 2.83900005 1.177761512e-38
0.41809714 0.10892952 2.84100002 1.177796404e-38
0.42319238 0.10983619 2.84800005 1.159464337e-38
0.42480764 0.10983619 2.84800005 1.15031568e-38
0.42390859 0.10918858 2.84300005 1.132019346e-38
0.42551431 0.10918858 2.84300005 1.122765031e-38
0.42712003 0.10918858 2.84300005 1.113546449e-38
0.4277086 0.10892952 2.84100002 1.104219266e-38
0.42931047 0.10892952 2.84100002 1.058193618e-38
0.44616002 0.11113143 2.85800004 1.159033298e-38
0.44675052 0.11087239 2.85600007 1.104003046e-38
0.44838101 0.11087239 2.85600007 1.057832363e-38
0.14237143 0.099228583 2.75500005 7.814667389e-39
0.14380954 0.099228583 2.75500005 8.092322068e-39
0.14486286 0.098965712 2.75300002 8.462176581e-39
0.14629714 0.098965712 2.75300002 9.015703487e-39
0.14773144 0.098965712 2.75300002 9.569220584e-39
0.14896762 0.098834284 2.75200003 1.012273768e-38
0.15040001 0.098834284 2.75200003 1.067626038e-38
0.15183239 0.098834284 2.75200003 1.095176687e-38
0.15326478 0.098834284 2.75200003 1.1319483e-38
0.15469715 0.098834284 2.75200003 1.150316941e-38
0.1557143 0.098571435 2.75000006 1.169042492e-38
0.15714286 0.098571435 2.75000006 1.196593001e-38
0.15857144 0.098571435 2.75000006 1.214997235e-38
0.16000001 0.098571435 2.75000006 1.251696961e-38
0.16142859 0.098571435 2.75000006 1.297612187e-38
0.16285716 0.098571435 2.75000006 1.343599159e-38
0.16428573 0.098571435 2.75000006 1.389625788e-38
0.16571429 0.098571435 2.75000006 1.361861301e-38
0.16714287 0.098571435 2.75000006 1.3342752e-38
0.16857144 0.098571435 2.75000006 1.325163957e-38
0.17000002 0.098571435 2.75000006 1.325235283e-38
0.17142859 0.098571435 2.75000006 1.31601558e-38
0.17285715 0.098571435 2.75000006 1.315907119e-38
0.17475048 0.098834284 2.75200003 1.306686996e-38
0.17641714 0.098965712 2.75300002 1.297394565e-38
0.17761524 0.098834284 2.75200003 1.306397488e-38
0.17928571 0.098965712 2.75300002 1.315078952e-38
0.18048 0.098834284 2.75200003 1.204697131e-38
0.18191239 0.098834284 2.75200003 1.085311266e-38
0.18822095 0.10146286 2.77200001 1.047967643e-38
0.18969144 0.10146286 2.77200001 1.011089951e-38
0.1911619 0.10146286 2.77200001 1.122225251e-38
0.19263239 0.10146286 2.77200001 1.232428127e-38
0.19360001 0.1012 2.77000004 1.278274549e-38
0.19506668 0.1012 2.77000004 1.333519199e-38
0.19653335 0.1012 2.77000004 1.398449765e-38
0.19800001 0.1012 2.77000004 1.471810121e-38
0.19946668 0.1012 2.77000004 1.416600784e-38
0.20093334 0.1012 2.77000004 1.370610308e-38
0.2024 0.1012 2.77000004 1.324512353e-38
0.20386668 0.1012 2.77000004 1.287456417e-38
0.20533334 0.1012 2.77000004 1.278453494e-38
0.20626286 0.10093714 2.76800001 1.27863258e-38
0.20745523 0.10080571 2.76700002 1.2786323e-38
0.20891619 0.10080571 2.76700002 1.28781613e-38
0.21037716 0.10080571 2.76700002 1.250974592e-38
0.2118381 0.10080571 2.76700002 1.21431228e-38
0.21274288 0.10054287 2.76500005 1.251118505e-38
0.21420002 0.10054287 2.76500005 1.287924871e-38
0.21565716 0.10054287 2.76500005 1.315511813e-38
0.2171143 0.10054287 2.76500005 1.343349868e-38
0.21857144 0.10054287 2.76500005 1.361860881e-38
0.22060381 0.10080571 2.76700002 1.380192107e-38
0.22206476 0.10080571 2.76700002 1.398415853e-38
0.22381714 0.10093714 2.76800001 1.407599263e-38
0.22528 0.10093714 2.76800001 1.416782812e-38
0.22674286 0.10093714 2.76800001 1.425966782e-38
0.2288 0.1012 2.77000004 1.444513668e-38
0.23026668 0.1012 2.77000004 1.462986986e-38
0.23233524 0.10146286 2.77200001 1.417067977e-38
0.23380572 0.10146286 2.77200001 1.371115056e-38
0.23558097 0.10159429 2.77300006 1.380299446e-38
0.23766668 0.10185715 2.77500004 1.389486079e-38
0.23914286 0.10185715 2.77500004 1.371122203e-38
0.24123999 0.10212 2.77700001 1.361972704e-38
0.24209525 0.10185715 2.77500004 1.380373855e-38
0.24420001 0.10212 2.77700001 1.398776688e-38
0.24504763 0.10185715 2.77500004 1.398740814e-38
0.24716 0.10212 2.77700001 1.398632634e-38
0.24863999 0.10212 2.77700001 1.361933889e-38
0.25012001 0.10212 2.77700001 1.325235703e-38
0.25224763 0.10238286 2.77900004 1.334419393e-38
0.25470859 0.10277715 2.78200006 1.352821945e-38
0.25619811 0.10277715 2.78200006 1.361969341e-38
0.25768763 0.10277715 2.78200006 1.361969201e-38
0.25917715 0.10277715 2.78200006 1.361933328e-38
0.26066667 0.10277715 2.78200006 1.36186046e-38
0.26282668 0.10304001 2.78400004 1.325268774e-38
0.26432002 0.10304001 2.78400004 1.297790712e-38
0.26649144 0.10330286 2.78600001 1.334418272e-38
0.26901144 0.10369714 2.78900003 1.380157215e-38
0.27051428 0.10369714 2.78900003 1.389305451e-38
0.27201715 0.10369714 2.78900003 1.398452567e-38
0.27421334 0.10396 2.79100001 1.389447823e-38
0.27572 0.10396 2.79100001 1.389483837e-38
0.27722669 0.10396 2.79100001 1.371081004e-38
0.27873334 0.10396 2.79100001 1.352749078e-38
0.28024 0.10396 2.79100001 1.389410829e-38
0.28245905 0.10422286 2.79300004 1.435292844e-38
0.28396955 0.10422286 2.79300004 1.426109435e-38
0.28620002 0.10448571 2.79500002 1.416926586e-38
0.28843811 0.10474858 2.79700005 1.398667947e-38
0.28995618 0.10474858 2.79700005 1.38952027e-38
0.29147431 0.10474858 2.79700005 1.398667947e-38
0.29336002 0.10488001 2.79800004 1.40777961e-38
0.29488003 0.10488001 2.79800004 1.389412511e-38
0.29640001 0.10488001 2.79800004 1.371081285e-38
0.29792002 0.10488001 2.79800004 1.361897735e-38
0.30019048 0.10514285 2.80000001 1.352713905e-38
0.3017143 0.10514285 2.80000001 1.379977428e-38
0.30323809 0.10514285 2.80000001 1.416568414e-38
0.30552381 0.10540573 2.80200005 1.379870369e-38
0.30781716 0.10566857 2.80400002 1.352389785e-38
0.31011811 0.10593143 2.80600005 1.324837595e-38
0.31242666 0.10619429 2.80800003 1.306363997e-38
0.31396571 0.10619429 2.80800003 1.306400991e-38
0.31550476 0.10619429 2.80800003 1.306436584e-38
0.31704384 0.10619429 2.80800003 1.287997458e-38
0.31858286 0.10619429 2.80800003 1.278634402e-38
0.32012191 0.10619429 2.80800003 1.278813628e-38
0.32166097 0.10619429 2.80800003 1.278992294e-38
0.32320002 0.10619429 2.80800003 1.260516874e-38
0.32473907 0.10619429 2.80800003 1.251404931e-38
0.32627809 0.10619429 2.80800003 1.251333184e-38
0.32781714 0.10619429 2.80800003 1.251475556e-38
0.33017144 0.10645715 2.81000006 1.21466849e-38
0.3317143 0.10645715 2.81000006 1.187083229e-38
0.33325714 0.10645715 2.81000006 1.205523476e-38
0.33480003 0.10645715 2.81000006 1.233110419e-38
0.33717334 0.10672001 2.81200004 1.251477938e-38
0.33955428 0.10698286 2.81400001 1.269880911e-38
0.34110478 0.10698286 2.81400001 1.260625755e-38
0.34265524 0.10698286 2.81400001 1.251298712e-38
0.34462857 0.10711429 2.81500006 1.232931613e-38
0.34618098 0.10711429 2.81500006 1.223603029e-38
0.34773335 0.10711429 2.81500006 1.251152277e-38
0.35014287 0.10737714 2.81700003 1.27874006e-38
0.35169908 0.10737714 2.81700003 1.278633701e-38
0.35412002 0.10764001 2.81900007 1.28803221e-38
0.35654858 0.10790286 2.82100004 1.242150195e-38
0.35811239 0.10790286 2.82100004 1.20545201e-38
0.35967618 0.10790286 2.82100004 1.22371177e-38
0.36036003 0.10764001 2.81900007 1.241936497e-38
0.36192003 0.10764001 2.81900007 1.232825815e-38
0.36348003 0.10764001 2.81900007 1.232897562e-38
0.36504 0.10764001 2.81900007 1.223678279e-38
0.36749527 0.10790286 2.82100004 1.214494729e-38
0.37085715 0.10842858 2.82500005 1.251300674e-38
0.37152573 0.10816572 2.82300001 1.288142352e-38
0.37218669 0.10790286 2.82100004 1.214530462e-38
0.37375048 0.10790286 2.82100004 1.150137295e-38
0.37805715 0.10869142 2.82700002 1.159356017e-38
0.37871429 0.10842858 2.82500005 1.177758849e-38
0.38120762 0.10869142 2.82700002 1.1685753e-38
0.38370857 0.1089543 2.82900006 1.168612014e-38
0.38621715 0.10921714 2.83100003 1.177760531e-38
0.38780001 0.10921714 2.83100003 1.196128331e-38
0.38938287 0.10921714 2.83100003 1.177797805e-38
0.39096573 0.10921714 2.83100003 1.159465178e-38
0.39160383 0.1089543 2.82900006 1.150244354e-38
0.3931829 0.1089543 2.82900006 1.140916751e-38
0.39476192 0.1089543 2.82900006 1.122584964e-38
0.39825338 0.10948001 2.83300006 1.104254439e-38
0.40080002 0.10974286 2.83500004 1.140917591e-38
0.40239048 0.10974286 2.83500004 1.177579343e-38
0.40398097 0.10974286 2.83500004 1.186726459e-38
0.40654284 0.11000571 2.83700001 1.195873855e-38
0.40813714 0.11000571 2.83700001 1.186977151e-38
0.40973145 0.11000571 2.83700001 1.186941838e-38
0.41132572 0.11000571 2.83700001 1.168539566e-38
0.41292 0.11000571 2.83700001 1.150137435e-38
0.4145143 0.11000571 2.83700001 1.159393572e-38
0.41610858 0.11000571 2.83700001 1.168612574e-38
0.42069715 0.11079429 2.84300005 1.177831577e-38
0.42029905 0.11026858 2.83900005 1.187085752e-38
0.42189717 0.11026858 2.83900005 1.159462375e-38
0.42349523 0.11026858 2.83900005 1.131875993e-38
0.42509335 0.11026858 2.83900005 1.122692584e-38
0.42669144 0.11026858 2.83900005 1.113689101e-38
0.42828953 0.11026858 2.83900005 1.058301518e-38
0.42988762 0.11026858 2.83900005 1.012348317e-38
0.43148574 0.11026858 2.83900005 1.085673642e-38
0.43308383 0.11026858 2.83900005 1.158962532e-38
0.43468192 0.11026858 2.83900005 1.149778983e-38
0.442 0.11171429 2.85000002 1.140594312e-38
0.44466287 0.11197715 2.85200006 1.085420147e-38
0.44628575 0.11197715 2.85200006 1.039465124e-38
0.14237143 0.10066667 2.75500005 1.040184831e-38
0.14380954 0.10066667 2.75500005 1.021817451e-38
0.14486286 0.1004 2.75300002 1.012561735e-38
0.14629714 0.1004 2.75300002 1.067591006e-38
0.14773144 0.1004 2.75300002 1.122800624e-38
0.14896762 0.10026667 2.75200003 1.122944958e-38
0.15040001 0.10026667 2.75200003 1.13205578e-38
0.15183239 0.10026667 2.75200003 1.150350292e-38
0.15326478 0.10026667 2.75200003 1.168718232e-38
0.15469715 0.10026667 2.75200003 1.177902762e-38
0.1557143 0.10000001 2.75000006 1.187373298e-38
0.1575619 0.10026667 2.75200003 1.196664608e-38
0.15899429 0.10026667 2.75200003 1.205704244e-38
0.16000001 0.10000001 2.75000006 1.233182726e-38
0.16142859 0.10000001 2.75000006 1.260553588e-38
0.16285716 0.10000001 2.75000006 1.278597548e-38
0.16428573 0.10000001 2.75000006 1.306401411e-38
0.16571429 0.10000001 2.75000006 1.315873909e-38
0.16714287 0.10000001 2.75000006 1.334204014e-38
0.16857144 0.10000001 2.75000006 1.334202893e-38
0.17000002 0.10000001 2.75000006 1.334417852e-38
0.17142859 0.10000001 2.75000006 1.325198289e-38
0.17285715 0.10000001 2.75000006 1.325125982e-38
0.17475048 0.10026667 2.75200003 1.315870265e-38
0.17641714 0.1004 2.75300002 1.306613848e-38
0.17761524 0.10026667 2.75200003 1.297214078e-38
0.17928571 0.1004 2.75300002 1.296639966e-38
0.18048 0.10026667 2.75200003 1.167998385e-38
0.18191239 0.10026667 2.75200003 1.039034505e-38
0.18846478 0.10306668 2.77300006 1.066226702e-38
0.18969144 0.10293333 2.77200001 1.103211873e-38
0.19066668 0.10266667 2.77000004 1.149739326e-38
0.19263239 0.10293333 2.77200001 1.204805731e-38
0.19360001 0.10266667 2.77000004 1.2690917e-38
0.19506668 0.10266667 2.77000004 1.333485147e-38
0.19653335 0.10266667 2.77000004 1.379941975e-38
0.19800001 0.10266667 2.77000004 1.435006419e-38
0.19946668 0.10266667 2.77000004 1.416530719e-38
0.20093334 0.10266667 2.77000004 1.407310315e-38
0.2024 0.10266667 2.77000004 1.352208177e-38
0.20386668 0.10266667 2.77000004 1.306326862e-38
0.20533334 0.10266667 2.77000004 1.297179886e-38
0.20626286 0.1024 2.76800001 1.297036394e-38
0.20745523 0.10226667 2.76700002 1.297072407e-38
0.20891619 0.10226667 2.76700002 1.306148477e-38
0.21037716 0.10226667 2.76700002 1.287709911e-38
0.2118381 0.10226667 2.76700002 1.269342952e-38
0.21329905 0.10226667 2.76700002 1.278813628e-38
0.21420002 0.10200001 2.76500005 1.287925571e-38
0.21565716 0.10200001 2.76500005 1.30640043e-38
0.2171143 0.10200001 2.76500005 1.334130726e-38
0.21857144 0.10200001 2.76500005 1.352641598e-38
0.22060381 0.10226667 2.76700002 1.38012008e-38
0.22206476 0.10226667 2.76700002 1.398450746e-38
0.22352572 0.10226667 2.76700002 1.425966082e-38
0.22528 0.1024 2.76800001 1.435150332e-38
0.22674286 0.1024 2.76800001 1.444406469e-38
0.2288 0.10266667 2.77000004 1.435295647e-38
0.23026668 0.10266667 2.77000004 1.426217615e-38
0.23233524 0.10293333 2.77200001 1.371186102e-38
0.23380572 0.10293333 2.77200001 1.315941031e-38
0.23558097 0.10306668 2.77300006 1.3432763e-38
0.23766668 0.10333334 2.77500004 1.370972964e-38
0.23914286 0.10333334 2.77500004 1.35275188e-38
0.24061905 0.10333334 2.77500004 1.34367497e-38
0.24209525 0.10333334 2.77500004 1.371332397e-38
0.24357145 0.10333334 2.77500004 1.39881158e-38
0.24504763 0.10333334 2.77500004 1.407923803e-38
0.24716 0.1036 2.77700001 1.417035326e-38
0.24863999 0.1036 2.77700001 1.380229241e-38
0.25012001 0.1036 2.77700001 1.35275104e-38
0.25224763 0.10386667 2.77900004 1.361756064e-38
0.25470859 0.10426667 2.78200006 1.371009678e-38
0.25619811 0.10426667 2.78200006 1.371079743e-38
0.25768763 0.10426667 2.78200006 1.37115205e-38
0.25917715 0.10426667 2.78200006 1.371116737e-38
0.26066667 0.10426667 2.78200006 1.371116037e-38
0.26282668 0.10453334 2.78400004 1.343564687e-38
0.26432002 0.10453334 2.78400004 1.325198429e-38
0.26649144 0.1048 2.78600001 1.352785792e-38
0.26867047 0.10506667 2.78800005 1.38941237e-38
0.27051428 0.10520001 2.78900003 1.389089511e-38
0.27201715 0.10520001 2.78900003 1.38930377e-38
0.27352002 0.10520001 2.78900003 1.389518028e-38
0.27572 0.10546666 2.79100001 1.389483556e-38
0.27722669 0.10546666 2.79100001 1.389413211e-38
0.27873334 0.10546666 2.79100001 1.389483977e-38
0.28024 0.10546666 2.79100001 1.398630672e-38
0.28245905 0.10573334 2.79300004 1.416997631e-38
0.28396955 0.10573334 2.79300004 1.417069378e-38
0.28620002 0.106 2.79500002 1.426110556e-38
0.2877143 0.106 2.79500002 1.417035747e-38
0.28995618 0.10626668 2.79700005 1.407852057e-38
0.29147431 0.10626668 2.79700005 1.417035326e-38
0.29336002 0.10640001 2.79800004 1.435294526e-38
0.29488003 0.10640001 2.79800004 1.407922963e-38
0.29640001 0.10640001 2.79800004 1.389484117e-38
0.29792002 0.10640001 2.79800004 1.362005355e-38
0.29944003 0.10640001 2.79800004 1.334203173e-38
0.3017143 0.10666667 2.80000001 1.398308374e-38
0.30248001 0.10640001 2.79800004 1.462593081e-38
0.30400002 0.10640001 2.79800004 1.407527516e-38
0.30628571 0.10666667 2.80000001 1.352389785e-38
0.30934858 0.1072 2.80400002 1.324838435e-38
0.31165335 0.10746667 2.80600005 1.30650847e-38
0.31318858 0.10746667 2.80600005 1.306545605e-38
0.31472382 0.10746667 2.80600005 1.31569244e-38
0.31625906 0.10746667 2.80600005 1.306472177e-38
0.31779429 0.10746667 2.80600005 1.297288207e-38
0.31932953 0.10746667 2.80600005 1.297287786e-38
0.32086477 0.10746667 2.80600005 1.297251213e-38
0.3224 0.10746667 2.80600005 1.26966399e-38
0.32393524 0.10746667 2.80600005 1.251333184e-38
0.32547048 0.10746667 2.80600005 1.251369478e-38
0.32781714 0.10773333 2.80800003 1.260660087e-38
0.32935619 0.10773333 2.80800003 1.214705905e-38
0.33089525 0.10773333 2.80800003 1.168752984e-38
0.33325714 0.10800001 2.81000006 1.205488023e-38
0.33480003 0.10800001 2.81000006 1.242257535e-38
0.3363429 0.10800001 2.81000006 1.260803299e-38
0.33871999 0.10826667 2.81200004 1.288283043e-38
0.3402667 0.10826667 2.81200004 1.278992854e-38
0.34181336 0.10826667 2.81200004 1.269737418e-38
0.34420574 0.10853333 2.81400001 1.278884954e-38
0.3457562 0.10853333 2.81400001 1.28803193e-38
0.34730667 0.10853333 2.81400001 1.288031369e-38
0.34885716 0.10853333 2.81400001 1.29710786e-38
0.35083812 0.10866667 2.81500006 1.306220223e-38
0.35325524 0.10893334 2.81700003 1.315439646e-38
0.35481143 0.10893334 2.81700003 1.306327983e-38
0.35636762 0.10893334 2.81700003 1.297144153e-38
0.35792381 0.10893334 2.81700003 1.287960323e-38
0.36036003 0.10920001 2.81900007 1.278669855e-38
0.36192003 0.10920001 2.81900007 1.260303596e-38
0.36348003 0.10920001 2.81900007 1.25126396e-38
0.36504 0.10920001 2.81900007 1.241793985e-38
0.36660001 0.10920001 2.81900007 1.242009645e-38
0.36816001 0.10920001 2.81900007 1.297111363e-38
0.36972001 0.10920001 2.81900007 1.361359917e-38
0.37037337 0.10893334 2.81700003 1.241937478e-38
0.37284002 0.10920001 2.81900007 1.131770195e-38
0.37440002 0.10920001 2.81900007 1.149993241e-38
0.37596002 0.10920001 2.81900007 1.168574739e-38
0.3784419 0.10946666 2.82100004 1.159139376e-38
0.38000572 0.10946666 2.82100004 1.159427343e-38
0.3834286 0.11000001 2.82500005 1.177974789e-38
0.38593334 0.11026667 2.82700002 1.205454252e-38
0.38750857 0.11026667 2.82700002 1.187015967e-38
0.38908383 0.11026667 2.82700002 1.168611733e-38
0.39065906 0.11026667 2.82700002 1.159391049e-38
0.3922343 0.11026667 2.82700002 1.159318462e-38
0.39380953 0.11026667 2.82700002 1.150062325e-38
0.39538479 0.11026667 2.82700002 1.150063306e-38
0.39792004 0.11053333 2.82900006 1.168431246e-38
0.39949906 0.11053333 2.82900006 1.186762472e-38
0.4010781 0.11053333 2.82900006 1.186726739e-38
0.40265718 0.11053333 2.82900006 1.195873715e-38
0.4061867 0.11106668 2.83300006 1.186868971e-38
0.40777335 0.11106668 2.83300006 1.186904704e-38
0.40936002 0.11106668 2.83300006 1.159210422e-38
0.41094667 0.11106668 2.83300006 1.131732641e-38
0.41253337 0.11106668 2.83300006 1.150208621e-38
0.41412002 0.11106668 2.83300006 1.168539566e-38
0.41670477 0.11133334 2.83500004 1.196054062e-38
0.41829526 0.11133334 2.83500004 1.232823293e-38
0.42089143 0.1116 2.83700001 1.18697645e-38
0.42248574 0.1116 2.83700001 1.141022409e-38
0.42509335 0.11186668 2.83900005 1.131838439e-38
0.42567429 0.1116 2.83700001 1.122692023e-38
0.42828953 0.11186668 2.83900005 1.06762786e-38
0.42988762 0.11186668 2.83900005 1.012418943e-38
0.43148574 0.11186668 2.83900005 1.113222749e-38
0.43308383 0.11186668 2.83900005 1.214241935e-38
0.43571809 0.11213334 2.84100002 1.168324327e-38
0.43836001 0.1124 2.84300005 1.122262385e-38
0.44257528 0.11306667 2.84800005 1.07627219e-38
0.4441905 0.11306667 2.84800005 1.030245981e-38
0.14400001 0.10224 2.75600004 1.003486646e-38
0.14524762 0.10210477 2.75500005 9.852263256e-39
0.14629714 0.10183429 2.75300002 1.031035613e-38
0.14773144 0.10183429 2.75300002 1.076847843e-38
0.14916572 0.10183429 2.75300002 1.104508354e-38
0.15040001 0.10169905 2.75200003 1.122981251e-38
0.15203428 0.10183429 2.75300002 1.141059683e-38
0.15326478 0.10169905 2.75200003 1.159427063e-38
0.15469715 0.10169905 2.75200003 1.159534963e-38
0.1557143 0.10142858 2.75000006 1.168970045e-38
0.15714286 0.10142858 2.75000006 1.168898719e-38
0.15857144 0.10142858 2.75000006 1.168860604e-38
0.16000001 0.10142858 2.75000006 1.196337264e-38
0.16142859 0.10142858 2.75000006 1.223638622e-38
0.16285716 0.10142858 2.75000006 1.260374782e-38
0.16428573 0.10142858 2.75000006 1.297147516e-38
0.16571429 0.10142858 2.75000006 1.34331918e-38
0.16714287 0.10142858 2.75000006 1.389269999e-38
0.16857144 0.10142858 2.75000006 1.37104359e-38
0.17000002 0.10142858 2.75000006 1.352819983e-38
0.17097142 0.1011581 2.74800003 1.352748237e-38
0.17285715 0.10142858 2.75000006 1.361895633e-38
0.17428572 0.10142858 2.75000006 1.334272957e-38
0.17618287 0.10169905 2.75200003 1.297466172e-38
0.17714287 0.10142858 2.75000006 1.278596147e-38
0.17904763 0.10169905 2.75200003 1.259869894e-38
0.18000001 0.10142858 2.75000006 1.130689934e-38
0.18142858 0.10142858 2.75000006 9.923629985e-39
0.18846478 0.10453905 2.77300006 1.038926885e-38
0.1892 0.10413334 2.77000004 1.094350762e-38
0.19066668 0.10413334 2.77000004 1.140555216e-38
0.19213334 0.10413334 2.77000004 1.186295279e-38
0.19360001 0.10413334 2.77000004 1.241470005e-38
0.19506668 0.10413334 2.77000004 1.296716757e-38
0.19653335 0.10413334 2.77000004 1.352286509e-38
0.19800001 0.10413334 2.77000004 1.416605688e-38
0.19946668 0.10413334 2.77000004 1.42571609e-38
0.20093334 0.10413334 2.77000004 1.434862786e-38
0.2024 0.10413334 2.77000004 1.370648704e-38
0.20386668 0.10413334 2.77000004 1.315726772e-38
0.20480001 0.10386286 2.76800001 1.297180447e-38
0.20626286 0.10386286 2.76800001 1.278706148e-38
0.20745523 0.10372762 2.76700002 1.297073668e-38
0.20891619 0.10372762 2.76700002 1.315333288e-38
0.20982857 0.10345715 2.76500005 1.296858709e-38
0.2118381 0.10372762 2.76700002 1.27849161e-38
0.21329905 0.10372762 2.76700002 1.26941582e-38
0.21420002 0.10345715 2.76500005 1.260375623e-38
0.21565716 0.10345715 2.76500005 1.288033892e-38
0.2171143 0.10345715 2.76500005 1.324911723e-38
0.21857144 0.10345715 2.76500005 1.352534259e-38
0.22060381 0.10372762 2.76700002 1.380083786e-38
0.22206476 0.10372762 2.76700002 1.425928807e-38
0.22352572 0.10372762 2.76700002 1.471811943e-38
0.22498667 0.10372762 2.76700002 1.453553725e-38
0.22674286 0.10386286 2.76800001 1.444479196e-38
0.2288 0.10413334 2.77000004 1.435261315e-38
0.23026668 0.10413334 2.77000004 1.435402005e-38
0.23173334 0.10413334 2.77000004 1.40781268e-38
0.23380572 0.10440381 2.77200001 1.389372714e-38
0.23558097 0.10453905 2.77300006 1.389084607e-38
0.23705335 0.10453905 2.77300006 1.398198232e-38
0.23914286 0.10480952 2.77500004 1.398666405e-38
0.24061905 0.10480952 2.77500004 1.408065194e-38
0.24209525 0.10480952 2.77500004 1.398881645e-38
0.24357145 0.10480952 2.77500004 1.389698936e-38
0.24504763 0.10480952 2.77500004 1.389592157e-38
0.24652381 0.10480952 2.77500004 1.398739833e-38
0.24863999 0.10508 2.77700001 1.352750339e-38
0.25012001 0.10508 2.77700001 1.306798119e-38
0.25257143 0.10548571 2.78000003 1.361865085e-38
0.25470859 0.10575619 2.78200006 1.407743877e-38
0.25619811 0.10575619 2.78200006 1.398665004e-38
0.25768763 0.10575619 2.78200006 1.380334899e-38
0.25917715 0.10575619 2.78200006 1.380371893e-38
0.26066667 0.10575619 2.78200006 1.389590896e-38
0.26282668 0.10602667 2.78400004 1.37115177e-38
0.26432002 0.10602667 2.78400004 1.352749498e-38
0.26649144 0.10629714 2.78600001 1.389484537e-38
0.26867047 0.10656762 2.78800005 1.435401725e-38
0.27051428 0.10670286 2.78900003 1.416675333e-38
0.27201715 0.10670286 2.78900003 1.398522072e-38
0.27352002 0.10670286 2.78900003 1.389409007e-38
0.27572 0.10697333 2.79100001 1.3803356e-38
0.27722669 0.10697333 2.79100001 1.380302389e-38
0.27873334 0.10697333 2.79100001 1.371117578e-38
0.28024 0.10697333 2.79100001 1.389447543e-38
0.28174669 0.10697333 2.79100001 1.398630812e-38
0.28325334 0.10697333 2.79100001 1.407778209e-38
0.28548002 0.10724381 2.79300004 1.407743877e-38
0.2877143 0.10751428 2.79500002 1.398597742e-38
0.28995618 0.10778476 2.79700005 1.398525575e-38
0.29147431 0.10778476 2.79700005 1.380158055e-38
0.29299241 0.10778476 2.79700005 1.371009818e-38
0.29488003 0.10792 2.79800004 1.371045131e-38
0.29640001 0.10792 2.79800004 1.371081144e-38
0.29792002 0.10792 2.79800004 1.361790255e-38
0.29944003 0.10792 2.79800004 1.361610329e-38
0.30096003 0.10792 2.79800004 1.38919629e-38
0.30248001 0.10792 2.79800004 1.416818125e-38
0.30400002 0.10792 2.79800004 1.352532857e-38
0.30628571 0.10819048 2.80000001 1.297467713e-38
0.30780953 0.10819048 2.80000001 1.297504007e-38
0.31010669 0.10846096 2.80200005 1.306760704e-38
0.31241143 0.10873143 2.80400002 1.297542683e-38
0.31394288 0.10873143 2.80400002 1.288357592e-38
0.31625906 0.10900191 2.80600005 1.297216881e-38
0.31700572 0.10873143 2.80400002 1.30629211e-38
0.31853715 0.10873143 2.80400002 1.28803193e-38
0.3200686 0.10873143 2.80400002 1.279098792e-38
0.32160002 0.10873143 2.80400002 1.279098092e-38
0.32313141 0.10873143 2.80400002 1.288282482e-38
0.32466286 0.10873143 2.80400002 1.27906404e-38
0.32700571 0.10900191 2.80600005 1.26988049e-38
0.32854095 0.10900191 2.80600005 1.233074546e-38
0.33007622 0.10900191 2.80600005 1.205631797e-38
0.33161145 0.10900191 2.80600005 1.233110979e-38
0.33314669 0.10900191 2.80600005 1.251440524e-38
0.3355124 0.10927239 2.80800003 1.269877688e-38
0.33705145 0.10927239 2.80800003 1.288354088e-38
0.3394286 0.10954287 2.81000006 1.279100474e-38
0.34097144 0.10954287 2.81000006 1.269880771e-38
0.34251431 0.10954287 2.81000006 1.297359393e-38
0.34490666 0.10981334 2.81200004 1.324874449e-38
0.34645334 0.10981334 2.81200004 1.315619433e-38
0.34800002 0.10981334 2.81200004 1.30629211e-38
0.34954667 0.10981334 2.81200004 1.324623196e-38
0.35109335 0.10981334 2.81200004 1.333771152e-38
0.35264 0.10981334 2.81200004 1.315404474e-38
0.35418668 0.10981334 2.81200004 1.297036534e-38
0.35573334 0.10981334 2.81200004 1.287780537e-38
0.35815999 0.11008381 2.81400001 1.278561534e-38
0.35971048 0.11008381 2.81400001 1.269522038e-38
0.3617048 0.11021905 2.81500006 1.269666372e-38
0.36325714 0.11021905 2.81500006 1.260411917e-38
0.36480954 0.11021905 2.81500006 1.251157461e-38
0.36636192 0.11021905 2.81500006 1.278673218e-38
0.36791432 0.11021905 2.81500006 1.315406576e-38
0.36946669 0.11021905 2.81500006 1.241937338e-38
0.37192953 0.11048953 2.81700003 1.168540267e-38
0.37348571 0.11048953 2.81700003 1.177723536e-38
0.3750419 0.11048953 2.81700003 1.186941418e-38
0.37752002 0.11076001 2.81900007 1.18697575e-38
0.37908003 0.11076001 2.81900007 1.187012744e-38
0.38249904 0.11130095 2.82300001 1.196305034e-38
0.38500002 0.11157144 2.82500005 1.196341328e-38
0.38657144 0.11157144 2.82500005 1.186978833e-38
0.38814288 0.11157144 2.82500005 1.177794162e-38
0.3897143 0.11157144 2.82500005 1.168645505e-38
0.3922343 0.11184191 2.82700002 1.15953258e-38
0.39380953 0.11184191 2.82700002 1.159459713e-38
0.39538479 0.11184191 2.82700002 1.159424961e-38
0.39696002 0.11184191 2.82700002 1.177757308e-38
0.39853525 0.11184191 2.82700002 1.196125108e-38
0.40011048 0.11184191 2.82700002 1.195910569e-38
0.40265718 0.11211239 2.82900006 1.186690025e-38
0.40423623 0.11211239 2.82900006 1.186832537e-38
0.40581524 0.11211239 2.82900006 1.186903303e-38
0.40837717 0.11238286 2.83100003 1.186830715e-38
0.40996 0.11238286 2.83100003 1.186796383e-38
0.41253337 0.11265334 2.83300006 1.177578502e-38
0.41312572 0.11238286 2.83100003 1.177578362e-38
0.41570669 0.11265334 2.83300006 1.186761912e-38
0.41829526 0.11292382 2.83500004 1.205164183e-38
0.41988572 0.11292382 2.83500004 1.177756467e-38
0.42147622 0.11292382 2.83500004 1.150133091e-38
0.42407998 0.11319429 2.83700001 1.141020307e-38
0.42465717 0.11292382 2.83500004 1.141129608e-38
0.42726859 0.11319429 2.83700001 1.104361358e-38
0.42886284 0.11319429 2.83700001 1.067626739e-38
0.43045714 0.11319429 2.83700001 1.113293094e-38
0.43205142 0.11319429 2.83700001 1.159139376e-38
0.43364573 0.11319429 2.83700001 1.140736684e-38
0.43524 0.11319429 2.83700001 1.122333431e-38
0.4389219 0.11373524 2.84100002 1.085455459e-38
0.44052383 0.11373524 2.84100002 1.057761037e-38
0.14380954 0.10354286 2.75500005 9.851914333e-39
0.14524762 0.10354286 2.75500005 9.665363672e-39
0.14668572 0.10354286 2.75500005 1.003018612e-38
0.14773144 0.10326858 2.75300002 1.039790225e-38
0.14916572 0.10326858 2.75300002 1.076597712e-38
0.15040001 0.10313143 2.75200003 1.122550773e-38
0.15183239 0.10313143 2.75200003 1.131769635e-38
0.15326478 0.10313143 2.75200003 1.150172327e-38
0.15469715 0.10313143 2.75200003 1.150351413e-38
0.1557143 0.10285715 2.75000006 1.159535523e-38
0.15714286 0.10285715 2.75000006 1.150388547e-38
0.15857144 0.10285715 2.75000006 1.141167443e-38
0.16000001 0.10285715 2.75000006 1.168680537e-38
0.16142859 0.10285715 2.75000006 1.19626804e-38
0.16285716 0.10285715 2.75000006 1.242258656e-38
0.16384763 0.10258286 2.74800003 1.287963266e-38
0.16571429 0.10285715 2.75000006 1.361613271e-38
0.16714287 0.10285715 2.75000006 1.444298989e-38
0.16857144 0.10285715 2.75000006 1.407921421e-38
0.17000002 0.10285715 2.75000006 1.371223657e-38
0.17142859 0.10285715 2.75000006 1.389662923e-38
0.1733181 0.10313143 2.75200003 1.407957154e-38
0.17475048 0.10313143 2.75200003 1.352818722e-38
0.1757143 0.10285715 2.75000006 1.297214779e-38
0.17714287 0.10285715 2.75000006 1.259977794e-38
0.17809524 0.10258286 2.74800003 1.232211346e-38
0.18000001 0.10285715 2.75000006 1.092878978e-38
0.18142858 0.10285715 2.75000006 9.557718727e-39
0.18846478 0.10601144 2.77300006 1.020846352e-38
0.18969144 0.10587429 2.77200001 1.085274832e-38
0.1911619 0.10587429 2.77200001 1.122188677e-38
0.19213334 0.10560001 2.77000004 1.1680358e-38
0.19360001 0.10560001 2.77000004 1.213882922e-38
0.19506668 0.10560001 2.77000004 1.2693082e-38
0.19653335 0.10560001 2.77000004 1.333845141e-38
0.19800001 0.10560001 2.77000004 1.398344527e-38
0.19946668 0.10560001 2.77000004 1.426002235e-38
0.20093334 0.10560001 2.77000004 1.462664827e-38
0.2024 0.10560001 2.77000004 1.398308374e-38
0.20386668 0.10560001 2.77000004 1.334059259e-38
0.20480001 0.10532571 2.76800001 1.297181428e-38
0.20626286 0.10532571 2.76800001 1.269559873e-38
0.20745523 0.10518858 2.76700002 1.29718325e-38
0.20891619 0.10518858 2.76700002 1.333773114e-38
0.21037716 0.10518858 2.76700002 1.305970652e-38
0.21128573 0.10491429 2.76500005 1.287639426e-38
0.21329905 0.10518858 2.76700002 1.260124651e-38
0.21420002 0.10491429 2.76500005 1.232825114e-38
0.21565716 0.10491429 2.76500005 1.278850622e-38
0.2171143 0.10491429 2.76500005 1.324876691e-38
0.21857144 0.10491429 2.76500005 1.352571533e-38
0.22060381 0.10518858 2.76700002 1.389268878e-38
0.22206476 0.10518858 2.76700002 1.453409251e-38
0.22352572 0.10518858 2.76700002 1.517801858e-38
0.22528 0.10532571 2.76800001 1.481354786e-38
0.22674286 0.10532571 2.76800001 1.444478355e-38
0.2288 0.10560001 2.77000004 1.444443743e-38
0.23026668 0.10560001 2.77000004 1.444477375e-38
0.23173334 0.10560001 2.77000004 1.453730569e-38
0.23380572 0.10587429 2.77200001 1.471918021e-38
0.23527619 0.10587429 2.77200001 1.44411598e-38
0.23705335 0.10601144 2.77300006 1.425822589e-38
0.23914286 0.10628572 2.77500004 1.453769945e-38
0.24061905 0.10628572 2.77500004 1.4813915e-38
0.24209525 0.10628572 2.77500004 1.426396981e-38
0.24357145 0.10628572 2.77500004 1.380479793e-38
0.24504763 0.10628572 2.77500004 1.380480494e-38
0.24716 0.10656 2.77700001 1.38962775e-38
0.24863999 0.10656 2.77700001 1.325306749e-38
0.2507638 0.10683429 2.77900004 1.270206292e-38
0.25257143 0.10697144 2.78000003 1.362042769e-38
0.25470859 0.10724572 2.78200006 1.453840431e-38
0.25619811 0.10724572 2.78200006 1.426252087e-38
0.25768763 0.10724572 2.78200006 1.398702419e-38
0.25917715 0.10724572 2.78200006 1.398775006e-38
0.26066667 0.10724572 2.78200006 1.407922542e-38
0.26215622 0.10724572 2.78200006 1.389555443e-38
0.26432002 0.10752 2.78400004 1.380337281e-38
0.26581332 0.10752 2.78400004 1.426256291e-38
0.26867047 0.10806858 2.78800005 1.481284441e-38
0.27017143 0.10806858 2.78800005 1.444297868e-38
0.27201715 0.10820572 2.78900003 1.416854138e-38
0.27352002 0.10820572 2.78900003 1.398522212e-38
0.27502286 0.10820572 2.78900003 1.3802284e-38
0.27652574 0.10820572 2.78900003 1.371118279e-38
0.27802858 0.10820572 2.78900003 1.361933608e-38
0.28024 0.10848 2.79100001 1.37115205e-38
0.28103429 0.10820572 2.78900003 1.389447123e-38
0.28325334 0.10848 2.79100001 1.389231463e-38
0.28476 0.10848 2.79100001 1.398631373e-38
0.28626668 0.10848 2.79100001 1.389520831e-38
0.28922856 0.10902857 2.79500002 1.389376918e-38
