# .PCD v0.7 - Point Cloud Data file format
VERSION 0.7
FIELDS x y z rgb
SIZE 4 4 4 4
TYPE F F F F
COUNT 1 1 1 1
WIDTH 966
HEIGHT 1
VIEWPOINT 0 0 0 1 0 0 0
POINTS 966
DATA ascii
0.22089143 1.979520001 0.76800001 1.545641315e-38
0.22206476 1.979546666 0.76700002 1.536493358e-38
0.22352572 1.979546666 0.76700002 1.527309248e-38
0.22498667 1.979546666 0.76700002 1.508977601e-38
0.22644763 1.979546666 0.76700002 1.499758739e-38
0.22790857 1.979546666 0.76700002 1.481356467e-38
0.22936954 1.979546666 0.76700002 1.472317251e-38
0.23083048 1.979546666 0.76700002 1.426472231e-38
0.23229143 1.979546666 0.76700002 1.389772784e-38
0.23375238 1.979546666 0.76700002 1.444801215e-38
0.23521332 1.979546666 0.76700002 1.499830345e-38
0.23667429 1.979546666 0.76700002 1.481391079e-38
0.23844571 1.979520001 0.76800001 1.462950972e-38
0.23959619 1.979546666 0.76700002 1.435614302e-38
0.24105714 1.979546666 0.76700002 1.408065335e-38
0.2425181 1.979546666 0.76700002 1.426469849e-38
0.24397905 1.979546666 0.76700002 1.444910096e-38
0.24544001 1.979546666 0.76700002 1.472569765e-38
0.24690095 1.979546666 0.76700002 1.500117892e-38
0.2483619 1.979546666 0.76700002 1.500186976e-38
0.24917144 1.979599997 0.76500005 1.500153345e-38
0.25062856 1.979599997 0.76500005 1.500119854e-38
0.25208572 1.979599997 0.76500005 1.500118452e-38
0.25354287 1.979599997 0.76500005 1.500117051e-38
0.25500003 1.979599997 0.76500005 1.500116631e-38
0.25712761 1.979546666 0.76700002 1.5092999e-38
0.25858858 1.979546666 0.76700002 1.51848331e-38
0.26004952 1.979546666 0.76700002 1.518483169e-38
0.26082858 1.979599997 0.76500005 1.518447997e-38
0.26228574 1.979599997 0.76500005 1.527632387e-38
0.26374286 1.979599997 0.76500005 1.546000467e-38
0.26520002 1.979599997 0.76500005 1.546001448e-38
0.26665717 1.979599997 0.76500005 1.555075977e-38
0.2681143 1.979599997 0.76500005 1.564437491e-38
0.26957145 1.979599997 0.76500005 1.573549154e-38
0.27102858 1.979599997 0.76500005 1.545962632e-38
0.27248573 1.979599997 0.76500005 1.527558959e-38
0.27394286 1.979599997 0.76500005 1.500079356e-38
0.27540001 1.979599997 0.76500005 1.472422349e-38
0.27685714 1.979599997 0.76500005 1.518377231e-38
0.27831429 1.979599997 0.76500005 1.573443076e-38
0.27977145 1.979599997 0.76500005 1.582627046e-38
0.28196383 1.979546666 0.76700002 1.591846469e-38
0.28342476 1.979546666 0.76700002 1.564331693e-38
0.28525713 1.979520001 0.76800001 1.545928441e-38
0.28672001 1.979520001 0.76800001 1.527561201e-38
0.28893334 1.979466666 0.77000004 1.518342059e-38
0.2904 1.979466666 0.77000004 1.509230536e-38
0.29262477 1.979413332 0.77200001 1.500118593e-38
0.29447621 1.979386667 0.77300006 1.491006649e-38
0.29747999 1.979280001 0.77700001 1.491078396e-38
0.29972953 1.979226667 0.77900004 1.518808411e-38
0.30237335 1.979146665 0.78200006 1.546287734e-38
0.30386287 1.979146665 0.78200006 1.537068731e-38
0.30535239 1.979146665 0.78200006 1.527886022e-38
0.30762669 1.979093332 0.78400004 1.555437652e-38
0.30912003 1.979093332 0.78400004 1.5829869e-38
0.31140572 1.979040001 0.78600001 1.54635906e-38
0.31369907 1.978986666 0.78800005 1.509516541e-38
0.31560001 1.97896 0.78900003 1.481606459e-38
0.31790668 1.978906667 0.79100001 1.463418726e-38
0.31941333 1.978906667 0.79100001 1.43590395e-38
0.32173145 1.978853334 0.79300004 1.417464964e-38
0.32405716 1.978800001 0.79500002 1.371511203e-38
0.32557142 1.978800001 0.79500002 1.32563185e-38
0.15224572 1.981502857 0.74700004 1.12265601e-38
0.15366857 1.981502857 0.74700004 1.140736404e-38
0.15467621 1.981552381 0.74500006 1.168108387e-38
0.15609525 1.981552381 0.74500006 1.223497511e-38
0.1575143 1.981552381 0.74500006 1.278634402e-38
0.15893336 1.981552381 0.74500006 1.352317898e-38
0.16035239 1.981552381 0.74500006 1.425715389e-38
0.16177145 1.981552381 0.74500006 1.425680357e-38
0.1631905 1.981552381 0.74500006 1.434863766e-38
0.16460954 1.981552381 0.74500006 1.462414275e-38
0.16647428 1.981502857 0.74700004 1.499041414e-38
0.16789715 1.981502857 0.74700004 1.480746622e-38
0.16932 1.981502857 0.74700004 1.46266735e-38
0.17074287 1.981502857 0.74700004 1.472031106e-38
0.1723962 1.981478095 0.74800003 1.481356467e-38
0.17382096 1.981478095 0.74800003 1.499721885e-38
0.17524572 1.981478095 0.74800003 1.518124437e-38
0.17714287 1.981428569 0.75000006 1.490609381e-38
0.17857145 1.981428569 0.75000006 1.46313132e-38
0.18048 1.981379047 0.75200003 1.47231571e-38
0.18191239 1.981379047 0.75200003 1.481498979e-38
0.18358858 1.981354285 0.75300002 1.472351163e-38
0.18502286 1.981354285 0.75300002 1.46323922e-38
0.18645714 1.981354285 0.75300002 1.472315009e-38
0.18789144 1.981354285 0.75300002 1.490610362e-38
0.18982857 1.981304761 0.75500005 1.472028023e-38
0.19152001 1.981279999 0.75600004 1.462628534e-38
0.19347048 1.981230477 0.75800002 1.434969705e-38
0.19620001 1.981106665 0.76300001 1.407347309e-38
0.19713524 1.981156189 0.76100004 1.388729097e-38
0.19858477 1.981156189 0.76100004 1.370144937e-38
0.20055999 1.981106665 0.76300001 1.323938521e-38
0.20148382 1.981156189 0.76100004 1.277772183e-38
0.20293334 1.981156189 0.76100004 1.269237014e-38
0.20438287 1.981156189 0.76100004 1.26963134e-38
0.20583239 1.981156189 0.76100004 1.315764187e-38
0.20728192 1.981156189 0.76100004 1.361897875e-38
0.20873144 1.981156189 0.76100004 1.435510606e-38
0.21018097 1.981156189 0.76100004 1.509157808e-38
0.21163048 1.981156189 0.76100004 1.527273234e-38
0.21364 1.981106665 0.76300001 1.545566065e-38
0.21509334 1.981106665 0.76300001 1.582297881e-38
0.2171143 1.981057141 0.76500005 1.619070755e-38
0.21857144 1.981057141 0.76500005 1.591523049e-38
0.21945333 1.981106665 0.76300001 1.563972541e-38
0.22148572 1.981057141 0.76500005 1.554860878e-38
0.22294286 1.981057141 0.76500005 1.545892427e-38
0.22440001 1.981057141 0.76500005 1.527417708e-38
0.22585715 1.981057141 0.76500005 1.518233738e-38
0.22790857 1.981007619 0.76700002 1.499866359e-38
0.22877143 1.981057141 0.76500005 1.490719103e-38
0.23083048 1.981007619 0.76700002 1.463168874e-38
0.23229143 1.981007619 0.76700002 1.435689692e-38
0.23375238 1.981007619 0.76700002 1.481571426e-38
0.23521332 1.981007619 0.76700002 1.536672304e-38
0.23667429 1.981007619 0.76700002 1.499722445e-38
0.23813525 1.981007619 0.76700002 1.472134382e-38
0.23959619 1.981007619 0.76700002 1.444653938e-38
0.24105714 1.981007619 0.76700002 1.426396561e-38
0.2425181 1.981007619 0.76700002 1.435582212e-38
0.24397905 1.981007619 0.76700002 1.444766042e-38
0.2448 1.981057141 0.76500005 1.463205168e-38
0.24625714 1.981057141 0.76500005 1.481677084e-38
0.2477143 1.981057141 0.76500005 1.481674422e-38
0.24917144 1.981057141 0.76500005 1.490862316e-38
0.25062856 1.981057141 0.76500005 1.481611504e-38
0.25208572 1.981057141 0.76500005 1.481573528e-38
0.25288001 1.981106665 0.76300001 1.481535693e-38
0.25500003 1.981057141 0.76500005 1.490719523e-38
0.25712761 1.981007619 0.76700002 1.499939366e-38
0.25858858 1.981007619 0.76700002 1.50915977e-38
0.26004952 1.981007619 0.76700002 1.518344441e-38
0.26082858 1.981057141 0.76500005 1.536746432e-38
0.26159999 1.981106665 0.76300001 1.536817338e-38
0.26305333 1.981106665 0.76300001 1.546037742e-38
0.26450667 1.981106665 0.76300001 1.545967116e-38
0.26665717 1.981057141 0.76500005 1.555112831e-38
0.26741332 1.981106665 0.76300001 1.573478109e-38
0.26886666 1.981106665 0.76300001 1.582661378e-38
0.27102858 1.981057141 0.76500005 1.555074576e-38
0.27248573 1.981057141 0.76500005 1.536672164e-38
0.27394286 1.981057141 0.76500005 1.527560921e-38
0.27540001 1.981057141 0.76500005 1.518377652e-38
0.27685714 1.981057141 0.76500005 1.545928581e-38
0.27831429 1.981057141 0.76500005 1.58266334e-38
0.27977145 1.981057141 0.76500005 1.59184759e-38
0.28196383 1.981007619 0.76700002 1.601030579e-38
0.28342476 1.981007619 0.76700002 1.582662919e-38
0.2848857 1.981007619 0.76700002 1.56429568e-38
0.28672001 1.980982857 0.76800001 1.545892708e-38
0.28893334 1.980933333 0.77000004 1.536709158e-38
0.2904 1.980933333 0.77000004 1.527561622e-38
0.29262477 1.980883809 0.77200001 1.518448838e-38
0.29447621 1.980859047 0.77300006 1.481749672e-38
0.29747999 1.980760001 0.77700001 1.445052467e-38
0.29972953 1.980710475 0.77900004 1.509338436e-38
0.30160001 1.980685715 0.78000003 1.564475887e-38
0.30386287 1.980636191 0.78200006 1.546180955e-38
0.30535239 1.980636191 0.78200006 1.528245595e-38
0.30684191 1.980636191 0.78200006 1.527780645e-38
0.30912003 1.980586667 0.78400004 1.527886162e-38
0.31140572 1.980537143 0.78600001 1.518736524e-38
0.31369907 1.980487619 0.78800005 1.509624161e-38
0.31520003 1.980487619 0.78800005 1.481965331e-38
0.31710285 1.980462857 0.78900003 1.463526486e-38
0.31941333 1.980413334 0.79100001 1.435940104e-38
0.32091999 1.980413334 0.79100001 1.417464124e-38
0.32242668 1.980413334 0.79100001 1.39906003e-38
0.32475239 1.980363809 0.79300004 1.380660141e-38
0.32626286 1.980363809 0.79300004 1.343893292e-38
0.15325716 1.982971428 0.74500006 1.113113167e-38
0.15467621 1.982971428 0.74500006 1.113042262e-38
0.15609525 1.982971428 0.74500006 1.168323766e-38
0.1575143 1.982971428 0.74500006 1.223532544e-38
0.15893336 1.982971428 0.74500006 1.333986112e-38
0.16035239 1.982971428 0.74500006 1.444117801e-38
0.16177145 1.982971428 0.74500006 1.42571553e-38
0.1631905 1.982971428 0.74500006 1.416496247e-38
0.16460954 1.982971428 0.74500006 1.471597825e-38
0.16602859 1.982971428 0.74500006 1.526699683e-38
0.16744764 1.982971428 0.74500006 1.489966045e-38
0.16932 1.982925713 0.74700004 1.462595463e-38
0.17074287 1.982925713 0.74700004 1.472102572e-38
0.17216572 1.982925713 0.74700004 1.481428214e-38
0.17358857 1.982925713 0.74700004 1.490646235e-38
0.17524572 1.982902858 0.74800003 1.508977321e-38
0.17667049 1.982902858 0.74800003 1.490681968e-38
0.17809524 1.982902858 0.74800003 1.481498979e-38
0.18000001 1.982857142 0.75000006 1.490790849e-38
0.18142858 1.982857142 0.75000006 1.509121935e-38
0.18334477 1.982811429 0.75200003 1.518413105e-38
0.18477714 1.982811429 0.75200003 1.527524908e-38
0.18645714 1.98278857 0.75300002 1.518377091e-38
0.18789144 1.98278857 0.75300002 1.518376671e-38
0.18932572 1.98278857 0.75300002 1.509192841e-38
0.19126669 1.982742857 0.75500005 1.499829645e-38
0.19270477 1.982742857 0.75500005 1.481283039e-38
0.19491428 1.982674284 0.75800002 1.462951393e-38
0.1968762 1.982628571 0.76000005 1.44465562e-38
0.19832383 1.982628571 0.76000005 1.426144047e-38
0.20003429 1.982605714 0.76100004 1.352531316e-38
0.20148382 1.982605714 0.76100004 1.287422085e-38
0.20266668 1.982628571 0.76000005 1.232141981e-38
0.20411429 1.982628571 0.76000005 1.177650389e-38
0.20556192 1.982628571 0.76000005 1.232536447e-38
0.20700954 1.982628571 0.76000005 1.297002342e-38
0.20845716 1.982628571 0.76000005 1.398238309e-38
0.20990478 1.982628571 0.76000005 1.499472454e-38
0.21135239 1.982628571 0.76000005 1.518090666e-38
0.21308 1.982605714 0.76100004 1.536385598e-38
0.21452953 1.982605714 0.76100004 1.591486475e-38
0.21597905 1.982605714 0.76100004 1.655879363e-38
0.21742858 1.982605714 0.76100004 1.619253204e-38
0.21887811 1.982605714 0.76100004 1.582447119e-38
0.22032763 1.982605714 0.76100004 1.573227556e-38
0.22236 1.982559999 0.76300001 1.56418736e-38
0.22381333 1.982559999 0.76300001 1.55500367e-38
0.22585715 1.982514285 0.76500005 1.545748094e-38
0.22731429 1.982514285 0.76500005 1.527344841e-38
0.22877143 1.982514285 0.76500005 1.509014175e-38
0.23022859 1.982514285 0.76500005 1.490719243e-38
0.23168573 1.982514285 0.76500005 1.481500241e-38
0.23314287 1.982514285 0.76500005 1.527382396e-38
0.23460001 1.982514285 0.76500005 1.582411386e-38
0.23605716 1.982514285 0.76500005 1.527237782e-38
0.2375143 1.982514285 0.76500005 1.481319193e-38
0.23897144 1.982514285 0.76500005 1.462951253e-38
0.24042858 1.982514285 0.76500005 1.453768544e-38
0.24188572 1.982514285 0.76500005 1.453769385e-38
0.24334286 1.982514285 0.76500005 1.453913438e-38
0.2448 1.982514285 0.76500005 1.463169295e-38
0.24625714 1.982514285 0.76500005 1.47231543e-38
0.2477143 1.982514285 0.76500005 1.472278015e-38
0.24852002 1.982559999 0.76300001 1.4815001e-38
0.24997334 1.982559999 0.76300001 1.472354946e-38
0.25076762 1.982605714 0.76100004 1.472389278e-38
0.25221714 1.982605714 0.76100004 1.472244384e-38
0.25366667 1.982605714 0.76100004 1.481535833e-38
0.25578666 1.982559999 0.76300001 1.490719803e-38
0.25656572 1.982605714 0.76100004 1.509195223e-38
0.25801525 1.982605714 0.76100004 1.527563023e-38
0.25946477 1.982605714 0.76100004 1.555148844e-38
0.2609143 1.982605714 0.76100004 1.546036481e-38
0.26236382 1.982605714 0.76100004 1.546037041e-38
0.26450667 1.982559999 0.76300001 1.555113532e-38
0.26595998 1.982559999 0.76300001 1.564259667e-38
0.26741332 1.982559999 0.76300001 1.582589491e-38
0.26886666 1.982559999 0.76300001 1.60095631e-38
0.27102858 1.982514285 0.76500005 1.573441254e-38
0.27177334 1.982559999 0.76300001 1.545891306e-38
0.27322668 1.982559999 0.76300001 1.55511157e-38
0.27467999 1.982559999 0.76300001 1.564331413e-38
0.27613333 1.982559999 0.76300001 1.573551256e-38
0.27758667 1.982559999 0.76300001 1.591883603e-38
0.27977145 1.982514285 0.76500005 1.600960794e-38
0.28122857 1.982514285 0.76500005 1.610286576e-38
0.28268573 1.982514285 0.76500005 1.591989962e-38
0.2848857 1.982468572 0.76700002 1.582698512e-38
0.28672001 1.982445715 0.76800001 1.573407203e-38
0.28818285 1.982445715 0.76800001 1.564223793e-38
0.2904 1.982399998 0.77000004 1.545892708e-38
0.29262477 1.982354285 0.77200001 1.536708738e-38
0.29523808 1.982285714 0.77500004 1.47242347e-38
0.29671431 1.982285714 0.77500004 1.40821121e-38
0.29972953 1.982194284 0.77900004 1.500119293e-38
0.30160001 1.982171427 0.78000003 1.592026676e-38
0.30308574 1.982171427 0.78000003 1.555328491e-38
0.30457145 1.982171427 0.78000003 1.527706796e-38
0.30684191 1.982125713 0.78200006 1.500120975e-38
0.30833143 1.982125713 0.78200006 1.481788628e-38
0.31061333 1.982079998 0.78400004 1.491042803e-38
0.31290287 1.982034286 0.78600001 1.509445635e-38
0.31520003 1.981988572 0.78800005 1.491150142e-38
0.31670097 1.981988572 0.78800005 1.472711297e-38
0.31860572 1.981965713 0.78900003 1.445160648e-38
0.32010859 1.981965713 0.78900003 1.417501678e-38
0.32242668 1.981919998 0.79100001 1.426648654e-38
0.32393333 1.981919998 0.79100001 1.435798012e-38
0.32543999 1.981919998 0.79100001 1.399029622e-38
0.32984003 1.981759999 0.79800004 1.36225927e-38
0.33219048 1.981714286 0.80000001 1.334600721e-38
0.33371428 1.981714286 0.80000001 1.307159654e-38
0.3360762 1.981668571 0.80200005 1.307305109e-38
0.33760381 1.981668571 0.80200005 1.30806153e-38
0.33913144 1.981668571 0.80200005 1.318037373e-38
0.15325716 1.984390475 0.74500006 1.067266325e-38
0.15467621 1.984390475 0.74500006 1.030245981e-38
0.15609525 1.984390475 0.74500006 1.094711176e-38
0.1575143 1.984390475 0.74500006 1.150063586e-38
0.15893336 1.984390475 0.74500006 1.214240814e-38
0.16035239 1.984390475 0.74500006 1.278418742e-38
0.16177145 1.984390475 0.74500006 1.315261261e-38
0.1631905 1.984390475 0.74500006 1.3521035e-38
0.16460954 1.984390475 0.74500006 1.388802385e-38
0.16602859 1.984390475 0.74500006 1.425537144e-38
0.16744764 1.984390475 0.74500006 1.425717211e-38
0.16886668 1.984390475 0.74500006 1.425825391e-38
0.17028573 1.984390475 0.74500006 1.444480037e-38
0.17216572 1.984348571 0.74700004 1.463133001e-38
0.17358857 1.984348571 0.74700004 1.490646656e-38
0.17501144 1.984348571 0.74700004 1.527345121e-38
0.17643429 1.984348571 0.74700004 1.509049908e-38
0.17809524 1.984327618 0.74800003 1.49068323e-38
0.17952 1.984327618 0.74800003 1.499903073e-38
0.18142858 1.984285712 0.75000006 1.518306185e-38
0.18334477 1.984243808 0.75200003 1.527525748e-38
0.18477714 1.984243808 0.75200003 1.545856974e-38
0.18620953 1.984243808 0.75200003 1.536673425e-38
0.18789144 1.984222857 0.75300002 1.536708457e-38
0.18932572 1.984222857 0.75300002 1.518233038e-38
0.19076 1.984222857 0.75300002 1.508977882e-38
0.19219428 1.984222857 0.75300002 1.499651119e-38
0.19414288 1.984180951 0.75500005 1.490502602e-38
0.19558096 1.984180951 0.75500005 1.481354085e-38
0.19728 1.98416 0.75600004 1.472206409e-38
0.19924572 1.984118095 0.75800002 1.462915239e-38
0.20121905 1.984076189 0.76000005 1.462411613e-38
0.20266668 1.984076189 0.76000005 1.416384984e-38
0.20411429 1.984076189 0.76000005 1.379543166e-38
0.20556192 1.984076189 0.76000005 1.324334248e-38
0.20700954 1.984076189 0.76000005 1.269450712e-38
0.20845716 1.984076189 0.76000005 1.343065265e-38
0.20990478 1.984076189 0.76000005 1.425896998e-38
0.21135239 1.984076189 0.76000005 1.46277511e-38
0.21280001 1.984076189 0.76000005 1.499690216e-38
0.21424764 1.984076189 0.76000005 1.554900815e-38
0.21569525 1.984076189 0.76000005 1.610143503e-38
0.21714287 1.984076189 0.76000005 1.591702696e-38
0.2185905 1.984076189 0.76000005 1.582482853e-38
0.2200381 1.984076189 0.76000005 1.582482432e-38
0.22177716 1.984055238 0.76100004 1.582518165e-38
0.22322668 1.984055238 0.76100004 1.573298602e-38
0.22526667 1.984013334 0.76300001 1.564114772e-38
0.22671999 1.984013334 0.76300001 1.54571166e-38
0.22877143 1.983971426 0.76500005 1.527345121e-38
0.23022859 1.983971426 0.76500005 1.509014456e-38
0.23168573 1.983971426 0.76500005 1.49068407e-38
0.23253334 1.984013334 0.76300001 1.508980404e-38
0.23398668 1.984013334 0.76300001 1.536422733e-38
0.23482287 1.984055238 0.76100004 1.499687833e-38
0.23627239 1.984055238 0.76100004 1.472172778e-38
0.23772192 1.984055238 0.76100004 1.453805538e-38
0.23917143 1.984055238 0.76100004 1.444693315e-38
0.24062096 1.984055238 0.76100004 1.444692894e-38
0.24207048 1.984055238 0.76100004 1.444729608e-38
0.24352001 1.984055238 0.76100004 1.453950012e-38
0.24496953 1.984055238 0.76100004 1.472388437e-38
0.24641907 1.984055238 0.76100004 1.472388157e-38
0.2478686 1.984055238 0.76100004 1.481572407e-38
0.24931812 1.984055238 0.76100004 1.472389699e-38
0.25076762 1.984055238 0.76100004 1.472388718e-38
0.25188571 1.984076189 0.76000005 1.463168314e-38
0.25333336 1.984076189 0.76000005 1.454092664e-38
0.25511619 1.984055238 0.76100004 1.481643733e-38
0.25656572 1.984055238 0.76100004 1.509230676e-38
0.25801525 1.984055238 0.76100004 1.527562322e-38
0.25946477 1.984055238 0.76100004 1.546000748e-38
0.2609143 1.984055238 0.76100004 1.536816778e-38
0.26236382 1.984055238 0.76100004 1.527669241e-38
0.26381335 1.984055238 0.76100004 1.536852931e-38
0.26595998 1.984013334 0.76300001 1.54603536e-38
0.26741332 1.984013334 0.76300001 1.564473084e-38
0.26886666 1.984013334 0.76300001 1.58291165e-38
0.27102858 1.983971426 0.76500005 1.536957888e-38
0.27177334 1.984013334 0.76300001 1.500188657e-38
0.27322668 1.984013334 0.76300001 1.527704414e-38
0.27467999 1.984013334 0.76300001 1.5644033e-38
0.27613333 1.984013334 0.76300001 1.57358755e-38
0.27758667 1.984013334 0.76300001 1.591992204e-38
0.27904001 1.984013334 0.76300001 1.601177435e-38
0.28049335 1.984013334 0.76300001 1.619578446e-38
0.28268573 1.983971426 0.76500005 1.64709126e-38
0.28414285 1.983971426 0.76500005 1.683753291e-38
0.28634667 1.983929524 0.76700002 1.63779939e-38
0.28818285 1.983908571 0.76800001 1.601065331e-38
0.2896457 1.983908571 0.76800001 1.573479089e-38
0.29186669 1.983866666 0.77000004 1.545928441e-38
0.29447621 1.983803809 0.77300006 1.49079141e-38
0.29594859 1.983803809 0.77300006 1.444838349e-38
0.29819047 1.983761905 0.77500004 1.491043644e-38
0.30121335 1.983678095 0.77900004 1.546216688e-38
0.30308574 1.983657144 0.78000003 1.536961392e-38
0.30457145 1.983657144 0.78000003 1.527670222e-38
0.30605716 1.983657144 0.78000003 1.500155447e-38
0.30833143 1.983615236 0.78200006 1.48182394e-38
0.31061333 1.983573332 0.78400004 1.491043223e-38
0.31290287 1.983531429 0.78600001 1.500227053e-38
0.31520003 1.983489523 0.78800005 1.481932121e-38
0.31670097 1.983489523 0.78800005 1.472748431e-38
0.31820193 1.983489523 0.78800005 1.435978359e-38
0.32010859 1.98346857 0.78900003 1.399208007e-38
0.32161143 1.98346857 0.78900003 1.445089602e-38
0.32311431 1.98346857 0.78900003 1.50019118e-38
0.32543999 1.983426666 0.79100001 1.454130219e-38
0.32942668 1.983300952 0.79700005 1.408212751e-38
0.33136001 1.983279999 0.79800004 1.380662383e-38
0.33288002 1.983279999 0.79800004 1.353145785e-38
0.3352381 1.983238095 0.80000001 1.334776864e-38
0.33676192 1.983238095 0.80000001 1.325563187e-38
0.33997715 1.983154286 0.80400002 1.316887748e-38
0.34150857 1.983154286 0.80400002 1.317390814e-38
0.15325716 1.985809523 0.74500006 1.021455636e-38
0.15467621 1.985809523 0.74500006 9.569921234e-39
0.15609525 1.985809523 0.74500006 1.021098445e-38
0.1575143 1.985809523 0.74500006 1.085383152e-38
0.15893336 1.985809523 0.74500006 1.094602435e-38
0.16035239 1.985809523 0.74500006 1.113077715e-38
0.16177145 1.985809523 0.74500006 1.204878038e-38
0.1631905 1.985809523 0.74500006 1.296857448e-38
0.16460954 1.985809523 0.74500006 1.30650777e-38
0.16602859 1.985809523 0.74500006 1.324803823e-38
0.16744764 1.985809523 0.74500006 1.352319299e-38
0.16886668 1.985809523 0.74500006 1.389089932e-38
0.17028573 1.985809523 0.74500006 1.416892254e-38
0.17216572 1.985771428 0.74700004 1.453948751e-38
0.17358857 1.985771428 0.74700004 1.499937685e-38
0.17501144 1.985771428 0.74700004 1.54581984e-38
0.17643429 1.985771428 0.74700004 1.518233458e-38
0.17785716 1.985771428 0.74700004 1.499866639e-38
0.17952 1.98575238 0.74800003 1.509050469e-38
0.18094477 1.98575238 0.74800003 1.527453582e-38
0.18285716 1.985714285 0.75000006 1.545964314e-38
0.18428573 1.985714285 0.75000006 1.573408184e-38
0.1857143 1.985714285 0.75000006 1.564117715e-38
0.1876419 1.98567619 0.75200003 1.554897031e-38
0.18907429 1.98567619 0.75200003 1.536492657e-38
0.19076 1.985657142 0.75300002 1.518090385e-38
0.19219428 1.985657142 0.75300002 1.518055353e-38
0.19362858 1.985657142 0.75300002 1.518054512e-38
0.19558096 1.985619047 0.75500005 1.518089545e-38
0.19701906 1.985619047 0.75500005 1.527344701e-38
0.19872001 1.985599999 0.75600004 1.582481872e-38
0.20068952 1.985561905 0.75800002 1.637655056e-38
0.20266668 1.985523809 0.76000005 1.610176434e-38
0.20411429 1.985523809 0.76000005 1.582086565e-38
0.20502095 1.985561905 0.75800002 1.406952283e-38
0.20646477 1.985561905 0.75800002 1.241756991e-38
0.20790857 1.985561905 0.75800002 1.296357044e-38
0.20935239 1.985561905 0.75800002 1.352140494e-38
0.21079619 1.985561905 0.75800002 1.407421858e-38
0.21224 1.985561905 0.75800002 1.462954476e-38
0.21368381 1.985561905 0.75800002 1.509088444e-38
0.21512762 1.985561905 0.75800002 1.564081141e-38
0.21657144 1.985561905 0.75800002 1.573191963e-38
0.21801524 1.985561905 0.75800002 1.582411807e-38
0.21945906 1.985561905 0.75800002 1.591703396e-38
0.22090286 1.985561905 0.75800002 1.600814499e-38
0.22293335 1.985523809 0.76000005 1.591594375e-38
0.22438097 1.985523809 0.76000005 1.591629128e-38
0.22612572 1.985504761 0.76100004 1.564077498e-38
0.22757524 1.985504761 0.76100004 1.54571166e-38
0.22962667 1.985466667 0.76300001 1.518126259e-38
0.23108 1.985466667 0.76300001 1.49975972e-38
0.23253334 1.985466667 0.76300001 1.490576731e-38
0.23337334 1.985504761 0.76100004 1.490576311e-38
0.23482287 1.985504761 0.76100004 1.472208931e-38
0.23627239 1.985504761 0.76100004 1.463026082e-38
0.23740953 1.985523809 0.76000005 1.453843233e-38
0.23885716 1.985523809 0.76000005 1.444692894e-38
0.24030478 1.985523809 0.76000005 1.435542696e-38
0.24175239 1.985523809 0.76000005 1.435508504e-38
0.24320002 1.985523809 0.76000005 1.453841552e-38
0.24464762 1.985523809 0.76000005 1.472352004e-38
0.24609526 1.985523809 0.76000005 1.47242375e-38
0.24754287 1.985523809 0.76000005 1.481572127e-38
0.24899048 1.985523809 0.76000005 1.481608701e-38
0.25043812 1.985523809 0.76000005 1.481536814e-38
0.25188571 1.985523809 0.76000005 1.453950152e-38
0.25333336 1.985523809 0.76000005 1.435726546e-38
0.25511619 1.985504761 0.76100004 1.472532491e-38
0.25656572 1.985504761 0.76100004 1.509230536e-38
0.25801525 1.985504761 0.76100004 1.527561622e-38
0.25946477 1.985504761 0.76100004 1.545928301e-38
0.2609143 1.985504761 0.76100004 1.527560781e-38
0.26236382 1.985504761 0.76100004 1.518485412e-38
0.26381335 1.985504761 0.76100004 1.527669522e-38
0.26526284 1.985504761 0.76100004 1.536888104e-38
0.26671237 1.985504761 0.76100004 1.546142419e-38
0.26816192 1.985504761 0.76100004 1.564473505e-38
0.27032 1.985466667 0.76300001 1.509372067e-38
0.27106097 1.985504761 0.76100004 1.463419006e-38
0.27322668 1.985466667 0.76300001 1.509301582e-38
0.27467999 1.985466667 0.76300001 1.564475186e-38
0.27540955 1.985504761 0.76100004 1.573730903e-38
0.27685907 1.985504761 0.76100004 1.592062829e-38
0.27904001 1.985466667 0.76300001 1.610430629e-38
0.28049335 1.985466667 0.76300001 1.628760874e-38
0.28194666 1.985466667 0.76300001 1.702300037e-38
0.2834 1.985466667 0.76300001 1.78480807e-38
0.28560001 1.985428571 0.76500005 1.71130352e-38
0.28780761 1.985390476 0.76700002 1.646982799e-38
0.2896457 1.985371429 0.76800001 1.601065051e-38
0.29186669 1.985333333 0.77000004 1.564330712e-38
0.29409525 1.985295238 0.77200001 1.518412684e-38
0.29556569 1.985295238 0.77200001 1.481643733e-38
0.29819047 1.985238095 0.77500004 1.491151123e-38
0.30044001 1.9852 0.77700001 1.509447317e-38
0.30269718 1.985161904 0.77900004 1.518595834e-38
0.30457145 1.985142857 0.78000003 1.527778683e-38
0.30605716 1.985142857 0.78000003 1.509410743e-38
0.30833143 1.985104761 0.78200006 1.49100763e-38
0.31061333 1.985066666 0.78400004 1.491079237e-38
0.31290287 1.985028571 0.78600001 1.500263627e-38
0.31439999 1.985028571 0.78600001 1.481933242e-38
0.31670097 1.984990475 0.78800005 1.472749132e-38
0.31820193 1.984990475 0.78800005 1.426830823e-38
0.32010859 1.984971428 0.78900003 1.390060331e-38
0.32161143 1.984971428 0.78900003 1.472711857e-38
0.32311431 1.984971428 0.78900003 1.56451148e-38
0.32543999 1.984933333 0.79100001 1.509266689e-38
0.32777333 1.984895238 0.79300004 1.454165952e-38
0.33011428 1.984857143 0.79500002 1.426615724e-38
0.33246288 1.984819047 0.79700005 1.399063814e-38
0.33440003 1.984799999 0.79800004 1.371547777e-38
0.33676192 1.984761905 0.80000001 1.343927343e-38
0.33997715 1.984685714 0.80400002 1.32527536e-38
0.34150857 1.984685714 0.80400002 1.307124762e-38
0.34304002 1.984685714 0.80400002 1.233872865e-38
0.15467621 1.987228571 0.74500006 1.021527383e-38
0.15609525 1.987228571 0.74500006 1.039787563e-38
0.1575143 1.987228571 0.74500006 1.067266185e-38
0.15893336 1.987228571 0.74500006 1.039464143e-38
0.16035239 1.987228571 0.74500006 1.012057548e-38
0.16177145 1.987228571 0.74500006 1.067123673e-38
0.1631905 1.987228571 0.74500006 1.1314088e-38
0.16460954 1.987228571 0.74500006 1.168358519e-38
0.16602859 1.987228571 0.74500006 1.205308657e-38
0.16744764 1.987228571 0.74500006 1.251263119e-38
0.16886668 1.987228571 0.74500006 1.297253174e-38
0.17028573 1.987228571 0.74500006 1.352498666e-38
0.17216572 1.987194285 0.74700004 1.417249865e-38
0.17358857 1.987194285 0.74700004 1.453840571e-38
0.17501144 1.987194285 0.74700004 1.490431556e-38
0.17643429 1.987194285 0.74700004 1.49046771e-38
0.17785716 1.987194285 0.74700004 1.481320174e-38
0.17928 1.987194285 0.74700004 1.49068323e-38
0.18070287 1.987194285 0.74700004 1.499902793e-38
0.18236953 1.987177142 0.74800003 1.555075977e-38
0.18379429 1.987177142 0.74800003 1.600995266e-38
0.1857143 1.987142856 0.75000006 1.573338539e-38
0.18714286 1.987142856 0.75000006 1.554825985e-38
0.18907429 1.987108571 0.75200003 1.536421191e-38
0.19050668 1.987108571 0.75200003 1.527238903e-38
0.19193906 1.987108571 0.75200003 1.518092487e-38
0.19337143 1.987108571 0.75200003 1.50894397e-38
0.19506286 1.987091428 0.75300002 1.508979003e-38
0.19623619 1.987108571 0.75200003 1.518198285e-38
0.19793142 1.987091428 0.75300002 1.554968357e-38
0.19936571 1.987091428 0.75300002 1.591811857e-38
0.20133334 1.987057142 0.75500005 1.582629989e-38
0.20277144 1.987057142 0.75500005 1.573444197e-38
0.20448001 1.987039999 0.75600004 1.499363713e-38
0.20592001 1.987039999 0.75600004 1.425284911e-38
0.20736001 1.987039999 0.75600004 1.351851826e-38
0.2088 1.987039999 0.75600004 1.278420003e-38
0.21024001 1.987039999 0.75600004 1.361539143e-38
0.21168001 1.987039999 0.75600004 1.435438299e-38
0.21312001 1.987039999 0.75600004 1.490539877e-38
0.21512762 1.987005714 0.75800002 1.545641174e-38
0.21657144 1.987005714 0.75800002 1.554824864e-38
0.21801524 1.987005714 0.75800002 1.573193084e-38
0.21945906 1.987005714 0.75800002 1.591525572e-38
0.22090286 1.987005714 0.75800002 1.619039086e-38
0.22293335 1.986971428 0.76000005 1.600706599e-38
0.22438097 1.986971428 0.76000005 1.591628847e-38
0.22582857 1.986971428 0.76000005 1.573259926e-38
0.22727621 1.986971428 0.76000005 1.554894649e-38
0.22902477 1.986954285 0.76100004 1.527238202e-38
0.23108 1.98692 0.76300001 1.50883537e-38
0.23253334 1.98692 0.76300001 1.499723707e-38
0.23337334 1.986954285 0.76100004 1.490719523e-38
0.2345143 1.986971428 0.76000005 1.481392621e-38
0.23596191 1.986971428 0.76000005 1.472282359e-38
0.23740953 1.986971428 0.76000005 1.463136224e-38
0.23885716 1.986971428 0.76000005 1.454019657e-38
0.24030478 1.986971428 0.76000005 1.426392497e-38
0.24175239 1.986971428 0.76000005 1.398772624e-38
0.24320002 1.986971428 0.76000005 1.426361808e-38
0.24464762 1.986971428 0.76000005 1.46313202e-38
0.24609526 1.986971428 0.76000005 1.463168174e-38
0.24754287 1.986971428 0.76000005 1.463204748e-38
0.24899048 1.986971428 0.76000005 1.472388998e-38
0.25043812 1.986971428 0.76000005 1.490720784e-38
0.25188571 1.986971428 0.76000005 1.472426132e-38
0.25333336 1.986971428 0.76000005 1.454130359e-38
0.25478098 1.986971428 0.76000005 1.490900151e-38
0.25622857 1.986971428 0.76000005 1.527705255e-38
0.25767621 1.986971428 0.76000005 1.536816217e-38
0.25946477 1.986954285 0.76100004 1.555147023e-38
0.2609143 1.986954285 0.76100004 1.545999066e-38
0.26201907 1.986971428 0.76000005 1.54603592e-38
0.26381335 1.986954285 0.76100004 1.546108648e-38
0.26526284 1.986954285 0.76100004 1.546179693e-38
0.26671237 1.986954285 0.76100004 1.564510219e-38
0.26816192 1.986954285 0.76100004 1.583020671e-38
0.26961145 1.986954285 0.76100004 1.573801108e-38
0.27106097 1.986954285 0.76100004 1.564582105e-38
0.27322668 1.98692 0.76300001 1.573766075e-38
0.27396002 1.986954285 0.76100004 1.592133455e-38
0.27540955 1.986954285 0.76100004 1.592169749e-38
0.27685907 1.986954285 0.76100004 1.592205201e-38
0.27904001 1.98692 0.76300001 1.592097301e-38
0.28049335 1.98692 0.76300001 1.601173231e-38
0.28194666 1.98692 0.76300001 1.656310542e-38
0.2834 1.98692 0.76300001 1.720559096e-38
0.28560001 1.986885714 0.76500005 1.674605054e-38
0.28780761 1.986851428 0.76700002 1.628543673e-38
0.2896457 1.986834286 0.76800001 1.591845208e-38
0.29110858 1.986834286 0.76800001 1.555253942e-38
0.29409525 1.986765714 0.77200001 1.509264027e-38
0.29594859 1.986748571 0.77300006 1.472567243e-38
0.29819047 1.986714285 0.77500004 1.49100763e-38
0.29966667 1.986714285 0.77500004 1.518631707e-38
0.30192 1.98668 0.77700001 1.518633389e-38
0.30418095 1.986645713 0.77900004 1.527923017e-38
0.30605716 1.986628571 0.78000003 1.500263207e-38
0.30754286 1.986628571 0.78000003 1.481824221e-38
0.30982095 1.986594285 0.78200006 1.481860094e-38
0.31210667 1.98656 0.78400004 1.491080778e-38
0.31439999 1.986525713 0.78600001 1.481934363e-38
0.31670097 1.986491428 0.78800005 1.472821439e-38
0.31820193 1.986491428 0.78800005 1.445198062e-38
0.32010859 1.986474285 0.78900003 1.417646853e-38
0.32161143 1.986474285 0.78900003 1.47274773e-38
0.32311431 1.986474285 0.78900003 1.518665198e-38
0.32461715 1.986474285 0.78900003 1.491042523e-38
0.32694668 1.98644 0.79100001 1.454273151e-38
0.32928383 1.986405713 0.79300004 1.445126176e-38
0.3307943 1.986405713 0.79300004 1.445197081e-38
0.33398098 1.986337142 0.79700005 1.417538112e-38
0.33592001 1.98632 0.79800004 1.389878162e-38
0.33828571 1.986285714 0.80000001 1.371473508e-38
0.33980954 1.986285714 0.80000001 1.362255627e-38
0.34133333 1.986285714 0.80000001 1.297972461e-38
0.1575143 1.988647618 0.74500006 1.049257398e-38
0.15893336 1.988647618 0.74500006 9.751431424e-39
0.16035239 1.988647618 0.74500006 9.109304619e-39
0.16177145 1.988647618 0.74500006 9.386251643e-39
0.1631905 1.988647618 0.74500006 9.752880366e-39
0.16460954 1.988647618 0.74500006 1.030318148e-38
0.16602859 1.988647618 0.74500006 1.094747189e-38
0.16744764 1.988647618 0.74500006 1.1504233e-38
0.16886668 1.988647618 0.74500006 1.214672414e-38
0.17028573 1.988647618 0.74500006 1.297288767e-38
0.17170477 1.988647618 0.74500006 1.380084347e-38
0.17358857 1.988617143 0.74700004 1.407814362e-38
0.17501144 1.988617143 0.74700004 1.444548841e-38
0.17643429 1.988617143 0.74700004 1.453732811e-38
0.17785716 1.988617143 0.74700004 1.472171937e-38
0.17928 1.988617143 0.74700004 1.47231571e-38
0.18070287 1.988617143 0.74700004 1.481535133e-38
0.18212572 1.988617143 0.74700004 1.555075416e-38
0.18379429 1.988601904 0.74800003 1.637692611e-38
0.18521905 1.988601904 0.74800003 1.591775984e-38
0.18664382 1.988601904 0.74800003 1.554932904e-38
0.18806857 1.988601904 0.74800003 1.545784107e-38
0.19000001 1.988571428 0.75000006 1.536529652e-38
0.19142859 1.988571428 0.75000006 1.51812738e-38
0.19285716 1.988571428 0.75000006 1.499795874e-38
0.19428572 1.988571428 0.75000006 1.4998672e-38
0.19623619 1.988540952 0.75200003 1.509050889e-38
0.19793142 1.988525714 0.75300002 1.527454002e-38
0.19936571 1.988525714 0.75300002 1.545893268e-38
0.2008 1.988525714 0.75300002 1.555148985e-38
0.20277144 1.988495237 0.75500005 1.564259106e-38
0.20366858 1.988525714 0.75300002 1.582983116e-38
0.20592001 1.98848 0.75600004 1.609886926e-38
0.20708573 1.988495237 0.75500005 1.407238008e-38
0.2088 1.98848 0.75600004 1.214528641e-38
0.21024001 1.98848 0.75600004 1.315692861e-38
0.21168001 1.98848 0.75600004 1.416927426e-38
0.21312001 1.98848 0.75600004 1.472172637e-38
0.21456 1.98848 0.75600004 1.527274075e-38
0.21600002 1.98848 0.75600004 1.545784808e-38
0.21744001 1.98848 0.75600004 1.573156651e-38
0.21945906 1.988449523 0.75800002 1.600671847e-38
0.22090286 1.988449523 0.75800002 1.637405345e-38
0.22234666 1.988449523 0.75800002 1.619037405e-38
0.22379048 1.988449523 0.75800002 1.600813518e-38
0.22582857 1.988419047 0.76000005 1.582446279e-38
0.22727621 1.988419047 0.76000005 1.56407974e-38
0.22872382 1.988419047 0.76000005 1.536386299e-38
0.23017144 1.988419047 0.76000005 1.51801948e-38
0.23192382 1.988403809 0.76100004 1.508907957e-38
0.23306668 1.988419047 0.76000005 1.499759159e-38
0.2345143 1.988419047 0.76000005 1.490610502e-38
0.23596191 1.988419047 0.76000005 1.49068365e-38
0.23740953 1.988419047 0.76000005 1.472389699e-38
0.23885716 1.988419047 0.76000005 1.463203346e-38
0.24030478 1.988419047 0.76000005 1.408135119e-38
0.24175239 1.988419047 0.76000005 1.362183039e-38
0.24256 1.988449523 0.75800002 1.408066596e-38
0.24464762 1.988419047 0.76000005 1.4631323e-38
0.24609526 1.988419047 0.76000005 1.453949031e-38
0.24754287 1.988419047 0.76000005 1.444802055e-38
0.24899048 1.988419047 0.76000005 1.472389138e-38
0.25043812 1.988419047 0.76000005 1.509196064e-38
0.25188571 1.988419047 0.76000005 1.490937705e-38
0.25266668 1.988449523 0.75800002 1.481753175e-38
0.25478098 1.988419047 0.76000005 1.509302983e-38
0.25622857 1.988419047 0.76000005 1.546072494e-38
0.25767621 1.988419047 0.76000005 1.55532737e-38
0.25912383 1.988419047 0.76000005 1.564439033e-38
0.26057142 1.988419047 0.76000005 1.573586569e-38
0.26201907 1.988419047 0.76000005 1.582806973e-38
0.26346669 1.988419047 0.76000005 1.564656234e-38
0.26491427 1.988419047 0.76000005 1.555364084e-38
0.26636192 1.988419047 0.76000005 1.573694329e-38
0.26780954 1.988419047 0.76000005 1.601352457e-38
0.26961145 1.988403809 0.76100004 1.638158122e-38
0.27106097 1.988403809 0.76100004 1.674820574e-38
0.2725105 1.988403809 0.76100004 1.647234192e-38
0.27396002 1.988403809 0.76100004 1.61964795e-38
0.27540955 1.988403809 0.76100004 1.61067992e-38
0.27685907 1.988403809 0.76100004 1.601351897e-38
0.27830857 1.988403809 0.76100004 1.582947943e-38
0.2797581 1.988403809 0.76100004 1.573621882e-38
0.28120762 1.988403809 0.76100004 1.610464821e-38
0.2834 1.988373334 0.76300001 1.65627537e-38
0.28485334 1.988373334 0.76300001 1.628725141e-38
0.28705713 1.988342857 0.76500005 1.610249441e-38
0.28926855 1.98831238 0.76700002 1.573478529e-38
0.29110858 1.988297143 0.76800001 1.545926479e-38
0.29409525 1.988236191 0.77200001 1.50000747e-38
0.29594859 1.988220952 0.77300006 1.463382993e-38
0.29742098 1.988220952 0.77300006 1.49090001e-38
0.29966667 1.988190476 0.77500004 1.52774295e-38
0.30192 1.98816 0.77700001 1.527851831e-38
0.30418095 1.988129524 0.77900004 1.527850569e-38
0.30566478 1.988129524 0.77900004 1.5002988e-38
0.30754286 1.988114285 0.78000003 1.472675704e-38
0.30982095 1.988083809 0.78200006 1.481822679e-38
0.31210667 1.988053333 0.78400004 1.491079237e-38
0.31439999 1.988022857 0.78600001 1.481932821e-38
0.31589717 1.988022857 0.78600001 1.481932261e-38
0.31820193 1.987992381 0.78800005 1.463564741e-38
0.31970286 1.987992381 0.78800005 1.454380631e-38
0.32161143 1.987977142 0.78900003 1.463635507e-38
0.32311431 1.987977142 0.78900003 1.481966873e-38
0.32461715 1.987977142 0.78900003 1.47274773e-38
0.32694668 1.987946667 0.79100001 1.463564881e-38
0.32845333 1.987946667 0.79100001 1.472785145e-38
0.3307943 1.98791619 0.79300004 1.491150983e-38
0.33314288 1.987885715 0.79500002 1.463635086e-38
0.33549905 1.987855238 0.79700005 1.435975837e-38
0.33701715 1.987855238 0.79700005 1.4267197e-38
0.33896002 1.98784 0.79800004 1.417500978e-38
0.34048003 1.98784 0.79800004 1.362364648e-38
0.15893336 1.990066665 0.74500006 9.381216777e-39
0.16035239 1.990066665 0.74500006 8.557571375e-39
0.16177145 1.990066665 0.74500006 9.109306021e-39
0.1631905 1.990066665 0.74500006 9.752877564e-39
0.16460954 1.990066665 0.74500006 1.011986782e-38
0.16602859 1.990066665 0.74500006 1.057689992e-38
0.16744764 1.990066665 0.74500006 1.10382382e-38
0.16886668 1.990066665 0.74500006 1.149956667e-38
0.17028573 1.990066665 0.74500006 1.177650669e-38
0.17170477 1.990066665 0.74500006 1.205380824e-38
0.17312382 1.990066665 0.74500006 1.242222782e-38
0.17501144 1.99004 0.74700004 1.279100754e-38
0.17643429 1.99004 0.74700004 1.315978866e-38
0.17785716 1.99004 0.74700004 1.362040527e-38
0.17928 1.99004 0.74700004 1.408030582e-38
0.18070287 1.99004 0.74700004 1.453732951e-38
0.18236953 1.990026667 0.74800003 1.490610642e-38
0.18379429 1.990026667 0.74800003 1.536672584e-38
0.18521905 1.990026667 0.74800003 1.527417989e-38
0.18664382 1.990026667 0.74800003 1.527345822e-38
0.18857144 1.989999999 0.75000006 1.518197725e-38
0.19000001 1.989999999 0.75000006 1.518233878e-38
0.19142859 1.989999999 0.75000006 1.499831186e-38
0.19285716 1.989999999 0.75000006 1.490647777e-38
0.19480382 1.989973333 0.75200003 1.49068379e-38
0.19623619 1.989973333 0.75200003 1.49068407e-38
0.19766857 1.989973333 0.75200003 1.509087323e-38
0.19910097 1.989973333 0.75200003 1.527525328e-38
0.2008 1.98996 0.75300002 1.536708177e-38
0.2022343 1.98996 0.75300002 1.536742789e-38
0.20420954 1.989933332 0.75500005 1.573583346e-38
0.20564763 1.989933332 0.75500005 1.619607032e-38
0.20708573 1.989933332 0.75500005 1.481350021e-38
0.2088 1.98992 0.75600004 1.352316637e-38
0.21024001 1.98992 0.75600004 1.389089371e-38
0.21140002 1.989933332 0.75500005 1.416819667e-38
0.2128381 1.989933332 0.75500005 1.444478355e-38
0.21456 1.98992 0.75600004 1.472172778e-38
0.21600002 1.98992 0.75600004 1.508871383e-38
0.21744001 1.98992 0.75600004 1.536421752e-38
0.21888 1.98992 0.75600004 1.564008134e-38
0.22090286 1.989893333 0.75800002 1.600777925e-38
0.22234666 1.989893333 0.75800002 1.600813518e-38
0.22379048 1.989893333 0.75800002 1.600850652e-38
0.22523428 1.989893333 0.75800002 1.582449081e-38
0.2266781 1.989893333 0.75800002 1.564081421e-38
0.22872382 1.989866666 0.76000005 1.545606282e-38
0.23017144 1.989866666 0.76000005 1.527131843e-38
0.23161906 1.989866666 0.76000005 1.508836911e-38
0.23306668 1.989866666 0.76000005 1.499758879e-38
0.2345143 1.989866666 0.76000005 1.499864397e-38
0.23596191 1.989866666 0.76000005 1.499937405e-38
0.23678477 1.989893333 0.75800002 1.490719243e-38
0.23822857 1.989893333 0.75800002 1.490826022e-38
0.23967238 1.989893333 0.75800002 1.463238659e-38
0.2411162 1.989893333 0.75800002 1.435688571e-38
0.24256 1.989893333 0.75800002 1.453948611e-38
0.24400382 1.989893333 0.75800002 1.472244384e-38
0.24544762 1.989893333 0.75800002 1.472352424e-38
0.24689142 1.989893333 0.75800002 1.472352985e-38
0.24833524 1.989893333 0.75800002 1.51834304e-38
0.24977905 1.989893333 0.75800002 1.555222132e-38
0.25122285 1.989893333 0.75800002 1.527672885e-38
0.25266668 1.989893333 0.75800002 1.509340257e-38
0.25478098 1.989866666 0.76000005 1.527705955e-38
0.25622857 1.989866666 0.76000005 1.546108648e-38
0.25767621 1.989866666 0.76000005 1.555292057e-38
0.25912383 1.989866666 0.76000005 1.573659156e-38
0.26057142 1.989866666 0.76000005 1.573659296e-38
0.26201907 1.989866666 0.76000005 1.573696291e-38
0.26346669 1.989866666 0.76000005 1.555366186e-38
0.26491427 1.989866666 0.76000005 1.546217248e-38
0.26636192 1.989866666 0.76000005 1.564583226e-38
0.26780954 1.989866666 0.76000005 1.592169468e-38
0.26925716 1.989866666 0.76000005 1.61975571e-38
0.27106097 1.989853333 0.76100004 1.656525361e-38
0.2725105 1.989853333 0.76100004 1.638086235e-38
0.27396002 1.989853333 0.76100004 1.61964767e-38
0.27540955 1.989853333 0.76100004 1.610500274e-38
0.27685907 1.989853333 0.76100004 1.601350916e-38
0.27830857 1.989853333 0.76100004 1.592129812e-38
0.2797581 1.989853333 0.76100004 1.582804731e-38
0.28120762 1.989853333 0.76100004 1.610357482e-38
0.28265715 1.989853333 0.76100004 1.637909392e-38
0.28485334 1.989826666 0.76300001 1.61950768e-38
0.28705713 1.989799999 0.76500005 1.601138899e-38
0.28926855 1.989773333 0.76700002 1.564331273e-38
0.29110858 1.98976 0.76800001 1.536742509e-38
0.29409525 1.989706666 0.77200001 1.509225631e-38
0.29556569 1.989706666 0.77200001 1.481749531e-38
0.29742098 1.989693333 0.77300006 1.518486673e-38
0.29966667 1.989666667 0.77500004 1.555257305e-38
0.30192 1.98964 0.77700001 1.537034399e-38
0.30340001 1.98964 0.77700001 1.527957629e-38
0.30566478 1.989613334 0.77900004 1.500262646e-38
0.30754286 1.9896 0.78000003 1.472710596e-38
0.30982095 1.989573332 0.78200006 1.481892884e-38
0.3113105 1.989573332 0.78200006 1.491077695e-38
0.31360003 1.989546666 0.78400004 1.500262646e-38
0.31509334 1.989546666 0.78400004 1.500262646e-38
0.31739429 1.98952 0.78600001 1.48193142e-38
0.31970286 1.989493333 0.78800005 1.463599774e-38
0.32120383 1.989493333 0.78800005 1.463527607e-38
0.32270479 1.989493333 0.78800005 1.47263997e-38
0.32461715 1.98948 0.78900003 1.454381192e-38
0.32612002 1.98948 0.78900003 1.436050806e-38
0.32845333 1.989453333 0.79100001 1.454418746e-38
0.32996002 1.989453333 0.79100001 1.463600755e-38
0.33314288 1.9894 0.79500002 1.445232114e-38
0.33465716 1.9894 0.79500002 1.436120031e-38
0.33701715 1.989373333 0.79700005 1.445052327e-38
0.33896002 1.989359999 0.79800004 1.45427175e-38
0.34048003 1.989359999 0.79800004 1.399134579e-38
0.16035239 1.991485714 0.74500006 8.097313493e-39
0.16177145 1.991485714 0.74500006 8.928859416e-39
0.1631905 1.991485714 0.74500006 9.753949557e-39
0.16505145 1.991462857 0.74700004 9.936549957e-39
0.16647428 1.991462857 0.74700004 1.021026699e-38
0.16789715 1.991462857 0.74700004 1.048542035e-38
0.16886668 1.991485714 0.74500006 1.085490912e-38
0.17028573 1.991485714 0.74500006 1.05779635e-38
0.17216572 1.991462857 0.74700004 1.039609318e-38
0.17358857 1.991462857 0.74700004 1.076559456e-38
0.17501144 1.991462857 0.74700004 1.122513778e-38
0.17643429 1.991462857 0.74700004 1.186835059e-38
0.17785716 1.991462857 0.74700004 1.251515073e-38
0.17928 1.991462857 0.74700004 1.334562185e-38
0.18070287 1.991462857 0.74700004 1.426075523e-38
0.18236953 1.991451429 0.74800003 1.425968464e-38
0.18379429 1.991451429 0.74800003 1.435294806e-38
0.18521905 1.991451429 0.74800003 1.46302426e-38
0.18664382 1.991451429 0.74800003 1.499793912e-38
0.18857144 1.991428571 0.75000006 1.499972998e-38
0.19000001 1.991428571 0.75000006 1.509120954e-38
0.19142859 1.991428571 0.75000006 1.490718262e-38
0.19285716 1.991428571 0.75000006 1.481535133e-38
0.19428572 1.991428571 0.75000006 1.481535693e-38
0.19623619 1.991405714 0.75200003 1.481535833e-38
0.19766857 1.991405714 0.75200003 1.499939086e-38
0.19910097 1.991405714 0.75200003 1.518341638e-38
0.20053335 1.991405714 0.75200003 1.518341358e-38
0.2022343 1.991394285 0.75300002 1.518340798e-38
0.20366858 1.991394285 0.75300002 1.573441675e-38
0.20564763 1.991371429 0.75500005 1.628613178e-38
0.20708573 1.991371429 0.75500005 1.564398675e-38
0.20852382 1.991371429 0.75500005 1.49968447e-38
0.20996192 1.991371429 0.75500005 1.462521054e-38
0.21140002 1.991371429 0.75500005 1.42550071e-38
0.2128381 1.991371429 0.75500005 1.425250439e-38
0.21456 1.991359999 0.75600004 1.426183143e-38
0.21571429 1.991371429 0.75500005 1.462809862e-38
0.21744001 1.991359999 0.75600004 1.508871663e-38
0.21888 1.991359999 0.75600004 1.536530632e-38
0.22032002 1.991359999 0.75600004 1.56418792e-38
0.22234666 1.991337142 0.75800002 1.582661798e-38
0.22379048 1.991337142 0.75800002 1.601029598e-38
0.22523428 1.991337142 0.75800002 1.582698933e-38
0.2266781 1.991337142 0.75800002 1.564116454e-38
0.22812191 1.991337142 0.75800002 1.545641735e-38
0.22956572 1.991337142 0.75800002 1.536386159e-38
0.23100951 1.991337142 0.75800002 1.517947173e-38
0.23245333 1.991337142 0.75800002 1.499830345e-38
0.23389715 1.991337142 0.75800002 1.499937124e-38
0.23534095 1.991337142 0.75800002 1.509121375e-38
0.23678477 1.991337142 0.75800002 1.509086202e-38
0.23822857 1.991337142 0.75800002 1.518340798e-38
0.23967238 1.991337142 0.75800002 1.518340097e-38
0.24048001 1.991359999 0.75600004 1.518376531e-38
0.24192002 1.991359999 0.75600004 1.499830626e-38
0.24400382 1.991337142 0.75800002 1.490683089e-38
0.24544762 1.991337142 0.75800002 1.499938666e-38
0.24689142 1.991337142 0.75800002 1.509158789e-38
0.24833524 1.991337142 0.75800002 1.555148985e-38
0.24977905 1.991337142 0.75800002 1.610286996e-38
0.25122285 1.991337142 0.75800002 1.573661398e-38
0.25266668 1.991337142 0.75800002 1.536961672e-38
0.25478098 1.991314285 0.76000005 1.546323327e-38
0.25622857 1.991314285 0.76000005 1.555363523e-38
0.25767621 1.991314285 0.76000005 1.564475607e-38
0.25912383 1.991314285 0.76000005 1.582842706e-38
0.26057142 1.991314285 0.76000005 1.57369503e-38
0.26201907 1.991314285 0.76000005 1.57369559e-38
0.26346669 1.991314285 0.76000005 1.555329192e-38
0.26491427 1.991314285 0.76000005 1.537068731e-38
0.26636192 1.991314285 0.76000005 1.564618539e-38
0.26780954 1.991314285 0.76000005 1.592169608e-38
0.26925716 1.991314285 0.76000005 1.610501395e-38
0.27106097 1.991302857 0.76100004 1.63812309e-38
0.2725105 1.991302857 0.76100004 1.628938979e-38
0.27396002 1.991302857 0.76100004 1.619648931e-38
0.27540955 1.991302857 0.76100004 1.610466503e-38
0.27685907 1.991302857 0.76100004 1.601281412e-38
0.27830857 1.991302857 0.76100004 1.601315743e-38
0.2797581 1.991302857 0.76100004 1.601173231e-38
0.28120762 1.991302857 0.76100004 1.610321889e-38
0.28265715 1.991302857 0.76100004 1.628689688e-38
0.28485334 1.99128 0.76300001 1.61032343e-38
0.28705713 1.991257142 0.76500005 1.601174212e-38
0.28851432 1.991257142 0.76500005 1.564582105e-38
0.29110858 1.991222857 0.76800001 1.527775039e-38
0.29333335 1.991199999 0.77000004 1.518518762e-38
0.29556569 1.991177143 0.77200001 1.509265288e-38
0.29742098 1.991165713 0.77300006 1.546144801e-38
0.29889333 1.991165713 0.77300006 1.582808374e-38
0.30114287 1.991142857 0.77500004 1.555402199e-38
0.30340001 1.991119999 0.77700001 1.527814696e-38
0.30487999 1.991119999 0.77700001 1.500263207e-38
0.30714858 1.991097142 0.77900004 1.481859393e-38
0.30902857 1.991085714 0.78000003 1.491185595e-38
0.3113105 1.991062856 0.78200006 1.500333692e-38
0.31280002 1.991062856 0.78200006 1.509481929e-38
0.31428954 1.991062856 0.78200006 1.527848888e-38
0.31658667 1.991039999 0.78400004 1.500333972e-38
