# .PCD v0.7 - Point Cloud Data file format
VERSION 0.7
FIELDS x y z rgb
SIZE 4 4 4 4
TYPE F F F F
COUNT 1 1 1 1
WIDTH 963
HEIGHT 1
VIEWPOINT 0 0 0 1 0 0 0
POINTS 963
DATA ascii
0.23929146 1.920236185 0.72200006 1.481712257e-38
0.24100001 1.920125708 0.72300005 1.490860214e-38
0.24304762 1.919904754 0.72500002 1.490968254e-38
0.24476571 1.919794284 0.72600001 1.500117752e-38
0.24614856 1.919794284 0.72600001 1.518558419e-38
0.24821335 1.919573329 0.72800004 1.546036621e-38
0.24960001 1.919573329 0.72800004 1.536852371e-38
0.25133145 1.919462852 0.72900003 1.527669662e-38
0.25341335 1.919241905 0.73100001 1.555221292e-38
0.25480571 1.919241905 0.73100001 1.592062129e-38
0.25654858 1.919131428 0.73200005 1.573801668e-38
0.25864762 1.918910474 0.73400003 1.555363103e-38
0.26004571 1.918910474 0.73400003 1.5461441e-38
0.26215622 1.918689519 0.73600006 1.536888244e-38
0.26355812 1.918689519 0.73600006 1.509301301e-38
0.26532003 1.918579042 0.73700005 1.481606879e-38
0.26672384 1.918579042 0.73700005 1.463060274e-38
0.26921904 1.918247618 0.74000001 1.44473129e-38
0.27062857 1.918247618 0.74000001 1.426402446e-38
0.19437905 1.915422849 0.77900004 1.594444616e-38
0.19586286 1.915422849 0.77900004 1.631213147e-38
0.19582668 1.916074276 0.77300006 1.667587912e-38
0.19602285 1.91661714 0.76800001 1.62174121e-38
0.1967143 1.91694285 0.76500005 1.575895489e-38
0.19713524 1.917377137 0.76100004 1.547520035e-38
0.19832383 1.917485707 0.76000005 1.529648575e-38
0.19924572 1.917702854 0.75800002 1.371943363e-38
0.20016001 1.917919993 0.75600004 1.224181205e-38
0.20133334 1.918028563 0.75500005 1.196450909e-38
0.20196572 1.91835428 0.75200003 1.17797521e-38
0.20339811 1.91835428 0.75200003 1.205560751e-38
0.20510286 1.91824571 0.75300002 1.242366135e-38
0.20708573 1.918028563 0.75500005 1.279099913e-38
0.20852382 1.918028563 0.75500005 1.325016961e-38
0.20996192 1.918028563 0.75500005 1.26058806e-38
0.20300001 1.921285711 0.72500002 1.196196994e-38
0.20438096 1.921285711 0.72500002 1.205382085e-38
0.20576191 1.921285711 0.72500002 1.205417538e-38
0.20714286 1.921285711 0.72500002 1.269809725e-38
0.20852382 1.921285711 0.72500002 1.343529795e-38
0.20990478 1.921285711 0.72500002 1.306796297e-38
0.21128573 1.921285711 0.72500002 1.279137748e-38
0.21266666 1.921285711 0.72500002 1.26055527e-38
0.21404761 1.921285711 0.72500002 1.251407173e-38
0.21542858 1.921285711 0.72500002 1.214529201e-38
0.21621144 1.921502851 0.72300005 1.177685001e-38
0.21758859 1.921502851 0.72300005 1.122437968e-38
0.21896572 1.921502851 0.72300005 1.067230592e-38
0.22003812 1.921611421 0.72200006 1.113221628e-38
0.22141336 1.921611421 0.72200006 1.159318322e-38
0.22217144 1.921828568 0.72000003 1.177792761e-38
0.22354287 1.921828568 0.72000003 1.196303913e-38
0.22553907 1.921611421 0.72200006 1.186977431e-38
0.22628571 1.921828568 0.72000003 1.177722135e-38
0.22765715 1.921828568 0.72000003 1.214492207e-38
0.22902858 1.921828568 0.72000003 1.260374642e-38
0.23008001 1.921937138 0.71900004 1.315727753e-38
0.23144954 1.921937138 0.71900004 1.38022826e-38
0.23281905 1.921937138 0.71900004 1.398775146e-38
0.23451428 1.921828568 0.72000003 1.426361388e-38
0.23588572 1.921828568 0.72000003 1.444800094e-38
0.23791622 1.921611421 0.72200006 1.472565001e-38
0.23929146 1.921611421 0.72200006 1.490859373e-38
0.24166667 1.921285711 0.72500002 1.518339116e-38
0.24304762 1.921285711 0.72500002 1.500008871e-38
0.24476571 1.921177141 0.72600001 1.481680027e-38
0.24614856 1.921177141 0.72600001 1.490865959e-38
0.24753141 1.921177141 0.72600001 1.50926753e-38
0.24960001 1.920959994 0.72800004 1.509302002e-38
0.25133145 1.920851424 0.72900003 1.509339136e-38
0.25341335 1.920634285 0.73100001 1.527707637e-38
0.25515431 1.920525707 0.73200005 1.555256604e-38
0.25654858 1.920525707 0.73200005 1.536923697e-38
0.25864762 1.920308568 0.73400003 1.527811473e-38
0.26110861 1.919982851 0.73700005 1.52777532e-38
0.26251242 1.919982851 0.73700005 1.527739306e-38
0.2646324 1.919765711 0.73900002 1.50930032e-38
0.26604 1.919765711 0.73900002 1.490716721e-38
0.26780954 1.919657141 0.74000001 1.47234836e-38
0.26994669 1.919439994 0.74200004 1.463169015e-38
0.27136001 1.919439994 0.74200004 1.43562257e-38
0.19214858 1.91658666 0.78200006 1.456295225e-38
0.19363812 1.91658666 0.78200006 1.419310615e-38
0.19437905 1.91690667 0.77900004 1.392154431e-38
0.19586286 1.91690667 0.77900004 1.530338014e-38
0.19582668 1.917546667 0.77300006 1.677130474e-38
0.19525716 1.91839999 0.76500005 1.631104266e-38
0.19568573 1.918826662 0.76100004 1.584574851e-38
0.1968762 1.918933332 0.76000005 1.556591902e-38
0.1978019 1.919146664 0.75800002 1.528751324e-38
0.19845717 1.919466659 0.75500005 1.390708291e-38
0.19936571 1.919679999 0.75300002 1.261382876e-38
0.20053335 1.919786662 0.75200003 1.187230506e-38
0.20142858 1.919999994 0.75000006 1.122802165e-38
0.20285715 1.919999994 0.75000006 1.141061785e-38
0.20292383 1.920533322 0.74500006 1.168826412e-38
0.20626286 1.919786662 0.75200003 1.205810602e-38
0.20769525 1.919786662 0.75200003 1.242365294e-38
0.20662476 1.920746662 0.74300003 1.20534397e-38
0.20244001 1.922879994 0.72300005 1.177903323e-38
0.20438096 1.922666661 0.72500002 1.196416297e-38
0.20576191 1.922666661 0.72500002 1.223929812e-38
0.20657143 1.922879994 0.72300005 1.2514792e-38
0.20794858 1.922879994 0.72300005 1.288465071e-38
0.20932573 1.922879994 0.72300005 1.288429758e-38
0.21070288 1.922879994 0.72300005 1.288393885e-38
0.21208002 1.922879994 0.72300005 1.278959223e-38
0.21404761 1.922666661 0.72500002 1.278922929e-38
0.2148343 1.922879994 0.72300005 1.24251117e-38
0.2159124 1.922986664 0.72200006 1.21463542e-38
0.21728764 1.922986664 0.72200006 1.16839271e-38
0.21896572 1.922879994 0.72300005 1.122475663e-38
0.22003812 1.922986664 0.72200006 1.140843603e-38
0.22141336 1.922986664 0.72200006 1.168502012e-38
0.22217144 1.923200004 0.72000003 1.187012744e-38
0.22354287 1.923200004 0.72000003 1.20534383e-38
0.22553907 1.922986664 0.72200006 1.177757308e-38
0.22628571 1.923200004 0.72000003 1.159426082e-38
0.22765715 1.923200004 0.72000003 1.205379703e-38
0.22902858 1.923200004 0.72000003 1.251369758e-38
0.23008001 1.923306659 0.71900004 1.297395546e-38
0.23144954 1.923306659 0.71900004 1.352713204e-38
0.23314285 1.923200004 0.72000003 1.380336581e-38
0.23451428 1.923200004 0.72000003 1.417106232e-38
0.23588572 1.923200004 0.72000003 1.435544657e-38
0.23791622 1.922986664 0.72200006 1.463129918e-38
0.23929146 1.922986664 0.72200006 1.499898869e-38
0.24100001 1.922879994 0.72300005 1.545853471e-38
0.24304762 1.922666661 0.72500002 1.499972717e-38
0.24476571 1.922559999 0.72600001 1.463275934e-38
0.24682669 1.922346666 0.72800004 1.463385235e-38
0.24821335 1.922346666 0.72800004 1.472567944e-38
0.24960001 1.922346666 0.72800004 1.481786526e-38
0.25133145 1.922239996 0.72900003 1.490970916e-38
0.25341335 1.922026664 0.73100001 1.500155447e-38
0.25585145 1.921706669 0.73400003 1.518521705e-38
0.25724953 1.921706669 0.73400003 1.509337315e-38
0.25935239 1.921493329 0.73600006 1.509372487e-38
0.26110861 1.921386659 0.73700005 1.51859135e-38
0.26322478 1.921173327 0.73900002 1.527739166e-38
0.2646324 1.921173327 0.73900002 1.509300461e-38
0.26640001 1.921066664 0.74000001 1.500080477e-38
0.26853335 1.920853332 0.74200004 1.490860634e-38
0.26994669 1.920853332 0.74200004 1.481679887e-38
0.27136001 1.920853332 0.74200004 1.454167914e-38
0.19214858 1.918076187 0.78200006 1.2430623e-38
0.19314286 1.918285713 0.78000003 1.30792168e-38
0.19437905 1.918390475 0.77900004 1.363634084e-38
0.19586286 1.918390475 0.77900004 1.511863716e-38
0.19582668 1.919019043 0.77300006 1.667875459e-38
0.19347048 1.920590475 0.75800002 1.529547402e-38
0.19491428 1.920590475 0.75800002 1.391216122e-38
0.19584002 1.9208 0.75600004 1.381634043e-38
0.19701906 1.920904763 0.75500005 1.362909052e-38
0.19793142 1.921114288 0.75300002 1.298589172e-38
0.19910097 1.921219051 0.75200003 1.234299841e-38
0.20000002 1.921428569 0.75000006 1.1686832e-38
0.20089144 1.921638086 0.74800003 1.104793939e-38
0.20150478 1.921952374 0.74500006 1.113332891e-38
0.20292383 1.921952374 0.74500006 1.122120013e-38
0.20379429 1.9221619 0.74300003 1.094998022e-38
0.20520952 1.9221619 0.74300003 1.077061682e-38
0.20662476 1.9221619 0.74300003 1.094998722e-38
0.20244001 1.924257137 0.72300005 1.122157989e-38
0.20381714 1.924257137 0.72300005 1.168330072e-38
0.20519429 1.924257137 0.72300005 1.223716114e-38
0.20657143 1.924257137 0.72300005 1.269846999e-38
0.20794858 1.924257137 0.72300005 1.316052294e-38
0.20932573 1.924257137 0.72300005 1.334419954e-38
0.21070288 1.924257137 0.72300005 1.352787193e-38
0.21178669 1.924361899 0.72200006 1.352572094e-38
0.21345717 1.924257137 0.72300005 1.352356294e-38
0.21453716 1.924361899 0.72200006 1.353145085e-38
0.2159124 1.924361899 0.72200006 1.353286476e-38
0.21728764 1.924361899 0.72200006 1.316012217e-38
0.21866287 1.924361899 0.72200006 1.287923469e-38
0.22003812 1.924361899 0.72200006 1.223602749e-38
0.22141336 1.924361899 0.72200006 1.159318462e-38
0.22217144 1.924571425 0.72000003 1.186941558e-38
0.22354287 1.924571425 0.72000003 1.223639183e-38
0.22491428 1.924571425 0.72000003 1.214490946e-38
0.22628571 1.924571425 0.72000003 1.205630255e-38
0.22765715 1.924571425 0.72000003 1.223997354e-38
0.22902858 1.924571425 0.72000003 1.251548284e-38
0.23040001 1.924571425 0.72000003 1.297466452e-38
0.23177144 1.924571425 0.72000003 1.343565248e-38
0.23314285 1.924571425 0.72000003 1.361969902e-38
0.23516573 1.924361899 0.72200006 1.38951985e-38
0.23654097 1.924361899 0.72200006 1.407886249e-38
0.23791622 1.924361899 0.72200006 1.426251947e-38
0.23962288 1.924257137 0.72300005 1.417066996e-38
0.24166667 1.924047619 0.72500002 1.417462722e-38
0.24338286 1.923942856 0.72600001 1.408208687e-38
0.24544001 1.923733331 0.72800004 1.398954232e-38
0.24682669 1.923733331 0.72800004 1.417286439e-38
0.2485543 1.923628569 0.72900003 1.435617245e-38
0.24994285 1.923628569 0.72900003 1.45405581e-38
0.25202096 1.923419043 0.73100001 1.472530949e-38
0.25376001 1.923314281 0.73200005 1.481679186e-38
0.25585145 1.923104756 0.73400003 1.490826863e-38
0.25795048 1.92289523 0.73600006 1.490934623e-38
0.25935239 1.92289523 0.73600006 1.490933642e-38
0.26110861 1.922790468 0.73700005 1.490968534e-38
0.26322478 1.92258095 0.73900002 1.500188377e-38
0.26499048 1.922476187 0.74000001 1.500188798e-38
0.26640001 1.922476187 0.74000001 1.509444374e-38
0.26853335 1.922266662 0.74200004 1.518628204e-38
0.27212954 1.921638086 0.74800003 1.536996704e-38
0.27355427 1.921638086 0.74800003 1.491080498e-38
0.27497905 1.921638086 0.74800003 1.445198763e-38
0.29528573 1.916714281 0.79500002 1.298086947e-38
0.29680002 1.916714281 0.79500002 1.326395138e-38
0.2983143 1.916714281 0.79500002 1.354700806e-38
0.19314286 1.919771425 0.78000003 1.187851001e-38
0.19437905 1.919874281 0.77900004 1.345480122e-38
0.19586286 1.919874281 0.77900004 1.502607018e-38
0.1942362 1.921725713 0.76100004 1.427483688e-38
0.19491428 1.922034286 0.75800002 1.206825843e-38
0.19558096 1.922342852 0.75500005 1.206608922e-38
0.19701906 1.922342852 0.75500005 1.206572348e-38
0.19766857 1.922651425 0.75200003 1.206535774e-38
0.19910097 1.922651425 0.75200003 1.206425352e-38
0.20000002 1.922857136 0.75000006 1.140989618e-38
0.20089144 1.923062854 0.74800003 1.085744968e-38
0.20150478 1.923371419 0.74500006 1.085637488e-38
0.20237906 1.923577137 0.74300003 1.085385254e-38
0.20379429 1.923577137 0.74300003 9.934768907e-39
0.20493335 1.92368 0.74200004 9.106821518e-39
0.20634668 1.92368 0.74200004 9.931911659e-39
0.20244001 1.92563428 0.72300005 1.076060454e-38
0.20381714 1.92563428 0.72300005 1.149746052e-38
0.20519429 1.92563428 0.72300005 1.22367926e-38
0.20628573 1.925737135 0.72200006 1.279065862e-38
0.20766097 1.925737135 0.72200006 1.343602102e-38
0.20903622 1.925737135 0.72200006 1.380838806e-38
0.21041144 1.925737135 0.72200006 1.417430493e-38
0.21178669 1.925737135 0.72200006 1.41728798e-38
0.21257144 1.925942853 0.72000003 1.426757955e-38
0.21394287 1.925942853 0.72000003 1.463778439e-38
0.21531428 1.925942853 0.72000003 1.50022425e-38
0.21668571 1.925942853 0.72000003 1.47267234e-38
0.21805714 1.925942853 0.72000003 1.453730989e-38
0.22003812 1.925737135 0.72200006 1.296534168e-38
0.22141336 1.925737135 0.72200006 1.150136314e-38
0.22217144 1.925942853 0.72000003 1.196162662e-38
0.22354287 1.925942853 0.72000003 1.242078869e-38
0.22491428 1.925942853 0.72000003 1.242077468e-38
0.22628571 1.925942853 0.72000003 1.251368777e-38
0.22765715 1.925942853 0.72000003 1.25151227e-38
0.22902858 1.925942853 0.72000003 1.260732394e-38
0.23040001 1.925942853 0.72000003 1.297539039e-38
0.23177144 1.925942853 0.72000003 1.334346946e-38
0.2337905 1.925737135 0.72200006 1.343640077e-38
0.23516573 1.925737135 0.72200006 1.362005074e-38
0.23654097 1.925737135 0.72200006 1.380370212e-38
0.23824573 1.92563428 0.72300005 1.398700317e-38
0.24028571 1.925428569 0.72500002 1.343454405e-38
0.242 1.925325714 0.72600001 1.288282622e-38
0.24405335 1.925119996 0.72800004 1.315762786e-38
0.24544001 1.925119996 0.72800004 1.343421755e-38
0.24716572 1.925017141 0.72900003 1.371116737e-38
0.24923618 1.92481143 0.73100001 1.398738993e-38
0.25062856 1.92481143 0.73100001 1.426397121e-38
0.25236571 1.924708568 0.73200005 1.453984064e-38
0.25376001 1.924708568 0.73200005 1.454020497e-38
0.25585145 1.924502857 0.73400003 1.46323978e-38
0.25795048 1.924297139 0.73600006 1.472530949e-38
0.25935239 1.924297139 0.73600006 1.481713658e-38
0.26181716 1.923988566 0.73900002 1.472529408e-38
0.26322478 1.923988566 0.73900002 1.472638849e-38
0.26499048 1.923885718 0.74000001 1.49100777e-38
0.26712 1.92368 0.74200004 1.518629745e-38
0.26853335 1.92368 0.74200004 1.55543541e-38
0.27212954 1.923062854 0.74800003 1.592134156e-38
0.27355427 1.923062854 0.74800003 1.527885742e-38
0.27497905 1.923062854 0.74800003 1.463565021e-38
0.29454288 1.918434285 0.79300004 1.362296124e-38
0.29680002 1.918228574 0.79500002 1.352790977e-38
0.29756382 1.918434285 0.79300004 1.344293222e-38
0.29907429 1.918434285 0.79300004 1.344979158e-38
0.30058476 1.918434285 0.79300004 1.345480963e-38
0.1942362 1.923175238 0.76100004 1.307842226e-38
0.19491428 1.923478097 0.75800002 1.20614229e-38
0.19506286 1.923982859 0.75300002 1.206573609e-38
0.19649714 1.923982859 0.75300002 1.207037719e-38
0.19766857 1.924083807 0.75200003 1.114339023e-38
0.19857144 1.92428571 0.75000006 1.022466393e-38
0.19946666 1.924487621 0.74800003 1.012277131e-38
0.20008573 1.924790472 0.74500006 1.002841628e-38
0.20096381 1.924992375 0.74300003 9.660707157e-39
0.20237906 1.924992375 0.74300003 9.293002236e-39
0.20352001 1.925093323 0.74200004 9.015340551e-39
0.20438096 1.925295234 0.74000001 8.645854579e-39
0.20579048 1.925295234 0.74000001 9.38090709e-39
0.20216002 1.927112378 0.72200006 1.01159582e-38
0.20353526 1.927112378 0.72200006 1.08531617e-38
0.20491049 1.927112378 0.72200006 1.159357418e-38
0.20628573 1.927112378 0.72200006 1.242474736e-38
0.20766097 1.927112378 0.72200006 1.334453725e-38
0.20845714 1.927314289 0.72000003 1.398882065e-38
0.20982857 1.927314289 0.72000003 1.4633481e-38
0.21120001 1.927314289 0.72000003 1.472605218e-38
0.21257144 1.927314289 0.72000003 1.491043223e-38
0.21394287 1.927314289 0.72000003 1.481858973e-38
0.21531428 1.927314289 0.72000003 1.481858272e-38
0.21668571 1.927314289 0.72000003 1.463454599e-38
0.21866287 1.927112378 0.72200006 1.454234616e-38
0.22003812 1.927112378 0.72200006 1.296858148e-38
0.22141336 1.927112378 0.72200006 1.140954165e-38
0.22278859 1.927112378 0.72200006 1.187052541e-38
0.22354287 1.927314289 0.72000003 1.242151596e-38
0.22491428 1.927314289 0.72000003 1.251189411e-38
0.22628571 1.927314289 0.72000003 1.260265481e-38
0.22765715 1.927314289 0.72000003 1.260301494e-38
0.22902858 1.927314289 0.72000003 1.269557771e-38
0.23040001 1.927314289 0.72000003 1.278814048e-38
0.23177144 1.927314289 0.72000003 1.297255136e-38
0.2337905 1.927112378 0.72200006 1.306692041e-38
0.23516573 1.927112378 0.72200006 1.31612334e-38
0.23654097 1.927112378 0.72200006 1.297717144e-38
0.23824573 1.927011423 0.72300005 1.279313331e-38
0.24061716 1.926708572 0.72600001 1.233107756e-38
0.242 1.926708572 0.72600001 1.177720734e-38
0.24438857 1.926405713 0.72900003 1.214456334e-38
0.24577715 1.926405713 0.72900003 1.251191093e-38
0.2478438 1.92620381 0.73100001 1.288105218e-38
0.24957716 1.926102854 0.73200005 1.334238345e-38
0.25097144 1.926102854 0.73200005 1.361860881e-38
0.25305524 1.925900951 0.73400003 1.398667246e-38
0.25445333 1.925900951 0.73400003 1.417214132e-38
0.25654861 1.92569904 0.73600006 1.435688571e-38
0.25830096 1.925598092 0.73700005 1.4449796e-38
0.2597048 1.925598092 0.73700005 1.454341955e-38
0.26181716 1.925396189 0.73900002 1.435938562e-38
0.26358095 1.925295234 0.74000001 1.417538673e-38
0.26570666 1.925093323 0.74200004 1.463495517e-38
0.26820001 1.924790472 0.74500006 1.509484031e-38
0.26961908 1.924790472 0.74500006 1.527814416e-38
0.29454288 1.919944756 0.79300004 1.380623427e-38
0.29605335 1.919944756 0.79300004 1.36207542e-38
0.29756382 1.919944756 0.79300004 1.334388004e-38
0.29907429 1.919944756 0.79300004 1.316637616e-38
0.30058476 1.919944756 0.79300004 1.298880783e-38
0.30209523 1.919944756 0.79300004 1.336368739e-38
0.19491428 1.924921907 0.75800002 1.206572769e-38
0.19506286 1.92541714 0.75300002 1.206573329e-38
0.19623619 1.925516188 0.75200003 1.206211934e-38
0.19714287 1.925714277 0.75000006 1.022179547e-38
0.1980419 1.92591238 0.74800003 8.472607846e-39
0.19866669 1.926209524 0.74500006 8.835996768e-39
0.19954857 1.92640762 0.74300003 9.202614281e-39
0.20096381 1.92640762 0.74300003 8.467205841e-39
0.20210667 1.926506661 0.74200004 7.821840636e-39
0.20352001 1.926506661 0.74200004 8.00048517e-39
0.20410477 1.926803805 0.73900002 8.278146856e-39
0.2049562 1.927001901 0.73700005 8.83131503e-39
0.20216002 1.928487614 0.72200006 9.474173312e-39
0.20353526 1.928487614 0.72200006 1.020886849e-38
0.20491049 1.928487614 0.72200006 1.094605378e-38
0.20628573 1.928487614 0.72200006 1.20588319e-38
0.20766097 1.928487614 0.72200006 1.325270175e-38
0.20845714 1.92868571 0.72000003 1.417214132e-38
0.20982857 1.92868571 0.72000003 1.518522126e-38
0.21120001 1.92868571 0.72000003 1.537752144e-38
0.21257144 1.92868571 0.72000003 1.555328911e-38
0.21394287 1.92868571 0.72000003 1.509158929e-38
0.21531428 1.92868571 0.72000003 1.463383693e-38
0.21668571 1.92868571 0.72000003 1.463633825e-38
0.21866287 1.928487614 0.72200006 1.463454179e-38
0.22003812 1.928487614 0.72200006 1.297181428e-38
0.22141336 1.928487614 0.72200006 1.131733902e-38
0.22278859 1.928487614 0.72200006 1.187122045e-38
0.22416383 1.928487614 0.72200006 1.242078028e-38
0.22553907 1.928487614 0.72200006 1.25097291e-38
0.22628571 1.92868571 0.72000003 1.26934071e-38
0.22765715 1.92868571 0.72000003 1.269341411e-38
0.22902858 1.92868571 0.72000003 1.278597408e-38
0.23040001 1.92868571 0.72000003 1.269486445e-38
0.23177144 1.92868571 0.72000003 1.269451973e-38
0.2337905 1.928487614 0.72200006 1.269417501e-38
0.23516573 1.928487614 0.72200006 1.27849147e-38
0.23654097 1.928487614 0.72200006 1.223316464e-38
0.23890476 1.928190477 0.72500002 1.167891746e-38
0.24128 1.927893326 0.72800004 1.121650718e-38
0.243 1.927794285 0.72900003 1.076092684e-38
0.24505906 1.927596189 0.73100001 1.122370145e-38
0.24678859 1.927497141 0.73200005 1.16836006e-38
0.24818286 1.927497141 0.73200005 1.214565355e-38
0.25025904 1.927299045 0.73400003 1.269702946e-38
0.25165716 1.927299045 0.73400003 1.306509311e-38
0.25374475 1.927100949 0.73600006 1.343387003e-38
0.25549334 1.927001901 0.73700005 1.3804442e-38
0.25759429 1.926803805 0.73900002 1.417285879e-38
0.25900191 1.926803805 0.73900002 1.417429231e-38
0.26040953 1.926803805 0.73900002 1.426792007e-38
0.26217142 1.926704764 0.74000001 1.399277091e-38
0.26429334 1.926506661 0.74200004 1.371692391e-38
0.26570666 1.926506661 0.74200004 1.4359792e-38
0.26712 1.926506661 0.74200004 1.509518783e-38
0.27034286 1.926011428 0.74700004 1.500406279e-38
0.27358475 1.925516188 0.75200003 1.500369845e-38
0.27501714 1.925516188 0.75200003 1.472818776e-38
0.27644953 1.925516188 0.75200003 1.454415383e-38
0.29454288 1.921455234 0.79300004 1.408245401e-38
0.29605335 1.921455234 0.79300004 1.371402883e-38
0.29756382 1.921455234 0.79300004 1.334457088e-38
0.29907429 1.921455234 0.79300004 1.297762406e-38
0.30058476 1.921455234 0.79300004 1.261315754e-38
0.30209523 1.921455234 0.79300004 1.307557062e-38
0.19506286 1.926851429 0.75300002 1.142073102e-38
0.19623619 1.92694857 0.75200003 1.114303991e-38
0.19714287 1.927142851 0.75000006 9.849061289e-39
0.19777715 1.927434288 0.74700004 8.647304923e-39
0.19866669 1.927628569 0.74500006 8.739856483e-39
0.19954857 1.927822858 0.74300003 8.924239335e-39
0.20096381 1.927822858 0.74300003 8.280309059e-39
0.20210667 1.927919999 0.74200004 7.636736115e-39
0.20352001 1.927919999 0.74200004 7.816454044e-39
0.20410477 1.928211421 0.73900002 8.094468857e-39
0.20551239 1.928211421 0.73900002 8.646913961e-39
0.20636001 1.92840571 0.73700005 9.107178849e-39
0.20353526 1.929862857 0.72200006 9.657845706e-39
0.20491049 1.929862857 0.72200006 1.020705661e-38
0.20628573 1.929862857 0.72200006 1.150673572e-38
0.20708571 1.930057138 0.72000003 1.270169018e-38
0.20845714 1.930057138 0.72000003 1.380552661e-38
0.20982857 1.930057138 0.72000003 1.500227894e-38
0.21120001 1.930057138 0.72000003 1.509413545e-38
0.21257144 1.930057138 0.72000003 1.518631427e-38
0.21394287 1.930057138 0.72000003 1.481644574e-38
0.21531428 1.930057138 0.72000003 1.444944988e-38
0.21668571 1.930057138 0.72000003 1.435831924e-38
0.21866287 1.929862857 0.72200006 1.417572444e-38
0.22003812 1.929862857 0.72200006 1.315513214e-38
0.22141336 1.929862857 0.72200006 1.214385007e-38
0.22278859 1.929862857 0.72200006 1.242077608e-38
0.22416383 1.929862857 0.72200006 1.278774672e-38
0.22553907 1.929862857 0.72200006 1.297068904e-38
0.2269143 1.929862857 0.72200006 1.315401251e-38
0.22765715 1.930057138 0.72000003 1.296963666e-38
0.22966479 1.929862857 0.72200006 1.269162465e-38
0.23104002 1.929862857 0.72200006 1.269234912e-38
0.23241526 1.929862857 0.72200006 1.269307079e-38
0.2337905 1.929862857 0.72200006 1.140594452e-38
0.23549144 1.929765716 0.72300005 1.021099987e-38
0.23686859 1.929765716 0.72300005 1.002086609e-38
0.23923428 1.929474287 0.72600001 9.922930738e-39
0.24161144 1.929182857 0.72900003 1.020381821e-38
0.24366666 1.928988568 0.73100001 1.048363509e-38
0.24539432 1.92889142 0.73200005 1.085313508e-38
0.24813715 1.92850285 0.73600006 1.131482789e-38
0.24953906 1.92850285 0.73600006 1.177472844e-38
0.25094098 1.92850285 0.73600006 1.232682322e-38
0.25234288 1.92850285 0.73600006 1.269524841e-38
0.25408953 1.92840571 0.73700005 1.315549928e-38
0.25618666 1.928211421 0.73900002 1.352786212e-38
0.25759429 1.928211421 0.73900002 1.398883186e-38
0.25935239 1.92811428 0.74000001 1.417393778e-38
0.26076192 1.92811428 0.74000001 1.435976257e-38
0.26288003 1.927919999 0.74200004 1.435976397e-38
0.26464954 1.927822858 0.74300003 1.426793548e-38
0.26678097 1.927628569 0.74500006 1.49111497e-38
0.26892003 1.927434288 0.74700004 1.555758129e-38
0.27070478 1.92733714 0.74800003 1.518700791e-38
0.27394855 1.926851429 0.75300002 1.482001905e-38
0.27538288 1.926851429 0.75300002 1.463598512e-38
0.27681717 1.926851429 0.75300002 1.445230713e-38
0.27825144 1.926851429 0.75300002 1.42671956e-38
0.2938 1.923160002 0.79100001 1.408352601e-38
0.29605335 1.922965713 0.79300004 1.389734529e-38
0.29756382 1.922965713 0.79300004 1.37126023e-38
0.29907429 1.922965713 0.79300004 1.334490719e-38
0.30058476 1.922965713 0.79300004 1.297721488e-38
0.30133334 1.923160002 0.79100001 1.316232921e-38
0.30283999 1.923160002 0.79100001 1.343969522e-38
0.19337143 1.928380951 0.75200003 1.160186987e-38
0.19428572 1.928571425 0.75000006 1.086754183e-38
0.19571429 1.928571425 0.75000006 1.021892981e-38
0.19714287 1.928571425 0.75000006 9.568164005e-39
0.19777715 1.92885714 0.74700004 8.924591061e-39
0.19866669 1.929047614 0.74500006 8.74055433e-39
0.19954857 1.929238096 0.74300003 8.648355897e-39
0.20096381 1.929238096 0.74300003 8.003352227e-39
0.20210667 1.929333329 0.74200004 7.450897314e-39
0.20297143 1.929523811 0.74000001 7.724243e-39
0.20410477 1.929619044 0.73900002 8.001904686e-39
0.20551239 1.929619044 0.73900002 8.371043135e-39
0.20636001 1.929809518 0.73700005 8.830946488e-39
0.20381714 1.931142852 0.72300005 9.198655613e-39
0.20491049 1.931238092 0.72200006 9.564917197e-39
0.20628573 1.931238092 0.72200006 1.086280684e-38
0.20708571 1.931428574 0.72000003 1.224286582e-38
0.20845714 1.931428574 0.72000003 1.353109071e-38
0.20982857 1.931428574 0.72000003 1.481680167e-38
0.21120001 1.931428574 0.72000003 1.482148061e-38
0.21257144 1.931428574 0.72000003 1.491043924e-38
0.21394287 1.931428574 0.72000003 1.463313348e-38
0.21531428 1.931428574 0.72000003 1.435654099e-38
0.21668571 1.931428574 0.72000003 1.407994989e-38
0.21866287 1.931238092 0.72200006 1.380085188e-38
0.22003812 1.931238092 0.72200006 1.34302785e-38
0.22172001 1.931142852 0.72300005 1.306328123e-38
0.22278859 1.931238092 0.72200006 1.306398609e-38
0.2244743 1.931142852 0.72300005 1.315509571e-38
0.22553907 1.931238092 0.72200006 1.3429519e-38
0.2269143 1.931238092 0.72200006 1.37050395e-38
0.22828954 1.931238092 0.72200006 1.315440067e-38
0.22966479 1.931238092 0.72200006 1.269234632e-38
0.23104002 1.931238092 0.72200006 1.269126452e-38
0.23338096 1.930952385 0.72500002 1.269126872e-38
0.23476192 1.930952385 0.72500002 1.011198692e-38
0.23646858 1.930857144 0.72600001 7.627755193e-39
0.23850669 1.930666663 0.72800004 7.898947084e-39
0.24022286 1.930571429 0.72900003 8.180913558e-39
0.24260573 1.930285707 0.73200005 9.191106818e-39
0.24466668 1.93009524 0.73400003 1.020632514e-38
0.24673526 1.929904759 0.73600006 1.057582512e-38
0.2484743 1.929809518 0.73700005 1.103966892e-38
0.24987811 1.929809518 0.73700005 1.149777301e-38
0.25128192 1.929809518 0.73700005 1.196054622e-38
0.25268573 1.929809518 0.73700005 1.241973351e-38
0.25477904 1.929619044 0.73900002 1.288250112e-38
0.25653335 1.929523811 0.74000001 1.334347507e-38
0.25794286 1.929523811 0.74000001 1.38055196e-38
0.26005337 1.929333329 0.74200004 1.417393498e-38
0.26146668 1.929333329 0.74200004 1.454307343e-38
0.26394287 1.929047614 0.74500006 1.472818216e-38
0.26536193 1.929047614 0.74500006 1.491150002e-38
0.26749715 1.92885714 0.74700004 1.54625172e-38
0.26928002 1.928761899 0.74800003 1.610500414e-38
0.27142859 1.928571425 0.75000006 1.537031737e-38
0.27358475 1.928380951 0.75200003 1.472711016e-38
0.27611428 1.928095229 0.75500005 1.454343917e-38
0.2775524 1.928095229 0.75500005 1.445123794e-38
0.27899051 1.928095229 0.75500005 1.426720261e-38
0.29454288 1.924476191 0.79300004 1.417392938e-38
0.29680002 1.924285717 0.79500002 1.408101628e-38
0.29756382 1.924476191 0.79300004 1.407958556e-38
0.29982859 1.924285717 0.79500002 1.371296664e-38
0.30058476 1.924476191 0.79300004 1.343638256e-38
0.30209523 1.924476191 0.79300004 1.334095833e-38
0.30437142 1.924285717 0.79500002 1.325489619e-38
0.3058857 1.924285717 0.79500002 1.28872291e-38
0.19285716 1.929999992 0.75000006 1.022611287e-38
0.19428572 1.929999992 0.75000006 9.852665429e-39
0.19571429 1.929999992 0.75000006 9.57068354e-39
0.19714287 1.929999992 0.75000006 9.110413046e-39
0.1980419 1.930186667 0.74800003 8.741982253e-39
0.19866669 1.930466659 0.74500006 8.648699215e-39
0.19954857 1.930653334 0.74300003 8.556503585e-39
0.20096381 1.930653334 0.74300003 8.186650474e-39
0.20210667 1.930746667 0.74200004 7.724953459e-39
0.20297143 1.930933326 0.74000001 7.908974775e-39
0.20410477 1.93102666 0.73900002 8.093370239e-39
0.20551239 1.93102666 0.73900002 8.370320065e-39
0.20636001 1.931213327 0.73700005 8.646908356e-39
0.20353526 1.932613328 0.72200006 9.014614678e-39
0.20491049 1.932613328 0.72200006 9.290479899e-39
0.20628573 1.932613328 0.72200006 1.021242218e-38
0.20708571 1.932799995 0.72000003 1.113437848e-38
0.20845714 1.932799995 0.72000003 1.288285565e-38
0.20982857 1.932799995 0.72000003 1.453984904e-38
0.21120001 1.932799995 0.72000003 1.463312788e-38
0.21257144 1.932799995 0.72000003 1.463492434e-38
0.21394287 1.932799995 0.72000003 1.4355476e-38
0.21531428 1.932799995 0.72000003 1.417000434e-38
0.21668571 1.932799995 0.72000003 1.407744577e-38
0.21866287 1.932613328 0.72200006 1.398057962e-38
0.22003812 1.932613328 0.72200006 1.370578359e-38
0.22172001 1.932519995 0.72300005 1.352317758e-38
0.22309716 1.932519995 0.72300005 1.315546565e-38
0.2244743 1.932519995 0.72300005 1.287959763e-38
0.22553907 1.932613328 0.72200006 1.296999539e-38
0.22722858 1.932519995 0.72300005 1.315440067e-38
0.22828954 1.932613328 0.72200006 1.26941638e-38
0.22998287 1.932519995 0.72300005 1.232608474e-38
0.23136 1.932519995 0.72300005 1.250650892e-38
0.23338096 1.932333328 0.72500002 1.278130075e-38
0.23508571 1.932240002 0.72600001 1.158385618e-38
0.23646858 1.932240002 0.72600001 1.037921874e-38
0.23948953 1.931773335 0.73100001 1.047534641e-38
0.24121144 1.931679994 0.73200005 1.057185104e-38
0.24326858 1.931493334 0.73400003 1.066369354e-38
0.24533336 1.93130666 0.73600006 1.084772887e-38
0.24707049 1.931213327 0.73700005 1.112790448e-38
0.24914859 1.93102666 0.73900002 1.140735703e-38
0.2505562 1.93102666 0.73900002 1.186653591e-38
0.25196382 1.93102666 0.73900002 1.232931333e-38
0.25337145 1.93102666 0.73900002 1.278922089e-38
0.25512382 1.930933326 0.74000001 1.325235143e-38
0.25722668 1.930746667 0.74200004 1.362005915e-38
0.25864002 1.930746667 0.74200004 1.389771383e-38
0.26005337 1.930746667 0.74200004 1.408209808e-38
0.26252383 1.930466659 0.74500006 1.435904371e-38
0.26465142 1.93028 0.74700004 1.445052467e-38
0.2660743 1.93028 0.74700004 1.463419847e-38
0.26785526 1.930186667 0.74800003 1.500190199e-38
0.27000004 1.929999992 0.75000006 1.527776441e-38
0.27215239 1.929813325 0.75200003 1.481786806e-38
0.27394855 1.929719999 0.75300002 1.445017155e-38
0.27611428 1.929533325 0.75500005 1.426614603e-38
0.27792001 1.929439999 0.75600004 1.417394479e-38
0.27936 1.929439999 0.75600004 1.408138623e-38
0.28080001 1.929439999 0.75600004 1.408066316e-38
0.29605335 1.925986663 0.79300004 1.426396981e-38
0.29756382 1.925986663 0.79300004 1.444692754e-38
0.29907429 1.925986663 0.79300004 1.407959116e-38
0.29982665 1.926173337 0.79100001 1.380407346e-38
0.30209523 1.925986663 0.79300004 1.371258549e-38
0.30437142 1.925799996 0.79500002 1.362146746e-38
0.30704004 1.925519995 0.79800004 1.325412687e-38
0.30856001 1.925519995 0.79800004 1.297903517e-38
0.31008002 1.925519995 0.79800004 1.289407304e-38
0.31160003 1.925519995 0.79800004 1.290091698e-38
0.19337143 1.931245714 0.75200003 8.840686914e-39
0.19480382 1.931245714 0.75200003 8.929642742e-39
0.19571429 1.931428567 0.75000006 9.020029295e-39
0.19714287 1.931428567 0.75000006 8.74522766e-39
0.1980419 1.931611434 0.74800003 8.557598e-39
0.19866669 1.931885712 0.74500006 8.556867923e-39
0.19954857 1.932068571 0.74300003 8.555786121e-39
0.20096381 1.932068571 0.74300003 8.278121633e-39
0.20237906 1.932068571 0.74300003 8.094090507e-39
0.20297143 1.932342857 0.74000001 8.185564468e-39
0.20438096 1.932342857 0.74000001 8.277404168e-39
0.20551239 1.932434283 0.73900002 8.369604001e-39
0.20692 1.932434283 0.73900002 8.55399386e-39
0.20381714 1.933897138 0.72300005 8.830219215e-39
0.20491049 1.933988571 0.72200006 9.105372576e-39
0.20628573 1.933988571 0.72200006 9.564557063e-39
0.20766097 1.933988571 0.72200006 1.011665605e-38
0.20845714 1.934171423 0.72000003 1.222995846e-38
0.20982857 1.934171423 0.72000003 1.435042572e-38
0.21120001 1.934171423 0.72000003 1.435616404e-38
0.21257144 1.934171423 0.72000003 1.444657021e-38
0.21394287 1.934171423 0.72000003 1.41696344e-38
0.21531428 1.934171423 0.72000003 1.398452427e-38
0.21728764 1.933988571 0.72200006 1.407492204e-38
0.21896572 1.933897138 0.72300005 1.425930068e-38
0.22034287 1.933897138 0.72300005 1.407633875e-38
0.22233334 1.933714278 0.72500002 1.398378158e-38
0.22309716 1.933897138 0.72300005 1.324873468e-38
0.22509524 1.933714278 0.72500002 1.260409254e-38
0.22585143 1.933897138 0.72300005 1.260265901e-38
0.22722858 1.933897138 0.72300005 1.260087796e-38
0.22860572 1.933897138 0.72300005 1.223175493e-38
0.23061906 1.933714278 0.72500002 1.195552117e-38
0.23232 1.933622859 0.72600001 1.241397137e-38
0.23370285 1.933622859 0.72600001 1.296426408e-38
0.23573335 1.93344 0.72800004 1.305573804e-38
0.23744573 1.933348574 0.72900003 1.324155022e-38
0.23948953 1.933165714 0.73100001 1.306037914e-38
0.24121144 1.933074281 0.73200005 1.296603532e-38
0.24326858 1.932891428 0.73400003 1.222884163e-38
0.24533336 1.932708569 0.73600006 1.149524227e-38
0.24774097 1.932434283 0.73900002 1.167999646e-38
0.2494857 1.932342857 0.74000001 1.186510378e-38
0.25089523 1.932342857 0.74000001 1.232715393e-38
0.25230476 1.932342857 0.74000001 1.279028447e-38
0.25371426 1.932342857 0.74000001 1.325054656e-38
0.25581333 1.932159998 0.74200004 1.371223797e-38
0.25757337 1.932068571 0.74300003 1.389662923e-38
0.25898859 1.932068571 0.74300003 1.408137782e-38
0.26110479 1.931885712 0.74500006 1.408209808e-38
0.26252383 1.931885712 0.74500006 1.417429792e-38
0.26465142 1.931702852 0.74700004 1.426649775e-38
0.2660743 1.931702852 0.74700004 1.445053869e-38
0.26785526 1.931611434 0.74800003 1.445090723e-38
0.27000004 1.931428567 0.75000006 1.454237558e-38
0.27215239 1.931245714 0.75200003 1.435869478e-38
0.27394855 1.931154281 0.75300002 1.417430493e-38
0.27611428 1.930971429 0.75500005 1.408246803e-38
0.27865526 1.930697136 0.75800002 1.39902696e-38
0.28009903 1.930697136 0.75800002 1.398990806e-38
0.28154284 1.930697136 0.75800002 1.398918639e-38
0.29456002 1.927862853 0.78900003 1.444728487e-38
0.29606289 1.927862853 0.78900003 1.490610923e-38
0.2975657 1.927862853 0.78900003 1.453877285e-38
0.29906857 1.927862853 0.78900003 1.417178399e-38
0.30209523 1.927497141 0.79300004 1.408101908e-38
0.30437142 1.927314289 0.79500002 1.408137501e-38
0.30665523 1.927131422 0.79700005 1.371474769e-38
0.30817336 1.927131422 0.79700005 1.34378371e-38
0.31008002 1.927039996 0.79800004 1.343858399e-38
0.31238094 1.926857144 0.80000001 1.344255107e-38
0.31390476 1.926857144 0.80000001 1.280367108e-38
0.19812572 1.929455236 0.78800005 1.104619617e-38
0.19912 1.929634281 0.78600001 1.058809068e-38
0.20010668 1.929813325 0.78400004 9.573233903e-39
0.2016 1.929813325 0.78400004 8.650558738e-39
0.19428572 1.932857133 0.75000006 8.559067962e-39
0.1951924 1.933036186 0.74800003 8.467941523e-39
0.19661716 1.933036186 0.74800003 8.190991697e-39
0.19777715 1.933125712 0.74700004 7.914037667e-39
0.19866669 1.933304757 0.74500006 8.188814079e-39
0.20008573 1.933304757 0.74500006 8.463591892e-39
0.20096381 1.933483809 0.74300003 8.371746587e-39
0.20237906 1.933483809 0.74300003 8.280274027e-39
0.20352001 1.933573335 0.74200004 8.371754995e-39
0.20438096 1.93375238 0.74000001 8.46323316e-39
0.20579048 1.93375238 0.74000001 8.645470624e-39
0.20692 1.933841899 0.73900002 8.735150923e-39
0.20748192 1.93411047 0.73600006 8.826983616e-39
0.20519429 1.935274281 0.72300005 9.01066722e-39
0.20657143 1.935274281 0.72300005 9.195787155e-39
0.20766097 1.935363807 0.72200006 9.379462351e-39
0.20903622 1.935363807 0.72200006 1.121833027e-38
0.20982857 1.935542859 0.72000003 1.305897644e-38
0.21178669 1.935363807 0.72200006 1.324765988e-38
0.21257144 1.935542859 0.72000003 1.343636013e-38
0.21453716 1.935363807 0.72200006 1.343349868e-38
0.2159124 1.935363807 0.72200006 1.352282165e-38
0.21728764 1.935363807 0.72200006 1.315619573e-38
0.21896572 1.935274281 0.72300005 1.278992013e-38
0.22095238 1.935095236 0.72500002 1.260659806e-38
0.22264001 1.93500571 0.72600001 1.233181044e-38
0.22402285 1.93500571 0.72600001 1.223603169e-38
0.22540572 1.93500571 0.72600001 1.214061308e-38
0.22678858 1.93500571 0.72600001 1.241469024e-38
0.22817142 1.93500571 0.72600001 1.259693471e-38
0.22955428 1.93500571 0.72600001 1.278097284e-38
0.23093715 1.93500571 0.72600001 1.287316567e-38
0.23296002 1.934826657 0.72800004 1.296679483e-38
0.23434667 1.934826657 0.72800004 1.296857868e-38
0.23573335 1.934826657 0.72800004 1.278489928e-38
0.23744573 1.934737146 0.72900003 1.250938298e-38
0.23948953 1.934558101 0.73100001 1.287671656e-38
0.24088189 1.934558101 0.73100001 1.315257898e-38
0.24260573 1.934468567 0.73200005 1.306110081e-38
0.24533336 1.93411047 0.73600006 1.306182809e-38
0.2480762 1.93375238 0.74000001 1.296785001e-38
0.2494857 1.93375238 0.74000001 1.296570041e-38
0.25157332 1.933573335 0.74200004 1.297036674e-38
0.25298667 1.933573335 0.74200004 1.297610926e-38
0.25440001 1.933573335 0.74200004 1.325233601e-38
0.25615808 1.933483809 0.74300003 1.352963476e-38
0.25757337 1.933483809 0.74300003 1.371366449e-38
0.25968572 1.933304757 0.74500006 1.389770122e-38
0.26110479 1.933304757 0.74500006 1.389806836e-38
0.26252383 1.933304757 0.74500006 1.389807537e-38
0.26465142 1.933125712 0.74700004 1.398991927e-38
0.2664305 1.933036186 0.74800003 1.408213172e-38
0.26857147 1.932857133 0.75000006 1.40817912e-38
0.27072001 1.932678096 0.75200003 1.417360988e-38
0.27251428 1.93258857 0.75300002 1.408175897e-38
0.27394855 1.93258857 0.75300002 1.39902738e-38
0.27648002 1.932319999 0.75600004 1.380695453e-38
0.27792001 1.932319999 0.75600004 1.371511764e-38
0.2808381 1.931961901 0.76000005 1.37147589e-38
0.28228572 1.931961901 0.76000005 1.380623427e-38
0.29418668 1.929455236 0.78800005 1.398847033e-38
0.29568762 1.929455236 0.78800005 1.426290622e-38
0.2975657 1.929365717 0.78900003 1.41717938e-38
0.29982665 1.929186665 0.79100001 1.417215253e-38
0.30209523 1.929007612 0.79300004 1.417251126e-38
0.30437142 1.928828567 0.79500002 1.426541735e-38
0.30665523 1.928649515 0.79700005 1.38055168e-38
0.30817336 1.928649515 0.79700005 1.343781889e-38
0.31008002 1.928559996 0.79800004 1.353001732e-38
0.31238094 1.928380951 0.80000001 1.352895513e-38
0.31468952 1.928201906 0.80200005 1.29804687e-38
0.31621715 1.928201906 0.80200005 1.252380935e-38
0.19812572 1.930956192 0.78800005 1.114914397e-38
0.19962668 1.930956192 0.78800005 1.068422256e-38
0.20061715 1.931131423 0.78600001 9.566766911e-39
0.20211428 1.931131423 0.78600001 8.555836567e-39
0.19428572 1.934285708 0.75000006 8.279948926e-39
0.19571429 1.934285708 0.75000006 8.009096149e-39
0.19661716 1.934460953 0.74800003 7.638517165e-39
0.19777715 1.934548564 0.74700004 7.27009478e-39
0.19866669 1.934723802 0.74500006 7.820386088e-39
0.20008573 1.934723802 0.74500006 8.372109523e-39
0.20096381 1.934899047 0.74300003 8.372459848e-39
0.20237906 1.934899047 0.74300003 8.463940815e-39
0.20352001 1.934986658 0.74200004 8.557215445e-39
0.20438096 1.935161904 0.74000001 8.73945431e-39
0.20579048 1.935161904 0.74000001 8.82985768e-39
0.20692 1.935249522 0.73900002 9.013524468e-39
0.20635429 1.935862854 0.73200005 8.921686169e-39
0.20604572 1.936388575 0.72600001 8.920975711e-39
0.20714286 1.936476186 0.72500002 8.828431158e-39
0.20794858 1.936651424 0.72300005 8.73659426e-39
0.20903622 1.936739042 0.72200006 1.029851516e-38
0.21041144 1.936739042 0.72200006 1.186330592e-38
0.21178669 1.936739042 0.72200006 1.21409648e-38
0.21316193 1.936739042 0.72200006 1.241719716e-38
0.21453716 1.936739042 0.72200006 1.278526502e-38
0.21621144 1.936651424 0.72300005 1.314973014e-38
0.21819048 1.936476186 0.72500002 1.222885844e-38
0.21987428 1.936388575 0.72600001 1.140053971e-38
0.22125715 1.936388575 0.72600001 1.103139986e-38
0.22325334 1.936213329 0.72800004 1.075805277e-38
0.22464001 1.936213329 0.72800004 1.121938825e-38
0.22602668 1.936213329 0.72800004 1.17700481e-38
0.22741334 1.936213329 0.72800004 1.222923119e-38
0.22880001 1.936213329 0.72800004 1.2690924e-38
0.23018667 1.936213329 0.72800004 1.324839837e-38
0.23157334 1.936213329 0.72800004 1.389088951e-38
0.23328002 1.936125711 0.72900003 1.34313547e-38
0.23466858 1.936125711 0.72900003 1.306329104e-38
0.23605716 1.936125711 0.72900003 1.242008103e-38
0.23744573 1.936125711 0.72900003 1.186798766e-38
0.23883429 1.936125711 0.72900003 1.260158982e-38
0.24088189 1.93595048 0.73100001 1.342810789e-38
0.24227428 1.93595048 0.73100001 1.397696707e-38
0.24533336 1.935512379 0.73600006 1.462304553e-38
0.24908191 1.934899047 0.74300003 1.435041031e-38
0.25016004 1.934986658 0.74200004 1.416566031e-38
0.25191239 1.934899047 0.74300003 1.370576257e-38
0.25332764 1.934899047 0.74300003 1.324981508e-38
0.25542858 1.934723802 0.74500006 1.334488057e-38
0.25684765 1.934723802 0.74500006 1.343672167e-38
0.25826669 1.934723802 0.74500006 1.362362686e-38
0.26038286 1.934548564 0.74700004 1.380586572e-38
0.26180574 1.934548564 0.74700004 1.371439316e-38
0.26358095 1.934460953 0.74800003 1.362256327e-38
0.26500574 1.934460953 0.74800003 1.371440578e-38
0.26714289 1.934285708 0.75000006 1.380589515e-38
0.26964572 1.934022859 0.75300002 1.380554903e-38
0.27107999 1.934022859 0.75300002 1.380553782e-38
0.27323812 1.933847614 0.75500005 1.380552801e-38
0.27504003 1.933760002 0.75600004 1.380623987e-38
0.27721146 1.933584765 0.75800002 1.362328214e-38
0.27865526 1.933584765 0.75800002 1.343960694e-38
0.2808381 1.933409519 0.76000005 1.353179697e-38
0.28228572 1.933409519 0.76000005 1.362255767e-38
0.29418668 1.930956192 0.78800005 1.36218402e-38
0.29568762 1.930956192 0.78800005 1.371332397e-38
0.2975657 1.930868566 0.78900003 1.389700197e-38
0.29982665 1.930693328 0.79100001 1.41717994e-38
0.30209523 1.930518098 0.79300004 1.426328317e-38
0.30437142 1.930342861 0.79500002 1.444658422e-38
0.3058857 1.930342861 0.79500002 1.398739693e-38
0.30817336 1.930167615 0.79700005 1.352965298e-38
0.31008002 1.930080004 0.79800004 1.362292201e-38
0.31238094 1.929904766 0.80000001 1.371333238e-38
0.31468952 1.929729521 0.80200005 1.325308991e-38
0.31621715 1.929729521 0.80200005 1.279463971e-38
0.19812572 1.932457142 0.78800005 1.188274473e-38
0.19912 1.932628572 0.78600001 1.142356164e-38
0.20061715 1.932628572 0.78600001 1.068241489e-38
0.2016 1.932799995 0.78400004 1.00330784e-38
0.19376762 1.935885713 0.74800003 1.003161405e-38
0.1951924 1.935885713 0.74800003 9.93833381e-39
0.19661716 1.935885713 0.74800003 8.833069456e-39
0.1980419 1.935885713 0.74800003 7.727819114e-39
0.19866669 1.936142854 0.74500006 8.004407405e-39
0.20008573 1.936142854 0.74500006 8.280984485e-39
0.20150478 1.936142854 0.74500006 8.280621549e-39
0.20237906 1.936314285 0.74300003 8.188431524e-39
0.20379429 1.936314285 0.74300003 8.280629957e-39
0.20493335 1.936399996 0.74200004 8.464662484e-39
0.20579048 1.936571434 0.74000001 8.83164994e-39
0.20692 1.936657138 0.73900002 9.290464485e-39
0.20832762 1.936657138 0.73900002 9.107149422e-39
0.20916763 1.936828569 0.73700005 8.923838564e-39
0.20742857 1.937771425 0.72600001 8.830210807e-39
0.20794858 1.938028567 0.72300005 8.828770272e-39
0.20932573 1.938028567 0.72300005 9.380853841e-39
0.21041144 1.938114282 0.72200006 1.002478692e-38
0.21208002 1.938028567 0.72300005 1.029994448e-38
0.21345717 1.938028567 0.72300005 1.057510065e-38
0.2148343 1.938028567 0.72300005 1.084954075e-38
0.21680953 1.937857144 0.72500002 1.112431856e-38
0.21849142 1.937771425 0.72600001 1.094171256e-38
0.22048001 1.937599998 0.72800004 1.0845931e-38
0.22186668 1.937599998 0.72800004 1.09399203e-38
0.22356001 1.937514286 0.72900003 1.09420825e-38
0.22494859 1.937514286 0.72900003 1.140234739e-38
0.22633715 1.937514286 0.72900003 1.18629654e-38
0.22772573 1.937514286 0.72900003 1.222959693e-38
0.22911429 1.937514286 0.72900003 1.260160103e-38
0.23050287 1.937514286 0.72900003 1.306436584e-38
0.23189144 1.937514286 0.72900003 1.361538162e-38
0.23328002 1.937514286 0.72900003 1.324696764e-38
0.23466858 1.937514286 0.72900003 1.288321578e-38
0.23605716 1.937514286 0.72900003 1.260591843e-38
0.23744573 1.937514286 0.72900003 1.232897562e-38
0.23883429 1.937514286 0.72900003 1.287855366e-38
0.24022286 1.937514286 0.72900003 1.352032454e-38
0.24128 1.937599998 0.72800004 1.425536584e-38
0.24266668 1.937599998 0.72800004 1.499040153e-38
0.24405335 1.937599998 0.72800004 1.462556507e-38
0.24544001 1.937599998 0.72800004 1.43504075e-38
0.25259051 1.936142854 0.74500006 1.361571513e-38
0.25469145 1.935971424 0.74700004 1.288103116e-38
0.25645715 1.935885713 0.74800003 1.297466032e-38
0.25857145 1.935714282 0.75000006 1.306865942e-38
0.26000002 1.935714282 0.75000006 1.306938949e-38
0.26142859 1.935714282 0.75000006 1.316194105e-38
0.26285717 1.935714282 0.75000006 1.316229979e-38
0.26499048 1.935542859 0.75200003 1.307118596e-38
0.26642287 1.935542859 0.75200003 1.325378636e-38
0.26785526 1.935542859 0.75200003 1.343638816e-38
0.26964572 1.93545714 0.75300002 1.34367539e-38
0.27180001 1.93528571 0.75500005 1.352894392e-38
0.27360001 1.935199998 0.75600004 1.343818042e-38
0.27576762 1.935028568 0.75800002 1.343889508e-38
0.27794287 1.934857145 0.76000005 1.334741552e-38
0.27939048 1.934857145 0.76000005 1.334776724e-38
0.28120762 1.934771426 0.76100004 1.3439237e-38
0.29194286 1.932628572 0.78600001 1.353071517e-38
0.29343998 1.932628572 0.78600001 1.362255346e-38
0.29493713 1.932628572 0.78600001 1.371439737e-38
0.2975657 1.93237143 0.78900003 1.398847733e-38
0.29982665 1.9322 0.79100001 1.417072881e-38
0.30209523 1.932028569 0.79300004 1.453808621e-38
0.30437142 1.931857139 0.79500002 1.490469391e-38
0.3058857 1.931857139 0.79500002 1.444657722e-38
0.30817336 1.931685708 0.79700005 1.389699216e-38
0.31008002 1.931600004 0.79800004 1.389806275e-38
0.31238094 1.931428574 0.80000001 1.380623427e-38
0.31468952 1.931257136 0.80200005 1.343710563e-38
0.31700572 1.931085713 0.80400002 1.306870005e-38
0.31853715 1.931085713 0.80400002 1.21525101e-38
0.19812572 1.933958091 0.78800005 1.271000128e-38
0.19861333 1.93429333 0.78400004 1.215897989e-38
0.19959621 1.934460945 0.78200006 1.188382513e-38
0.20057143 1.934628576 0.78000003 1.160616205e-38
0.19376762 1.937310472 0.74800003 1.178767644e-38
0.1951924 1.937310472 0.74800003 1.196846356e-38
0.1963543 1.937394284 0.74700004 1.01292285e-38
0.1980419 1.937310472 0.74800003 8.285676033e-39
0.1992 1.937394284 0.74700004 8.27703983e-39
0.20008573 1.937561899 0.74500006 8.277399964e-39
0.20204572 1.937394284 0.74700004 8.094089105e-39
0.20292383 1.937561899 0.74500006 8.003332609e-39
0.20379429 1.937729523 0.74300003 8.096248506e-39
0.20520952 1.937729523 0.74300003 8.188451143e-39
0.20662476 1.937729523 0.74300003 8.923862386e-39
0.20776001 1.93781333 0.74200004 9.65781768e-39
0.20860954 1.93798095 0.74000001 9.293334344e-39
0.20973523 1.938064758 0.73900002 8.923839965e-39
0.21114287 1.938064758 0.73900002 8.923839965e-39
0.20794858 1.93940571 0.72300005 8.923837162e-39
0.20932573 1.93940571 0.72300005 8.556849706e-39
0.21070288 1.93940571 0.72300005 8.188797263e-39
0.21266666 1.939238094 0.72500002 8.463952026e-39
0.21404761 1.939238094 0.72500002 8.739462718e-39
0.21542858 1.939238094 0.72500002 8.91955059e-39
0.21710858 1.939154286 0.72600001 9.103929238e-39
0.21909335 1.938986663 0.72800004 9.746767902e-39
0.22078286 1.938902859 0.72900003 1.039141144e-38
0.22217144 1.938902859 0.72900003 1.076090862e-38
0.22356001 1.938902859 0.72900003 1.122153364e-38
0.22556572 1.938735235 0.73100001 1.15906805e-38
0.2269581 1.938735235 0.73100001 1.204807132e-38
0.22835048 1.938735235 0.73100001 1.223031299e-38
0.22974285 1.938735235 0.73100001 1.250905228e-38
0.23050287 1.938902859 0.72900003 1.297648621e-38
0.23189144 1.938902859 0.72900003 1.343387283e-38
0.23391999 1.938735235 0.73100001 1.306258899e-38
0.23531239 1.938735235 0.73100001 1.269740921e-38
0.23605716 1.938902859 0.72900003 1.269957001e-38
0.23712002 1.938986663 0.72800004 1.279103697e-38
0.23850669 1.938986663 0.72800004 1.324984591e-38
0.23989335 1.938986663 0.72800004 1.370651086e-38
0.24128 1.938986663 0.72800004 1.453231146e-38
0.24266668 1.938986663 0.72800004 1.535954419e-38
0.24338286 1.939154286 0.72600001 1.499291546e-38
0.24476571 1.939154286 0.72600001 1.462555946e-38
0.25428575 1.937142849 0.75000006 1.352387823e-38
0.2557143 1.937142849 0.75000006 1.251225424e-38
