# .PCD v0.7 - Point Cloud Data file format
VERSION 0.7
FIELDS x y z rgb
SIZE 4 4 4 4
TYPE F F F F
COUNT 1 1 1 1
WIDTH 962
HEIGHT 1
VIEWPOINT 0 0 0 1 0 0 0
POINTS 962
DATA ascii
-0.46633142 1.88149333 0.80800003 1.299093219e-38
-0.4647924 1.88149333 0.80800003 1.289441356e-38
-0.4621067 1.88178666 0.80600005 1.289691768e-38
-0.46057147 1.88178666 0.80600005 1.279826066e-38
-0.45789716 1.88208 0.80400002 1.27953894e-38
-0.45636573 1.88208 0.80400002 1.233621192e-38
-0.45483431 1.88208 0.80400002 1.197135023e-38
-0.45443052 1.88178666 0.80600005 1.178693235e-38
-0.45401907 1.88149333 0.80800003 1.169470729e-38
-0.45247999 1.88149333 0.80800003 1.095712404e-38
-0.45205718 1.88119999 0.81000006 1.021993314e-38
-0.45162666 1.88090666 0.81200004 9.387678164e-39
-0.45118859 1.88061333 0.81400001 8.647641235e-39
-0.44853336 1.88090666 0.81200004 7.911551763e-39
-0.44698668 1.88090666 0.81200004 7.175423055e-39
-0.44544002 1.88090666 0.81200004 6.532924907e-39
-0.44280002 1.88119999 0.81000006 5.890437969e-39
-0.44125718 1.88119999 0.81000006 6.534006709e-39
-0.43862858 1.88149333 0.80800003 7.177567042e-39
-0.43708956 1.88149333 0.80800003 6.442160003e-39
-0.42962098 1.88310666 0.79700005 5.79176834e-39
-0.42864001 1.88296 0.79800004 5.425852877e-39
-0.42712 1.88296 0.79800004 5.059941618e-39
-0.42560002 1.88296 0.79800004 3.866075964e-39
-0.42408001 1.88296 0.79800004 2.764421355e-39
-0.42256001 1.88296 0.79800004 3.219308059e-39
-0.42104 1.88296 0.79800004 3.772820953e-39
-0.42057142 1.88266666 0.80000001 3.861775379e-39
-0.41904762 1.88266666 0.80000001 4.045087639e-39
-0.4175238 1.88266666 0.80000001 4.319519332e-39
-0.41704002 1.88237333 0.80200005 4.68649838e-39
-0.41447619 1.88266666 0.80000001 5.695608437e-39
-0.41295239 1.88266666 0.80000001 6.704726901e-39
-0.41142857 1.88266666 0.80000001 6.709037295e-39
-0.41092953 1.88237333 0.80200005 6.805192995e-39
-0.40940192 1.88237333 0.80200005 6.620819952e-39
-0.40889141 1.88208 0.80400002 6.436425889e-39
-0.40837336 1.88178666 0.80600005 6.251674496e-39
-0.40784764 1.88149333 0.80800003 6.066906287e-39
-0.4073143 1.88119999 0.81000006 5.791021448e-39
-0.40577146 1.88119999 0.81000006 5.515154826e-39
-0.4042286 1.88119999 0.81000006 5.239646936e-39
-0.40368 1.88090666 0.81200004 4.96414325e-39
-0.4031238 1.88061333 0.81400001 4.688639564e-39
-0.40305334 1.88017333 0.81700003 4.413140082e-39
-0.40346286 1.87958666 0.82100004 4.23127116e-39
-0.40385714 1.87899999 0.82500005 4.049776384e-39
-0.40326095 1.87870666 0.82700002 4.141635702e-39
-0.40265718 1.87841333 0.82900006 4.233454383e-39
-0.4010781 1.87841333 0.82900006 3.957931079e-39
-0.40046287 1.87812 0.83100003 3.682420386e-39
-0.40080002 1.87753332 0.83500004 4.049758167e-39
-0.39920953 1.87753332 0.83500004 4.509306992e-39
-0.39857143 1.87724001 0.83700001 4.691557068e-39
-0.39792573 1.87694666 0.83900005 4.873790328e-39
-0.39727238 1.87665333 0.84100002 5.059253581e-39
-0.39567047 1.87665333 0.84100002 5.244733649e-39
-0.39594287 1.87606666 0.84500003 4.322808179e-39
-0.39573336 1.87562666 0.84800005 3.39904841e-39
-0.39411813 1.87562666 0.84800005 5.885041568e-39
-0.39250287 1.87562666 0.84800005 8.478742731e-39
-0.47248763 1.88303238 0.80800003 1.115061533e-38
-0.47094858 1.88303238 0.80800003 1.151651818e-38
-0.47057146 1.88274285 0.81000006 1.197463488e-38
-0.46902859 1.88274285 0.81000006 1.234486073e-38
-0.46633142 1.88303238 0.80800003 1.280294941e-38
-0.4647924 1.88303238 0.80800003 1.289369469e-38
-0.46325335 1.88303238 0.80800003 1.298444979e-38
-0.46057147 1.8833219 0.80600005 1.34429056e-38
-0.45789716 1.88361143 0.80400002 1.399032985e-38
-0.45636573 1.88361143 0.80400002 1.325564448e-38
-0.45596576 1.8833219 0.80600005 1.252309329e-38
-0.45555812 1.88303238 0.80800003 1.24326731e-38
-0.45401907 1.88303238 0.80800003 1.234153405e-38
-0.45247999 1.88303238 0.80800003 1.188341175e-38
-0.45317337 1.88245333 0.81200004 1.150925805e-38
-0.45273906 1.88216381 0.81400001 1.086497885e-38
-0.45118859 1.88216381 0.81400001 1.021316768e-38
-0.44853336 1.88245333 0.81200004 9.569966075e-39
-0.44698668 1.88245333 0.81200004 8.924963806e-39
-0.44544002 1.88245333 0.81200004 8.279962939e-39
-0.44280002 1.88274285 0.81000006 7.729661821e-39
-0.44016764 1.88303238 0.80800003 8.189549761e-39
-0.43862858 1.88303238 0.80800003 8.649078967e-39
-0.43708956 1.88303238 0.80800003 8.098417716e-39
-0.43447241 1.8833219 0.80600005 7.53986155e-39
-0.43078861 1.88390095 0.80200005 6.522129304e-39
-0.42819047 1.88419048 0.80000001 5.516958297e-39
-0.42666668 1.88419048 0.80000001 4.787293779e-39
-0.42514285 1.88419048 0.80000001 4.049043505e-39
-0.42361906 1.88419048 0.80000001 3.954000437e-39
-0.42104 1.88448 0.79800004 3.863227125e-39
-0.42057142 1.88419048 0.80000001 3.953256347e-39
-0.41904762 1.88419048 0.80000001 4.136588225e-39
-0.4175238 1.88419048 0.80000001 4.595427993e-39
-0.41600001 1.88419048 0.80000001 5.063929714e-39
-0.41447619 1.88419048 0.80000001 7.369142759e-39
-0.41295239 1.88419048 0.80000001 9.666458086e-39
-0.41245717 1.88390095 0.80200005 9.668246143e-39
-0.41092953 1.88390095 0.80200005 9.666093748e-39
-0.40940192 1.88390095 0.80200005 9.113287109e-39
-0.40889141 1.88361143 0.80400002 8.563337718e-39
-0.40837336 1.8833219 0.80600005 7.921912964e-39
-0.40784764 1.88303238 0.80800003 7.36837765e-39
-0.4073143 1.88274285 0.81000006 6.907036564e-39
-0.40577146 1.88274285 0.81000006 6.535029657e-39
-0.4042286 1.88274285 0.81000006 5.979711891e-39
-0.40368 1.88245333 0.81200004 5.425830456e-39
-0.4031238 1.88216381 0.81400001 4.96414325e-39
-0.40305334 1.88172952 0.81700003 4.596090807e-39
-0.40248004 1.88143999 0.81900007 4.411709357e-39
-0.40385714 1.88057142 0.82500005 4.229490109e-39
-0.40326095 1.8802819 0.82700002 4.231301988e-39
-0.40265718 1.87999237 0.82900006 4.323485007e-39
-0.4010781 1.87999237 0.82900006 3.680984055e-39
-0.40046287 1.87970285 0.83100003 3.038485907e-39
-0.39984003 1.87941332 0.83300006 3.494786522e-39
-0.39920953 1.87912381 0.83500004 4.045814913e-39
-0.39857143 1.87883428 0.83700001 4.138024556e-39
-0.39792573 1.87854476 0.83900005 4.322044472e-39
-0.39727238 1.87825524 0.84100002 4.504269324e-39
-0.39567047 1.87825524 0.84100002 4.780154163e-39
-0.39594287 1.87767619 0.84500003 4.137684041e-39
-0.39573336 1.87724189 0.84800005 3.584860586e-39
-0.39411813 1.87724189 0.84800005 5.603431024e-39
-0.39250287 1.87724189 0.84800005 7.64288221e-39
-0.47365716 1.88428571 0.81000006 1.115061953e-38
-0.47211432 1.88428571 0.81000006 1.151652799e-38
-0.47057146 1.88428571 0.81000006 1.188351404e-38
-0.46787047 1.88457143 0.80800003 1.225014137e-38
-0.46633142 1.88457143 0.80800003 1.270895311e-38
-0.4647924 1.88457143 0.80800003 1.270823004e-38
-0.46325335 1.88457143 0.80800003 1.270750977e-38
-0.46057147 1.88485713 0.80600005 1.298337359e-38
-0.45789716 1.88514286 0.80400002 1.325672488e-38
-0.45750099 1.88485713 0.80600005 1.279826206e-38
-0.45709717 1.88457143 0.80800003 1.234015097e-38
-0.45668575 1.88428571 0.81000006 1.224902453e-38
-0.45514289 1.88428571 0.81000006 1.215861135e-38
-0.45360002 1.88428571 0.81000006 1.169798773e-38
-0.45317337 1.884 0.81200004 1.132957375e-38
-0.45273906 1.88371429 0.81400001 1.06813485e-38
-0.45118859 1.88371429 0.81400001 1.012565378e-38
-0.4496381 1.88371429 0.81400001 9.574265259e-39
-0.44808763 1.88371429 0.81400001 9.02326069e-39
-0.44544002 1.884 0.81200004 8.561221757e-39
-0.44389334 1.884 0.81200004 8.099517735e-39
-0.44125718 1.88428571 0.81000006 8.283173314e-39
-0.43754289 1.88485713 0.80600005 8.467193229e-39
-0.43708956 1.88457143 0.80800003 8.375349325e-39
-0.43339431 1.88514286 0.80400002 8.290678668e-39
-0.43186286 1.88514286 0.80400002 7.737146157e-39
-0.42926097 1.88542857 0.80200005 7.183620651e-39
-0.42666668 1.88571429 0.80000001 6.996721067e-39
-0.42514285 1.88571429 0.80000001 6.803033594e-39
-0.42361906 1.88571429 0.80000001 6.803421753e-39
-0.42104 1.886 0.79800004 6.712286906e-39
-0.42057142 1.88571429 0.80000001 6.620435996e-39
-0.41904762 1.88571429 0.80000001 6.620476634e-39
-0.4175238 1.88571429 0.80000001 7.27018166e-39
-0.41600001 1.88571429 0.80000001 8.012038876e-39
-0.41447619 1.88571429 0.80000001 9.20948765e-39
-0.41295239 1.88571429 0.80000001 1.04987537e-38
-0.41245717 1.88542857 0.80200005 1.031147857e-38
-0.41092953 1.88542857 0.80200005 1.021926893e-38
-0.41042286 1.88514286 0.80400002 9.112924173e-39
-0.40889141 1.88514286 0.80400002 8.011596066e-39
-0.40837336 1.88485713 0.80600005 7.644234463e-39
-0.40784764 1.88457143 0.80800003 7.276891077e-39
-0.4073143 1.88428571 0.81000006 6.9063191e-39
-0.40577146 1.88428571 0.81000006 6.629735013e-39
-0.40522668 1.884 0.81200004 6.443911626e-39
-0.40467429 1.88371429 0.81400001 6.258446972e-39
-0.40361905 1.88357142 0.81500006 6.165176546e-39
-0.40305334 1.88328572 0.81700003 6.163747221e-39
-0.40149716 1.88328572 0.81700003 5.609871392e-39
-0.40287811 1.88242857 0.82300001 5.055999766e-39
-0.40228572 1.88214285 0.82500005 4.964534212e-39
-0.40265718 1.88157143 0.82900006 4.78157508e-39
-0.4010781 1.88157143 0.82900006 4.323828325e-39
-0.4014267 1.88099999 0.83300006 3.863920767e-39
-0.40080002 1.88071428 0.83500004 4.046504352e-39
-0.40016571 1.88042857 0.83700001 4.321311593e-39
-0.39857143 1.88042857 0.83700001 4.230570511e-39
-0.39792573 1.88014285 0.83900005 4.231985822e-39
-0.39727238 1.87985715 0.84100002 4.415638597e-39
-0.39567047 1.87985715 0.84100002 4.599332011e-39
-0.39594287 1.87928571 0.84500003 4.322414414e-39
-0.39433333 1.87928571 0.84500003 4.045820518e-39
-0.39411813 1.87885714 0.84800005 5.51123119e-39
-0.39250287 1.87885714 0.84800005 6.990694083e-39
-0.39088765 1.87885714 0.84800005 9.777020535e-39
-0.4759962 1.88526476 0.81400001 1.124209349e-38
-0.47328001 1.88554666 0.81200004 1.151652519e-38
-0.47057146 1.88582856 0.81000006 1.179131421e-38
-0.46787047 1.88611047 0.80800003 1.215829746e-38
-0.46633142 1.88611047 0.80800003 1.261675608e-38
-0.4647924 1.88611047 0.80800003 1.252455905e-38
-0.46325335 1.88611047 0.80800003 1.252419751e-38
-0.4617143 1.88611047 0.80800003 1.252383598e-38
-0.45903623 1.88639237 0.80600005 1.261604001e-38
-0.45750099 1.88639237 0.80600005 1.243309629e-38
-0.45709717 1.88611047 0.80800003 1.224940989e-38
-0.45668575 1.88582856 0.81000006 1.215755898e-38
-0.45514289 1.88582856 0.81000006 1.206535494e-38
-0.45360002 1.88582856 0.81000006 1.160294046e-38
-0.45317337 1.88554666 0.81200004 1.114447764e-38
-0.45273906 1.88526476 0.81400001 1.058951721e-38
-0.45118859 1.88526476 0.81400001 1.003454556e-38
-0.4496381 1.88526476 0.81400001 9.577150532e-39
-0.44698668 1.88554666 0.81200004 9.115463326e-39
-0.44544002 1.88554666 0.81200004 8.745611616e-39
-0.44280002 1.88582856 0.81000006 8.466140854e-39
-0.44125718 1.88582856 0.81000006 8.371418683e-39
-0.43862858 1.88611047 0.80800003 8.281009709e-39
-0.43708956 1.88611047 0.80800003 8.652648074e-39
-0.43447241 1.88639237 0.80600005 9.11181995e-39
-0.43293718 1.88639237 0.80600005 9.01998025e-39
-0.42926097 1.88695619 0.80200005 8.927794429e-39
-0.42773336 1.88695619 0.80200005 9.298014681e-39
-0.42620572 1.88695619 0.80200005 9.66464901e-39
-0.42361906 1.88723809 0.80000001 9.663941354e-39
-0.42209524 1.88723809 0.80000001 9.664671431e-39
-0.42057142 1.88723809 0.80000001 9.389895019e-39
-0.41904762 1.88723809 0.80000001 9.113690683e-39
-0.4175238 1.88723809 0.80000001 1.003170653e-38
-0.41600001 1.88723809 0.80000001 1.095364742e-38
-0.41447619 1.88723809 0.80000001 1.11416218e-38
-0.41295239 1.88723809 0.80000001 1.13245557e-38
-0.41245717 1.88695619 0.80200005 1.10468772e-38
-0.41092953 1.88695619 0.80200005 1.077280004e-38
-0.41042286 1.88667428 0.80400002 9.112939587e-39
-0.40889141 1.88667428 0.80400002 7.551000471e-39
-0.40837336 1.88639237 0.80600005 7.366952529e-39
-0.40784764 1.88611047 0.80800003 7.182195531e-39
-0.4073143 1.88582856 0.81000006 6.905603036e-39
-0.40577146 1.88582856 0.81000006 6.721585923e-39
-0.4042286 1.88582856 0.81000006 6.905270928e-39
-0.40368 1.88554666 0.81200004 7.086063654e-39
-0.40361905 1.8851238 0.81500006 7.361563136e-39
-0.40305334 1.8848419 0.81700003 7.726761134e-39
-0.40149716 1.8848419 0.81700003 6.814873164e-39
-0.40189907 1.8842781 0.82100004 5.976879867e-39
-0.40131047 1.88399619 0.82300001 5.610619685e-39
-0.40168571 1.88343238 0.82700002 5.334391528e-39
-0.4010781 1.88315047 0.82900006 4.966686607e-39
-0.4014267 1.88258666 0.83300006 4.690455647e-39
-0.40080002 1.88230476 0.83500004 4.600405405e-39
-0.40016571 1.88202286 0.83700001 4.600420819e-39
-0.39857143 1.88202286 0.83700001 4.41676384e-39
-0.39792573 1.88174095 0.83900005 4.231995631e-39
-0.39727238 1.88145905 0.84100002 4.325245037e-39
-0.39567047 1.88145905 0.84100002 4.508576915e-39
-0.39594287 1.88089523 0.84500003 4.508596534e-39
-0.39573336 1.88047238 0.84800005 4.597199234e-39
-0.39411813 1.88047238 0.84800005 5.419409707e-39
-0.39111429 1.88089523 0.84500003 6.351805679e-39
-0.38950476 1.88089523 0.84500003 9.503318919e-39
-0.4759962 1.88681524 0.81400001 1.133356886e-38
-0.47328001 1.88709334 0.81200004 1.151616505e-38
-0.47057146 1.88737142 0.81000006 1.178915761e-38
-0.46671242 1.88792761 0.80600005 1.224797356e-38
-0.46517718 1.88792761 0.80600005 1.270679371e-38
-0.4647924 1.88764952 0.80800003 1.261567848e-38
-0.46325335 1.88764952 0.80800003 1.243272075e-38
-0.4617143 1.88764952 0.80800003 1.243271654e-38
-0.45903623 1.88792761 0.80600005 1.234090347e-38
-0.45750099 1.88792761 0.80600005 1.215761363e-38
-0.45709717 1.88764952 0.80800003 1.206647458e-38
-0.45555812 1.88764952 0.80800003 1.178915341e-38
-0.45401907 1.88764952 0.80800003 1.160475794e-38
-0.45360002 1.88737142 0.81000006 1.123453909e-38
-0.45428953 1.88681524 0.81400001 1.086754743e-38
-0.45273906 1.88681524 0.81400001 1.031186253e-38
-0.45118859 1.88681524 0.81400001 9.760125079e-39
-0.4496381 1.88681524 0.81400001 9.392060025e-39
-0.44698668 1.88709334 0.81200004 9.02399497e-39
-0.44544002 1.88709334 0.81200004 8.654494986e-39
-0.44389334 1.88709334 0.81200004 8.282111129e-39
-0.44125718 1.88737142 0.81000006 8.096268124e-39
-0.43862858 1.88764952 0.80800003 7.819677031e-39
-0.43708956 1.88764952 0.80800003 8.738383718e-39
-0.43447241 1.88792761 0.80600005 9.565620649e-39
-0.43293718 1.88792761 0.80600005 1.021062152e-38
-0.43140191 1.88792761 0.80600005 1.085599793e-38
-0.42773336 1.8884838 0.80200005 1.104506813e-38
-0.42620572 1.8884838 0.80200005 1.12341103e-38
-0.42467812 1.8884838 0.80200005 1.095464794e-38
-0.42209524 1.8887619 0.80000001 1.076743166e-38
-0.42057142 1.8887619 0.80000001 1.058344398e-38
-0.41904762 1.8887619 0.80000001 1.039977018e-38
-0.4175238 1.8887619 0.80000001 1.095365162e-38
-0.41600001 1.8887619 0.80000001 1.159972588e-38
-0.41447619 1.8887619 0.80000001 1.141569476e-38
-0.41295239 1.8887619 0.80000001 1.123200134e-38
-0.41142857 1.8887619 0.80000001 1.104938553e-38
-0.41092953 1.8884838 0.80200005 1.077531817e-38
-0.41042286 1.88820571 0.80400002 9.019327245e-39
-0.40889141 1.88820571 0.80400002 7.365552632e-39
-0.40837336 1.88792761 0.80600005 7.180429895e-39
-0.40784764 1.88764952 0.80800003 7.087499985e-39
-0.40630859 1.88764952 0.80800003 6.720857248e-39
-0.40476954 1.88764952 0.80800003 6.44609625e-39
-0.4042286 1.88737142 0.81000006 6.536883575e-39
-0.40368 1.88709334 0.81200004 6.627984791e-39
-0.40361905 1.88667618 0.81500006 6.9027584e-39
-0.40206671 1.88667618 0.81500006 7.269754264e-39
-0.4005143 1.88667618 0.81500006 6.624407276e-39
-0.39994097 1.88639809 0.81700003 5.979406408e-39
-0.40033525 1.8858419 0.82100004 6.070165707e-39
-0.40168571 1.88500761 0.82700002 6.16056207e-39
-0.40011048 1.88500761 0.82700002 5.517710794e-39
-0.40046287 1.88445143 0.83100003 4.966334881e-39
-0.40080002 1.88389523 0.83500004 4.875572779e-39
-0.40016571 1.88361714 0.83700001 4.876301455e-39
-0.39857143 1.88361714 0.83700001 4.691924208e-39
-0.39792573 1.88333905 0.83900005 4.599347425e-39
-0.39821717 1.88278285 0.84300005 4.506054578e-39
-0.39661145 1.88278285 0.84300005 4.413158299e-39
-0.39594287 1.88250476 0.84500003 3.954354965e-39
-0.39573336 1.88208761 0.84800005 3.404062256e-39
-0.39411813 1.88208761 0.84800005 5.235395396e-39
-0.39250287 1.88208761 0.84800005 6.99861282e-39
-0.38950476 1.88250476 0.84500003 9.685567593e-39
-0.4759962 1.88836572 0.81400001 1.142540435e-38
-0.47328001 1.88863999 0.81200004 1.160763761e-38
-0.47057146 1.88891428 0.81000006 1.188241823e-38
-0.46671242 1.88946285 0.80600005 1.234087124e-38
-0.46633142 1.88918857 0.80800003 1.289080802e-38
-0.4647924 1.88918857 0.80800003 1.26149442e-38
-0.46325335 1.88918857 0.80800003 1.243196965e-38
-0.4617143 1.88918857 0.80800003 1.224899651e-38
-0.46017525 1.88918857 0.80800003 1.215647718e-38
-0.45863619 1.88918857 0.80800003 1.197248108e-38
-0.45709717 1.88918857 0.80800003 1.188027704e-38
-0.45555812 1.88918857 0.80800003 1.151292665e-38
-0.45401907 1.88918857 0.80800003 1.123525796e-38
-0.45360002 1.88891428 0.81000006 1.0957948e-38
-0.45317337 1.88863999 0.81200004 1.068135831e-38
-0.45162666 1.88863999 0.81200004 1.012639367e-38
-0.45008001 1.88863999 0.81200004 9.574659024e-39
-0.44853336 1.88863999 0.81200004 9.206954103e-39
-0.44808763 1.88836572 0.81400001 8.931086079e-39
-0.44544002 1.88863999 0.81200004 8.56338256e-39
-0.44389334 1.88863999 0.81200004 8.189551162e-39
-0.44125718 1.88891428 0.81000006 7.821460884e-39
-0.43862858 1.88918857 0.80800003 7.45161618e-39
-0.43708956 1.88918857 0.80800003 8.734809006e-39
-0.43447241 1.88946285 0.80600005 1.012167269e-38
-0.43293718 1.88946285 0.80600005 1.150889512e-38
-0.43033144 1.88973714 0.80400002 1.289037642e-38
-0.42773336 1.89001142 0.80200005 1.280248978e-38
-0.42620572 1.89001142 0.80200005 1.279783327e-38
-0.42361906 1.89028571 0.80000001 1.23365104e-38
-0.42209524 1.89028571 0.80000001 1.18769966e-38
-0.42057142 1.89028571 0.80000001 1.178518353e-38
-0.41904762 1.89028571 0.80000001 1.169263337e-38
-0.4175238 1.89028571 0.80000001 1.19674252e-38
-0.41600001 1.89028571 0.80000001 1.224366316e-38
-0.41447619 1.89028571 0.80000001 1.169661026e-38
-0.41295239 1.89028571 0.80000001 1.123632575e-38
-0.41245717 1.89001142 0.80200005 1.105190506e-38
-0.41092953 1.89001142 0.80200005 1.086572855e-38
-0.41042286 1.88973714 0.80400002 9.017543392e-39
-0.40889141 1.88973714 0.80400002 7.180459322e-39
-0.40837336 1.88946285 0.80600005 7.088248278e-39
-0.40683812 1.88946285 0.80600005 6.994235164e-39
-0.40530288 1.88946285 0.80600005 6.625072893e-39
-0.40476954 1.88918857 0.80800003 6.258828125e-39
-0.40323049 1.88918857 0.80800003 6.259926743e-39
-0.40368 1.88863999 0.81200004 6.260281271e-39
-0.40361905 1.88822857 0.81500006 6.535783556e-39
-0.40206671 1.88822857 0.81500006 6.810222255e-39
-0.4005143 1.88822857 0.81500006 6.349978386e-39
-0.39896193 1.88822857 0.81500006 5.977968676e-39
-0.39740956 1.88822857 0.81500006 6.437860819e-39
-0.40168571 1.88658285 0.82700002 6.987786388e-39
-0.40011048 1.88658285 0.82700002 6.160538248e-39
-0.40046287 1.88603429 0.83100003 5.333672662e-39
-0.40080002 1.88548571 0.83500004 5.242925974e-39
-0.39920953 1.88548571 0.83500004 5.152173682e-39
-0.39761907 1.88548571 0.83500004 5.057116601e-39
-0.39697716 1.88521143 0.83700001 4.966329276e-39
-0.39821717 1.88438857 0.84300005 4.688282233e-39
-0.39661145 1.88438857 0.84300005 4.412784152e-39
-0.39594287 1.88411428 0.84500003 3.311125339e-39
-0.39573336 1.88370285 0.84800005 2.300597168e-39
-0.39411813 1.88370285 0.84800005 4.959902921e-39
-0.39250287 1.88370285 0.84800005 7.740482648e-39
-0.46671242 1.89099809 0.80600005 1.215539257e-38
-0.46633142 1.89072761 0.80800003 1.261564485e-38
-0.4647924 1.89072761 0.80800003 1.243089766e-38
-0.46325335 1.89072761 0.80800003 1.224647277e-38
-0.4617143 1.89072761 0.80800003 1.206240801e-38
-0.46017525 1.89072761 0.80800003 1.197061595e-38
-0.45863619 1.89072761 0.80800003 1.178591361e-38
-0.45822862 1.89045713 0.81000006 1.160152795e-38
-0.45668575 1.89045713 0.81000006 1.123311397e-38
-0.45514289 1.89045713 0.81000006 1.095328868e-38
-0.45472002 1.89018666 0.81200004 1.058665155e-38
-0.45428953 1.88991619 0.81400001 1.031185832e-38
-0.45162666 1.89018666 0.81200004 9.849808181e-39
-0.45008001 1.89018666 0.81200004 9.387758038e-39
-0.44853336 1.89018666 0.81200004 9.02149085e-39
-0.44698668 1.89018666 0.81200004 8.655223661e-39
-0.44544002 1.89018666 0.81200004 8.008787864e-39
-0.44280002 1.89045713 0.81000006 7.362308626e-39
-0.44125718 1.89045713 0.81000006 7.452308422e-39
-0.43862858 1.89072761 0.80800003 7.534839296e-39
-0.43708956 1.89072761 0.80800003 9.480627693e-39
-0.43447241 1.89099809 0.80600005 1.133133519e-38
-0.43293718 1.89099809 0.80600005 1.206710376e-38
-0.43033144 1.89126857 0.80400002 1.271101722e-38
-0.42773336 1.89153904 0.80200005 1.270992981e-38
-0.42620572 1.89153904 0.80200005 1.280071293e-38
-0.42361906 1.89180952 0.80000001 1.243016618e-38
-0.42209524 1.89180952 0.80000001 1.20617494e-38
-0.42057142 1.89180952 0.80000001 1.187843994e-38
-0.41904762 1.89180952 0.80000001 1.169513469e-38
-0.4175238 1.89180952 0.80000001 1.178410873e-38
-0.41600001 1.89180952 0.80000001 1.187740999e-38
-0.41447619 1.89180952 0.80000001 1.15108163e-38
-0.41295239 1.89180952 0.80000001 1.114414974e-38
-0.41245717 1.89153904 0.80200005 1.040727274e-38
-0.41092953 1.89153904 0.80200005 9.762636206e-39
-0.40940192 1.89153904 0.80200005 8.650212618e-39
-0.40889141 1.89126857 0.80400002 7.453465894e-39
-0.40735999 1.89126857 0.80400002 7.178304125e-39
-0.4058286 1.89126857 0.80400002 6.901329076e-39
-0.40530288 1.89099809 0.80600005 6.534312192e-39
-0.40376765 1.89099809 0.80600005 6.075866189e-39
-0.40323049 1.89072761 0.80800003 5.98440484e-39
-0.40368 1.89018666 0.81200004 5.892935083e-39
-0.40361905 1.88978095 0.81500006 5.984061522e-39
-0.40206671 1.88978095 0.81500006 6.075185158e-39
-0.4005143 1.88978095 0.81500006 5.704261455e-39
-0.39994097 1.88951047 0.81700003 5.425878101e-39
-0.39838478 1.88951047 0.81700003 5.518424055e-39
-0.40168571 1.88815809 0.82700002 5.611317532e-39
-0.40011048 1.88815809 0.82700002 5.333999164e-39
-0.40046287 1.88761714 0.83100003 4.966685206e-39
-0.39984003 1.88734666 0.83300006 4.784118436e-39
-0.39920953 1.88707618 0.83500004 4.601526444e-39
-0.39761907 1.88707618 0.83500004 5.059273199e-39
-0.39697716 1.88680571 0.83700001 5.425145222e-39
-0.39727238 1.88626476 0.84100002 5.332199897e-39
-0.39661145 1.88599428 0.84300005 5.147454109e-39
-0.39734861 1.88531809 0.84800005 4.228383084e-39
-0.39666668 1.88504761 0.85000002 3.217514397e-39
-0.39504763 1.88504761 0.85000002 6.626587696e-39
-0.46748576 1.89199999 0.81000006 1.233872024e-38
-0.4647924 1.89226667 0.80800003 1.215541639e-38
-0.46325335 1.89226667 0.80800003 1.206355287e-38
-0.4617143 1.89226667 0.80800003 1.188021258e-38
-0.46017525 1.89226667 0.80800003 1.178696878e-38
-0.45863619 1.89226667 0.80800003 1.160188949e-38
-0.45822862 1.89199999 0.81000006 1.141677936e-38
-0.45781335 1.89173333 0.81200004 1.104835697e-38
-0.45514289 1.89199999 0.81000006 1.068028912e-38
-0.45472002 1.89173333 0.81200004 1.031257999e-38
-0.45317337 1.89173333 0.81200004 1.003419804e-38
-0.45162666 1.89173333 0.81200004 9.665416921e-39
-0.45008001 1.89173333 0.81200004 9.295561007e-39
-0.4496381 1.89146667 0.81400001 8.836021991e-39
-0.44808763 1.89146667 0.81400001 8.466533218e-39
-0.44544002 1.89173333 0.81200004 7.5463916e-39
-0.44280002 1.89199999 0.81000006 6.625847811e-39
-0.44125718 1.89199999 0.81000006 7.175389424e-39
-0.43862858 1.89226667 0.80800003 7.724639568e-39
-0.43708956 1.89226667 0.80800003 1.013463471e-38
-0.43447241 1.89253333 0.80600005 1.261599657e-38
-0.43293718 1.89253333 0.80600005 1.26228223e-38
-0.43033144 1.8928 0.80400002 1.261670983e-38
-0.42880002 1.8928 0.80400002 1.270781385e-38
-0.42620572 1.89306666 0.80200005 1.279931584e-38
-0.42361906 1.89333333 0.80000001 1.252383457e-38
-0.42209524 1.89333333 0.80000001 1.224723507e-38
-0.42057142 1.89333333 0.80000001 1.19709943e-38
-0.41904762 1.89333333 0.80000001 1.169405709e-38
-0.4175238 1.89333333 0.80000001 1.1601151e-38
-0.41600001 1.89333333 0.80000001 1.150932531e-38
-0.41447619 1.89333333 0.80000001 1.123383004e-38
-0.41295239 1.89333333 0.80000001 1.10487059e-38
-0.41245717 1.89306666 0.80200005 9.84872778e-39
-0.41092953 1.89306666 0.80200005 8.744193502e-39
-0.40940192 1.89306666 0.80200005 8.28286783e-39
-0.40889141 1.8928 0.80400002 7.821525344e-39
-0.40735999 1.8928 0.80400002 7.362693983e-39
-0.4058286 1.8928 0.80400002 6.903126942e-39
-0.40429717 1.8928 0.80400002 6.443561301e-39
-0.40376765 1.89253333 0.80600005 5.984755165e-39
-0.40323049 1.89226667 0.80800003 5.709978753e-39
-0.40268573 1.89199999 0.81000006 5.524165175e-39
-0.4031238 1.89146667 0.81400001 5.431263291e-39
-0.40157333 1.89146667 0.81400001 5.428407444e-39
-0.4005143 1.89133333 0.81500006 5.150403842e-39
-0.39896193 1.89133333 0.81500006 4.873089679e-39
-0.39740956 1.89133333 0.81500006 4.596135649e-39
-0.39585716 1.89133333 0.81500006 4.322047274e-39
-0.39817524 1.89026666 0.82300001 4.507496514e-39
-0.39853525 1.88973333 0.82700002 4.692617851e-39
-0.39888 1.88919999 0.83100003 4.419280572e-39
-0.39825338 1.88893332 0.83300006 4.143790899e-39
-0.39761907 1.88866666 0.83500004 5.062164078e-39
-0.39792573 1.88813332 0.83900005 5.979044873e-39
-0.39727238 1.88786666 0.84100002 5.977572109e-39
-0.39567047 1.88786666 0.84100002 5.977207771e-39
-0.39594287 1.88733333 0.84500003 5.058488472e-39
-0.39433333 1.88733333 0.84500003 4.231301988e-39
-0.39597717 1.88639999 0.85200006 8.201445383e-39
-0.47134477 1.89301714 0.81400001 1.160224401e-38
-0.46748576 1.89354285 0.81000006 1.187704985e-38
-0.46594289 1.89354285 0.81000006 1.178523117e-38
-0.46440002 1.89354285 0.81000006 1.169373339e-38
-0.46285716 1.89354285 0.81000006 1.141605349e-38
-0.46131432 1.89354285 0.81000006 1.123023851e-38
-0.45977145 1.89354285 0.81000006 1.113913029e-38
-0.46049142 1.89301714 0.81400001 1.104835838e-38
-0.45894095 1.89301714 0.81400001 1.077284068e-38
-0.45626667 1.89327999 0.81200004 1.049661392e-38
-0.45584002 1.89301714 0.81400001 1.012747547e-38
-0.45428953 1.89301714 0.81400001 9.848733385e-39
-0.45273906 1.89301714 0.81400001 9.389190165e-39
-0.45118859 1.89301714 0.81400001 9.019692984e-39
-0.4496381 1.89301714 0.81400001 8.651630732e-39
-0.44808763 1.89301714 0.81400001 8.283583894e-39
-0.44544002 1.89327999 0.81200004 7.546042677e-39
-0.44389334 1.89327999 0.81200004 6.899936185e-39
-0.44125718 1.89354285 0.81000006 7.635308192e-39
-0.43862858 1.89380571 0.80800003 8.37361732e-39
-0.43600765 1.89406857 0.80600005 1.041018043e-38
-0.43447241 1.89406857 0.80600005 1.252348425e-38
-0.43186286 1.89433143 0.80400002 1.252313673e-38
-0.43033144 1.89433143 0.80400002 1.261459668e-38
-0.42773336 1.89459427 0.80200005 1.298299804e-38
-0.42514285 1.89485715 0.80000001 1.344220215e-38
-0.42361906 1.89485715 0.80000001 1.307488679e-38
-0.42209524 1.89485715 0.80000001 1.27078685e-38
-0.42057142 1.89485715 0.80000001 1.224614486e-38
-0.42009526 1.89459427 0.80200005 1.178517512e-38
-0.41856766 1.89459427 0.80200005 1.16011468e-38
-0.41600001 1.89485715 0.80000001 1.141603107e-38
-0.41551241 1.89459427 0.80200005 1.114015604e-38
-0.41398478 1.89459427 0.80200005 1.095326066e-38
-0.41245717 1.89459427 0.80200005 1.012423567e-38
-0.41092953 1.89459427 0.80200005 9.294130282e-39
-0.40940192 1.89459427 0.80200005 8.649490949e-39
-0.40889141 1.89433143 0.80400002 8.005913801e-39
-0.40837336 1.89406857 0.80600005 7.454172149e-39
-0.40683812 1.89406857 0.80600005 6.902773814e-39
-0.40530288 1.89406857 0.80600005 6.350299283e-39
-0.40376765 1.89406857 0.80600005 5.705668358e-39
-0.40323049 1.89380571 0.80800003 5.430531813e-39
-0.40268573 1.89354285 0.81000006 5.155754e-39
-0.4031238 1.89301714 0.81400001 5.062136052e-39
-0.40206671 1.89288571 0.81500006 4.965300723e-39
-0.4005143 1.89288571 0.81500006 4.688383127e-39
-0.39896193 1.89288571 0.81500006 4.503614918e-39
-0.39838478 1.89262286 0.81700003 4.045135283e-39
-0.39682859 1.89262286 0.81700003 3.678496751e-39
-0.39817524 1.89183428 0.82300001 4.140171345e-39
-0.39853525 1.89130858 0.82700002 4.694417118e-39
-0.39888 1.89078286 0.83100003 4.602585826e-39
-0.39825338 1.89051999 0.83300006 4.602616654e-39
-0.39761907 1.89025714 0.83500004 5.246573554e-39
-0.39697716 1.88999429 0.83700001 5.983367879e-39
-0.39632761 1.88973142 0.83900005 6.075161336e-39
-0.39567047 1.88946857 0.84100002 6.258818316e-39
-0.39594287 1.88894286 0.84500003 5.614163569e-39
-0.39760002 1.88802285 0.85200006 4.969584492e-39
-0.39597717 1.88802285 0.85200006 8.66566894e-39
-0.47619432 1.89417904 0.81700003 1.105339885e-38
-0.4746381 1.89417904 0.81700003 1.114271621e-38
-0.47134477 1.89456762 0.81400001 1.132494667e-38
-0.46979427 1.89456762 0.81400001 1.150754847e-38
-0.46594289 1.89508571 0.81000006 1.141500251e-38
-0.4655467 1.89482666 0.81200004 1.141534723e-38
-0.46514285 1.89456762 0.81400001 1.10487101e-38
-0.46245334 1.89482666 0.81200004 1.06810234e-38
-0.46204191 1.89456762 0.81400001 1.068103881e-38
-0.46049142 1.89456762 0.81400001 1.077285329e-38
-0.45894095 1.89456762 0.81400001 1.049732718e-38
-0.45739049 1.89456762 0.81400001 1.031221565e-38
-0.45584002 1.89456762 0.81400001 9.942715671e-39
-0.45428953 1.89456762 0.81400001 9.66433652e-39
-0.45273906 1.89456762 0.81400001 9.204796103e-39
-0.45118859 1.89456762 0.81400001 8.742733349e-39
-0.4496381 1.89456762 0.81400001 8.373582288e-39
-0.44808763 1.89456762 0.81400001 8.099528946e-39
-0.44653714 1.89456762 0.81400001 7.637501224e-39
-0.44389334 1.89482666 0.81200004 7.269423558e-39
-0.44125718 1.89508571 0.81000006 8.095567475e-39
-0.43862858 1.89534476 0.80800003 9.016114067e-39
-0.43600765 1.89560381 0.80600005 1.077788815e-38
-0.43447241 1.89560381 0.80600005 1.252240665e-38
-0.43186286 1.89586286 0.80400002 1.252240805e-38
-0.43033144 1.89586286 0.80400002 1.261495261e-38
-0.42773336 1.8961219 0.80200005 1.335034563e-38
-0.42620572 1.8961219 0.80200005 1.417688051e-38
-0.42361906 1.89638095 0.80000001 1.362588435e-38
-0.42209524 1.89638095 0.80000001 1.316631731e-38
-0.4216229 1.8961219 0.80200005 1.252164575e-38
-0.42009526 1.8961219 0.80200005 1.187700361e-38
-0.4175238 1.89638095 0.80000001 1.160113839e-38
-0.41600001 1.89638095 0.80000001 1.132383263e-38
-0.41447619 1.89638095 0.80000001 1.113872251e-38
-0.41398478 1.8961219 0.80200005 1.095254039e-38
-0.41245717 1.8961219 0.80200005 1.039973515e-38
-0.41092953 1.8961219 0.80200005 9.845136252e-39
-0.40940192 1.8961219 0.80200005 9.016107061e-39
-0.40990859 1.89560381 0.80600005 8.188148462e-39
-0.40837336 1.89560381 0.80600005 7.539197334e-39
-0.40683812 1.89560381 0.80600005 6.989952796e-39
-0.40530288 1.89560381 0.80600005 6.257038667e-39
-0.40376765 1.89560381 0.80600005 5.522005774e-39
-0.40323049 1.89534476 0.80800003 5.154673598e-39
-0.40268573 1.89508571 0.81000006 4.878090913e-39
-0.40213335 1.89482666 0.81200004 4.693343723e-39
-0.40157333 1.89456762 0.81400001 4.505012012e-39
-0.4005143 1.89443809 0.81500006 4.320627759e-39
-0.39896193 1.89443809 0.81500006 4.22843353e-39
-0.39740956 1.89443809 0.81500006 3.585945191e-39
-0.39780003 1.89391999 0.81900007 3.0359958e-39
-0.39914289 1.89314286 0.82500005 3.864655048e-39
-0.39853525 1.89288381 0.82700002 4.692254914e-39
-0.39792004 1.89262475 0.82900006 4.87736504e-39
-0.39729714 1.89236571 0.83100003 5.152536618e-39
-0.39666671 1.89210666 0.83300006 5.522772284e-39
-0.39697716 1.89158857 0.83700001 5.982639204e-39
-0.39632761 1.89132952 0.83900005 6.259193864e-39
-0.39472955 1.89132952 0.83900005 6.533968874e-39
-0.39500573 1.89081142 0.84300005 6.164460482e-39
-0.39340004 1.89081142 0.84300005 5.797892014e-39
-0.39504763 1.88990476 0.85000002 9.130214795e-39
-0.39342856 1.88990476 0.85000002 1.244169046e-38
-0.47775051 1.89573523 0.81700003 1.087082647e-38
-0.4750286 1.89599047 0.81500006 1.06853436e-38
-0.4746381 1.89573523 0.81700003 1.040660151e-38
-0.47192383 1.89599047 0.81500006 1.095689142e-38
-0.46979427 1.89611809 0.81400001 1.159901963e-38
-0.46709335 1.89637333 0.81200004 1.141534583e-38
-0.46669334 1.89611809 0.81400001 1.132350333e-38
-0.46514285 1.89611809 0.81400001 1.095615574e-38
-0.46359238 1.89611809 0.81400001 1.06810276e-38
-0.46204191 1.89611809 0.81400001 1.049737763e-38
-0.46049142 1.89611809 0.81400001 1.040694904e-38
-0.45950478 1.89599047 0.81500006 1.022145636e-38
-0.45795241 1.89599047 0.81500006 1.003634203e-38
-0.45640004 1.89599047 0.81500006 9.665045577e-39
-0.45428953 1.89611809 0.81400001 9.388462892e-39
-0.45273906 1.89611809 0.81400001 9.018968512e-39
-0.45118859 1.89611809 0.81400001 8.649444706e-39
-0.45019051 1.89599047 0.81500006 8.46610442e-39
-0.44863814 1.89599047 0.81500006 8.37465288e-39
-0.44708574 1.89599047 0.81500006 8.099171615e-39
-0.44389334 1.89637333 0.81200004 7.915495017e-39
-0.44125718 1.89662857 0.81000006 8.463273797e-39
-0.43862858 1.89688381 0.80800003 8.923926845e-39
-0.43600765 1.89713904 0.80600005 1.05935081e-38
-0.43447241 1.89713904 0.80600005 1.215506327e-38
-0.43186286 1.89739428 0.80400002 1.215505626e-38
-0.43033144 1.89739428 0.80400002 1.215613105e-38
-0.42880002 1.89739428 0.80400002 1.26149498e-38
-0.42620572 1.89764952 0.80200005 1.307377416e-38
-0.42361906 1.89790476 0.80000001 1.270643778e-38
-0.42209524 1.89790476 0.80000001 1.224759381e-38
-0.4216229 1.89764952 0.80200005 1.187843434e-38
-0.42009526 1.89764952 0.80200005 1.141782052e-38
-0.4175238 1.89790476 0.80000001 1.095577178e-38
-0.41600001 1.89790476 0.80000001 1.040224628e-38
-0.41551241 1.89764952 0.80200005 1.058519981e-38
-0.41398478 1.89764952 0.80200005 1.067631363e-38
-0.41348571 1.89739428 0.80400002 1.058304041e-38
-0.41092953 1.89764952 0.80200005 1.039649955e-38
-0.40940192 1.89764952 0.80200005 9.477428528e-39
-0.40990859 1.89713904 0.80600005 8.554412848e-39
-0.40837336 1.89713904 0.80600005 7.999458019e-39
-0.40683812 1.89713904 0.80600005 7.447345022e-39
-0.40530288 1.89713904 0.80600005 6.529326372e-39
-0.40376765 1.89713904 0.80600005 5.70353278e-39
-0.40323049 1.89688381 0.80800003 5.151452013e-39
-0.40169144 1.89688381 0.80800003 4.691187125e-39
-0.40213335 1.89637333 0.81200004 4.413875764e-39
-0.40157333 1.89611809 0.81400001 4.136918932e-39
-0.4005143 1.89599047 0.81500006 4.136544785e-39
-0.39896193 1.89599047 0.81500006 4.136207072e-39
-0.39838478 1.89573523 0.81700003 3.769244839e-39
-0.39780003 1.89547999 0.81900007 3.404044039e-39
-0.39817524 1.89496952 0.82300001 3.86321171e-39
-0.39853525 1.89445905 0.82700002 4.414586222e-39
-0.39792004 1.8942038 0.82900006 4.415666623e-39
-0.39729714 1.89394857 0.83100003 4.508593731e-39
-0.39666671 1.89369333 0.83300006 4.96814676e-39
-0.39508003 1.89369333 0.83300006 5.519504456e-39
-0.39538285 1.89318285 0.83700001 5.614913263e-39
-0.39472955 1.89292762 0.83900005 5.798928975e-39
-0.39406857 1.89267238 0.84100002 5.156425222e-39
-0.39433333 1.89216191 0.84500003 4.606178755e-39
-0.39272383 1.89216191 0.84500003 8.019925384e-39
-0.39342856 1.89152381 0.85000002 1.143293353e-38
-0.47775051 1.89729143 0.81700003 1.077932729e-38
-0.47619432 1.89729143 0.81700003 1.022578076e-38
-0.4746381 1.89729143 0.81700003 9.764096359e-39
-0.47192383 1.89754285 0.81500006 1.0681022e-38
-0.47037145 1.89754285 0.81500006 1.169049219e-38
-0.46824381 1.89766858 0.81400001 1.150538206e-38
-0.46726671 1.89754285 0.81500006 1.13220656e-38
-0.46571431 1.89754285 0.81500006 1.095543687e-38
-0.46416193 1.89754285 0.81500006 1.068030033e-38
-0.46260953 1.89754285 0.81500006 1.040552392e-38
-0.46105719 1.89754285 0.81500006 1.013179147e-38
-0.45950478 1.89754285 0.81500006 9.942362543e-39
-0.45795241 1.89754285 0.81500006 9.75688808e-39
-0.45640004 1.89754285 0.81500006 9.479579522e-39
-0.45484763 1.89754285 0.81500006 9.204791899e-39
-0.45273906 1.89766858 0.81400001 8.924621889e-39
-0.45118859 1.89766858 0.81400001 8.650176184e-39
-0.45019051 1.89754285 0.81500006 8.651594298e-39
-0.45084006 1.89703999 0.81900007 8.65125098e-39
-0.44818285 1.89729143 0.81700003 8.651266394e-39
-0.44498664 1.89766858 0.81400001 8.650553133e-39
-0.44125718 1.89817142 0.81000006 8.739164242e-39
-0.43862858 1.89842285 0.80800003 8.924286979e-39
-0.43600765 1.89867428 0.80600005 1.040945596e-38
-0.43447241 1.89867428 0.80600005 1.187846376e-38
-0.43293718 1.89867428 0.80600005 1.178662687e-38
-0.43033144 1.89892571 0.80400002 1.178552545e-38
-0.42880002 1.89892571 0.80400002 1.187625952e-38
-0.42620572 1.89917714 0.80200005 1.206103334e-38
-0.42361906 1.89942858 0.80000001 1.168726219e-38
-0.42209524 1.89942858 0.80000001 1.141101582e-38
-0.42057142 1.89942858 0.80000001 1.122696367e-38
-0.41904762 1.89942858 0.80000001 1.10400795e-38
-0.4175238 1.89942858 0.80000001 1.030254109e-38
-0.41600001 1.89942858 0.80000001 9.574673037e-39
-0.41447619 1.89942858 0.80000001 1.003169952e-38
-0.41295239 1.89942858 0.80000001 1.049085879e-38
-0.41348571 1.89892571 0.80400002 1.076634706e-38
-0.41092953 1.89917714 0.80200005 1.10414794e-38
-0.40940192 1.89917714 0.80200005 1.00309148e-38
-0.40889141 1.89892571 0.80400002 9.015709092e-39
-0.40735999 1.89892571 0.80400002 8.460038199e-39
-0.40683812 1.89867428 0.80600005 7.905435096e-39
-0.40530288 1.89867428 0.80600005 6.892014645e-39
-0.40376765 1.89867428 0.80600005 5.887206575e-39
-0.40223241 1.89867428 0.80600005 5.146425556e-39
-0.40169144 1.89842285 0.80800003 4.502854013e-39
-0.40213335 1.89792 0.81200004 4.135149092e-39
-0.40157333 1.89766858 0.81400001 3.861069125e-39
-0.4005143 1.89754285 0.81500006 3.952178749e-39
-0.39896193 1.89754285 0.81500006 4.044378582e-39
-0.39936003 1.89703999 0.81900007 3.952550093e-39
-0.39877144 1.89678857 0.82100004 3.862143921e-39
-0.39817524 1.89653714 0.82300001 3.954691277e-39
-0.39853525 1.89603429 0.82700002 4.138000734e-39
-0.39792004 1.89578285 0.82900006 3.953969608e-39
-0.39729714 1.89553143 0.83100003 3.86250966e-39
-0.39666671 1.89528 0.83300006 4.414256917e-39
-0.39508003 1.89528 0.83300006 5.058175982e-39
-0.39538285 1.89477714 0.83700001 5.062833898e-39
-0.39472955 1.89452571 0.83900005 5.061036032e-39
-0.39313143 1.89452571 0.83900005 4.233078835e-39
-0.39340004 1.89402285 0.84300005 3.498420089e-39
-0.39179432 1.89402285 0.84300005 6.909990502e-39
-0.47892001 1.89859999 0.81900007 1.08714991e-38
-0.47619432 1.89884762 0.81700003 1.050126063e-38
-0.4746381 1.89884762 0.81700003 1.022361856e-38
-0.47192383 1.89909524 0.81500006 1.086540765e-38
-0.47037145 1.89909524 0.81500006 1.141462276e-38
-0.46824381 1.89921905 0.81400001 1.12302301e-38
-0.46726671 1.89909524 0.81500006 1.113803307e-38
-0.46571431 1.89909524 0.81500006 1.086180631e-38
-0.46416193 1.89909524 0.81500006 1.067777939e-38
-0.46260953 1.89909524 0.81500006 1.040407077e-38
-0.46105719 1.89909524 0.81500006 1.013250053e-38
-0.45950478 1.89909524 0.81500006 9.943797473e-39
-0.45795241 1.89909524 0.81500006 9.847288646e-39
-0.45640004 1.89909524 0.81500006 9.847280239e-39
-0.45484763 1.89909524 0.81500006 9.939475868e-39
-0.45329526 1.89909524 0.81500006 9.480299789e-39
-0.45174289 1.89909524 0.81500006 9.1129536e-39
-0.45129526 1.89884762 0.81700003 9.021115302e-39
-0.45084006 1.89859999 0.81900007 9.021479639e-39
-0.44928005 1.89859999 0.81900007 9.01933285e-39
-0.44662666 1.89884762 0.81700003 9.018627997e-39
-0.44125718 1.89971428 0.81000006 9.109401309e-39
-0.43862858 1.8999619 0.80800003 9.200153601e-39
-0.43600765 1.900209516 0.80600005 1.003850563e-38
-0.43447241 1.900209516 0.80600005 1.095722213e-38
-0.43293718 1.900209516 0.80600005 1.114089732e-38
-0.43140191 1.900209516 0.80600005 1.14167121e-38
-0.42880002 1.900457136 0.80400002 1.150813982e-38
-0.42620572 1.900704756 0.80200005 1.169150112e-38
-0.42467812 1.900704756 0.80200005 1.159541128e-38
-0.42315048 1.900704756 0.80200005 1.159144421e-38
-0.4216229 1.900704756 0.80200005 1.159070572e-38
-0.41904762 1.900952384 0.80000001 1.159002049e-38
-0.4175238 1.900952384 0.80000001 1.150036962e-38
-0.41600001 1.900952384 0.80000001 1.141068792e-38
-0.41447619 1.900952384 0.80000001 1.159615537e-38
-0.41295239 1.900952384 0.80000001 1.187378062e-38
-0.41245717 1.900704756 0.80200005 1.196917121e-38
-0.40990475 1.900952384 0.80000001 1.215675744e-38
-0.40838096 1.900952384 0.80000001 1.150849715e-38
-0.40787432 1.900704756 0.80200005 1.086063483e-38
-0.40735999 1.900457136 0.80400002 9.480242336e-39
-0.4058286 1.900457136 0.80400002 8.099858251e-39
-0.40429717 1.900457136 0.80400002 7.36088771e-39
-0.40376765 1.900209516 0.80600005 6.714087575e-39
-0.40223241 1.900209516 0.80600005 6.067288841e-39
-0.40169144 1.8999619 0.80800003 5.420853044e-39
-0.4011429 1.89971428 0.81000006 4.962035697e-39
-0.40157333 1.89921905 0.81400001 4.412097516e-39
-0.4005143 1.89909524 0.81500006 4.136232295e-39
-0.39994097 1.89884762 0.81700003 3.952551494e-39
-0.39936003 1.89859999 0.81900007 3.86070759e-39
-0.39877144 1.89835238 0.82100004 3.769588157e-39
-0.39914289 1.89785714 0.82500005 3.95325915e-39
-0.39853525 1.89760952 0.82700002 4.136923135e-39
-0.39792004 1.8973619 0.82900006 4.136916129e-39
-0.39729714 1.89711428 0.83100003 4.139085339e-39
-0.39666671 1.89686666 0.83300006 4.505369343e-39
-0.39602858 1.89661904 0.83500004 4.780518501e-39
-0.39538285 1.89637142 0.83700001 4.7815975e-39
-0.39378858 1.89637142 0.83700001 4.69120394e-39
-0.39313143 1.8961238 0.83900005 3.864332749e-39
-0.39340004 1.89562857 0.84300005 3.125704125e-39
-0.39179432 1.89562857 0.84300005 6.629087613e-39
-0.47775051 1.900403805 0.81700003 1.096549259e-38
-0.47619432 1.900403805 0.81700003 1.086897816e-38
-0.4746381 1.900403805 0.81700003 1.077464415e-38
-0.47192383 1.90064761 0.81500006 1.095832775e-38
-0.47037145 1.90064761 0.81500006 1.123167204e-38
-0.46824381 1.900769524 0.81400001 1.105408969e-38
-0.46726671 1.90064761 0.81500006 1.095184254e-38
-0.46571431 1.90064761 0.81500006 1.085892384e-38
-0.46416193 1.90064761 0.81500006 1.076961209e-38
-0.46260953 1.90064761 0.81500006 1.049483707e-38
-0.46105719 1.90064761 0.81500006 1.022003964e-38
-0.45950478 1.90064761 0.81500006 1.003707771e-38
-0.45795241 1.90064761 0.81500006 9.944160409e-39
-0.45752001 1.900403805 0.81700003 1.031042059e-38
-0.45596382 1.900403805 0.81700003 1.076959527e-38
-0.45329526 1.90064761 0.81500006 1.012674399e-38
-0.45174289 1.90064761 0.81500006 9.574291883e-39
-0.45129526 1.900403805 0.81700003 9.481375986e-39
-0.45084006 1.900159992 0.81900007 9.389183159e-39
-0.44928005 1.900159992 0.81900007 9.3873923e-39
-0.44662666 1.900403805 0.81700003 9.478157204e-39
-0.44343618 1.900769524 0.81400001 9.477088013e-39
-0.43971431 1.901257135 0.81000006 9.47887607e-39
-0.43600765 1.901744753 0.80600005 9.759400608e-39
-0.43555048 1.901500948 0.80800003 1.012818733e-38
-0.43293718 1.901744753 0.80600005 1.058881095e-38
-0.43140191 1.901744753 0.80600005 1.104545489e-38
-0.42880002 1.901988573 0.80400002 1.113475683e-38
-0.42620572 1.902232379 0.80200005 1.132597662e-38
-0.42467812 1.902232379 0.80200005 1.151253289e-38
-0.42315048 1.902232379 0.80200005 1.178874283e-38
-0.42057142 1.902476192 0.80000001 1.197311867e-38
-0.41904762 1.902476192 0.80000001 1.224864338e-38
-0.4175238 1.902476192 0.80000001 1.279967457e-38
-0.41600001 1.902476192 0.80000001 1.335249663e-38
-0.41447619 1.902476192 0.80000001 1.326247021e-38
-0.41295239 1.902476192 0.80000001 1.326208345e-38
-0.41142857 1.902476192 0.80000001 1.326169669e-38
-0.40990475 1.902476192 0.80000001 1.335210006e-38
-0.40838096 1.902476192 0.80000001 1.307552158e-38
-0.40787432 1.902232379 0.80200005 1.279568367e-38
-0.40634668 1.902232379 0.80200005 1.058730175e-38
-0.4058286 1.901988573 0.80400002 8.379320605e-39
-0.40429717 1.901988573 0.80400002 7.914778954e-39
-0.40376765 1.901744753 0.80600005 7.546723708e-39
-0.40223241 1.901744753 0.80600005 7.001813386e-39
-0.40169144 1.901500948 0.80800003 6.439665692e-39
-0.4011429 1.901257135 0.81000006 5.697075596e-39
-0.40058669 1.90101333 0.81200004 5.054587257e-39
-0.4005143 1.90064761 0.81500006 4.409589192e-39
-0.39994097 1.900403805 0.81700003 3.859634195e-39
-0.39936003 1.900159992 0.81900007 3.768858081e-39
-0.39877144 1.89991619 0.82100004 3.769228024e-39
-0.39914289 1.89942857 0.82500005 3.953629092e-39
-0.39853525 1.89918476 0.82700002 4.136924537e-39
-0.39792004 1.89894094 0.82900006 4.320221382e-39
-0.39729714 1.89869714 0.83100003 4.506062986e-39
-0.39666671 1.89845333 0.83300006 4.505003604e-39
-0.39602858 1.89820952 0.83500004 4.596476164e-39
-0.39538285 1.89796571 0.83700001 4.504637865e-39
-0.39472955 1.8977219 0.83900005 4.415670827e-39
-0.39406857 1.8974781 0.84100002 3.587716432e-39
-0.39340004 1.89723428 0.84300005 2.758334114e-39
-0.39272383 1.89699047 0.84500003 6.256699552e-39
-0.39111429 1.89699047 0.84500003 9.862739363e-39
-0.47775051 1.90196 0.81700003 1.105948609e-38
-0.47619432 1.90196 0.81700003 1.077751821e-38
-0.4746381 1.90196 0.81700003 1.05913445e-38
-0.47192383 1.902199991 0.81500006 1.068247094e-38
-0.47152573 1.90196 0.81700003 1.086540905e-38
-0.46881908 1.902199991 0.81500006 1.086682857e-38
-0.46726671 1.902199991 0.81500006 1.094968314e-38
-0.46571431 1.902199991 0.81500006 1.113513518e-38
-0.46416193 1.902199991 0.81500006 1.132062366e-38
-0.46374476 1.90196 0.81700003 1.076999324e-38
-0.46105719 1.902199991 0.81500006 1.031116608e-38
-0.45950478 1.902199991 0.81500006 1.012928175e-38
-0.45907623 1.90196 0.81700003 9.946326817e-39
-0.45864004 1.901719995 0.81900007 1.003529105e-38
-0.45708004 1.901719995 0.81900007 1.022002983e-38
-0.45440763 1.90196 0.81700003 9.576098157e-39
-0.45174289 1.902199991 0.81500006 9.024003378e-39
-0.45019051 1.902199991 0.81500006 9.298788198e-39
-0.45084006 1.901719995 0.81900007 9.481740324e-39
-0.44928005 1.901719995 0.81900007 9.848722175e-39
-0.44662666 1.90196 0.81700003 1.021606276e-38
-0.44398096 1.902199991 0.81500006 9.849079506e-39
-0.44080001 1.902559996 0.81200004 9.573928947e-39
-0.43708956 1.903039992 0.80800003 9.573567412e-39
-0.43555048 1.903039992 0.80800003 9.573225495e-39
-0.43293718 1.903279997 0.80600005 1.049052108e-38
-0.43140191 1.903279997 0.80600005 1.140780404e-38
-0.42880002 1.903520003 0.80400002 1.205675657e-38
-0.42514285 1.903999999 0.80000001 1.270568388e-38
-0.42361906 1.903999999 0.80000001 1.280072975e-38
-0.42315048 1.903760001 0.80200005 1.2987265e-38
-0.42057142 1.903999999 0.80000001 1.280035981e-38
-0.41904762 1.903999999 0.80000001 1.261812795e-38
-0.4175238 1.903999999 0.80000001 1.289184498e-38
-0.41600001 1.903999999 0.80000001 1.316809836e-38
-0.41447619 1.903999999 0.80000001 1.325852835e-38
-0.41295239 1.903999999 0.80000001 1.334926383e-38
-0.41142857 1.903999999 0.80000001 1.325955831e-38
-0.40990475 1.903999999 0.80000001 1.32635408e-38
-0.40838096 1.903999999 0.80000001 1.261570791e-38
-0.40685716 1.903999999 0.80000001 1.206355848e-38
-0.40634668 1.903760001 0.80200005 1.003379026e-38
-0.40481907 1.903760001 0.80200005 8.107769982e-39
-0.40429717 1.903520003 0.80400002 7.727529045e-39
-0.40376765 1.903279997 0.80600005 7.362352067e-39
-0.40223241 1.903279997 0.80600005 7.089011986e-39
-0.40169144 1.903039992 0.80800003 6.723792968e-39
-0.4011429 1.902799994 0.81000006 6.438572679e-39
-0.3996 1.902799994 0.81000006 6.248450108e-39
-0.40002286 1.902319998 0.81400001 5.423012445e-39
-0.39896193 1.902199991 0.81500006 4.597901285e-39
-0.39936003 1.901719995 0.81900007 3.863190691e-39
-0.39877144 1.901479997 0.82100004 3.220724772e-39
-0.39914289 1.900999993 0.82500005 3.585939586e-39
-0.39949906 1.900519989 0.82900006 4.044015646e-39
-0.39792004 1.900519989 0.82900006 3.952873793e-39
-0.39729714 1.900279999 0.83100003 3.863207506e-39
-0.39666671 1.900039993 0.83300006 4.229491511e-39
-0.39602858 1.8998 0.83500004 4.596106221e-39
-0.39538285 1.89956 0.83700001 4.322024854e-39
-0.39472955 1.89932 0.83900005 4.140139115e-39
-0.39313143 1.89932 0.83900005 3.58732547e-39
-0.39340004 1.89884 0.84300005 3.126006805e-39
-0.39272383 1.8986 0.84500003 6.533258416e-39
-0.39111429 1.8986 0.84500003 9.951336459e-39
-0.47619432 1.903516188 0.81700003 1.077822447e-38
-0.4746381 1.903516188 0.81700003 1.040336171e-38
-0.47192383 1.903752379 0.81500006 1.049269869e-38
-0.47037145 1.903752379 0.81500006 1.058631524e-38
