# .PCD v0.7 - Point Cloud Data file format
VERSION 0.7
FIELDS x y z rgb
SIZE 4 4 4 4
TYPE F F F F
COUNT 1 1 1 1
WIDTH 964
HEIGHT 1
VIEWPOINT 0 0 0 1 0 0 0
POINTS 964
DATA ascii
2.24551998 -0.0031885714 0.83700001 9.569554093e-39
2.24652381 -0.0031809525 0.83500004 9.108940282e-39
2.24752003 -0.0031733336 0.83300006 8.645456611e-39
2.24910668 -0.0031733336 0.83300006 8.27847476e-39
2.25069335 -0.0031733336 0.83300006 7.452314027e-39
2.25228 -0.0031733336 0.83300006 6.717630057e-39
2.2538667 -0.0031733336 0.83300006 7.544149523e-39
2.25483999 -0.0031657144 0.83100003 8.370313059e-39
2.25642288 -0.0031657144 0.83100003 8.462151357e-39
2.25800571 -0.0031657144 0.83100003 8.64654542e-39
2.2595886 -0.0031657144 0.83100003 8.647628623e-39
2.27028573 -0.0032761905 0.86000001 8.73910819e-39
2.27192384 -0.0032761905 0.86000001 9.106094244e-39
2.27228954 -0.0032609527 0.85600007 9.565637464e-39
2.27392003 -0.0032609527 0.85600007 9.751469259e-39
2.27490667 -0.0032533335 0.85400003 1.00276834e-38
2.27653334 -0.0032533335 0.85400003 1.039573444e-38
2.27816001 -0.0032533335 0.85400003 1.076414562e-38
2.27913144 -0.0032457146 0.85200006 1.085884537e-38
2.2807543 -0.0032457146 0.85200006 1.10407241e-38
2.28237718 -0.0032457146 0.85200006 1.104000664e-38
2.28400001 -0.0032457146 0.85200006 1.113041141e-38
2.28562286 -0.0032457146 0.85200006 1.076594489e-38
2.28657141 -0.0032380952 0.85000002 1.039788404e-38
2.28819048 -0.0032380952 0.85000002 1.076307223e-38
2.28980953 -0.0032380952 0.85000002 1.122262525e-38
2.29142857 -0.0032380952 0.85000002 1.159070152e-38
2.2923581 -0.0032304763 0.84800005 1.204915032e-38
2.29397336 -0.0032304763 0.84800005 1.23246456e-38
2.29558858 -0.0032304763 0.84800005 1.269198058e-38
2.29720384 -0.0032304763 0.84800005 1.195729101e-38
2.29881907 -0.0032304763 0.84800005 1.131444534e-38
2.30043429 -0.0032304763 0.84800005 1.122369024e-38
2.30204952 -0.0032304763 0.84800005 1.113185474e-38
2.30366477 -0.0032304763 0.84800005 1.168286912e-38
2.30419999 -0.0032190478 0.84500003 1.223353178e-38
2.30580953 -0.0032190478 0.84500003 1.18661996e-38
2.30741906 -0.0032190478 0.84500003 1.149777441e-38
2.30902857 -0.0032190478 0.84500003 1.158816937e-38
2.3106381 -0.0032190478 0.84500003 1.168216007e-38
2.31224763 -0.0032190478 0.84500003 1.195982315e-38
2.31385717 -0.0032190478 0.84500003 1.223497511e-38
2.31546667 -0.0032190478 0.84500003 1.241865171e-38
2.31820193 -0.0032304763 0.84800005 1.269487566e-38
2.31981716 -0.0032304763 0.84800005 1.223641565e-38
2.32143241 -0.0032304763 0.84800005 1.177795283e-38
2.32380953 -0.0032380952 0.85000002 1.168647466e-38
2.32619432 -0.0032457146 0.85200006 1.16868334e-38
2.32781717 -0.0032457146 0.85200006 1.187301692e-38
2.32944003 -0.0032457146 0.85200006 1.205669211e-38
2.33184001 -0.0032533335 0.85400003 1.214960801e-38
2.33346668 -0.0032533335 0.85400003 1.23332734e-38
2.33430859 -0.0032457146 0.85200006 1.233362512e-38
2.33671999 -0.0032533335 0.85400003 1.242546482e-38
2.33834666 -0.0032533335 0.85400003 1.233363493e-38
2.33997333 -0.0032533335 0.85400003 1.22414393e-38
2.34160003 -0.0032533335 0.85400003 1.251551086e-38
2.34322667 -0.0032533335 0.85400003 1.279173481e-38
2.34485334 -0.0032533335 0.85400003 1.270061678e-38
2.34729147 -0.0032609527 0.85600007 1.270096431e-38
2.34892195 -0.0032609527 0.85600007 1.279314732e-38
2.35055238 -0.0032609527 0.85600007 1.288463109e-38
2.35218287 -0.0032609527 0.85600007 1.28835633e-38
2.35381335 -0.0032609527 0.85600007 1.288320737e-38
2.35627431 -0.0032685716 0.85800004 1.288321158e-38
2.35874283 -0.0032761905 0.86000001 1.297504427e-38
2.36038095 -0.0032761905 0.86000001 1.306867063e-38
2.36286098 -0.0032838096 0.86200005 1.325197588e-38
2.36577144 -0.0032952384 0.86500007 1.325197028e-38
2.36741909 -0.0032952384 0.86500007 1.325125281e-38
2.36906669 -0.0032952384 0.86500007 1.306722309e-38
2.37157145 -0.0033028573 0.86700004 1.29753988e-38
2.37322289 -0.0033028573 0.86700004 1.297541001e-38
2.37573904 -0.0033104762 0.86900002 1.306724411e-38
2.37739429 -0.0033104762 0.86900002 1.279173622e-38
2.37904954 -0.0033104762 0.86900002 1.251405071e-38
2.37982857 -0.0033028573 0.86700004 1.159423419e-38
2.38235998 -0.0033104762 0.86900002 1.067628561e-38
2.38401523 -0.0033104762 0.86900002 9.947747733e-39
2.24073714 -0.0015942857 0.83700001 1.095105221e-38
2.24233143 -0.0015942857 0.83700001 1.058158305e-38
2.24392572 -0.0015942857 0.83700001 1.030569681e-38
2.24551998 -0.0015942857 0.83700001 9.93833381e-39
2.24711429 -0.0015942857 0.83700001 9.570989023e-39
2.2481143 -0.0015904763 0.83500004 9.110732542e-39
2.24970476 -0.0015904763 0.83500004 8.742312959e-39
2.25129524 -0.0015904763 0.83500004 8.281341816e-39
2.25228 -0.0015866668 0.83300006 7.912204768e-39
2.2538667 -0.0015866668 0.83300006 8.187709856e-39
2.25545335 -0.0015866668 0.83300006 8.552183382e-39
2.26598859 -0.0016419048 0.86200005 8.55146872e-39
2.26700953 -0.0016380952 0.86000001 8.642953892e-39
2.26864764 -0.0016380952 0.86000001 8.64583356e-39
2.27028573 -0.0016380952 0.86000001 8.646551025e-39
2.27192384 -0.0016380952 0.86000001 8.922417647e-39
2.27228954 -0.0016304763 0.85600007 9.29013518e-39
2.27392003 -0.0016304763 0.85600007 9.567812279e-39
2.27555051 -0.0016304763 0.85600007 9.845455748e-39
2.27653334 -0.0016266668 0.85400003 1.012166429e-38
2.27816001 -0.0016266668 0.85400003 1.049007406e-38
2.27978668 -0.0016266668 0.85400003 1.067373805e-38
2.28141335 -0.0016266668 0.85400003 1.085776777e-38
2.28304002 -0.0016266668 0.85400003 1.104036397e-38
2.28466669 -0.0016266668 0.85400003 1.12222455e-38
2.28562286 -0.0016228573 0.85200006 1.085706152e-38
2.28724575 -0.0016228573 0.85200006 1.049007126e-38
2.28886858 -0.0016228573 0.85200006 1.085525384e-38
2.29049143 -0.0016228573 0.85200006 1.122153645e-38
2.29142857 -0.0016190476 0.85000002 1.149777862e-38
2.29304764 -0.0016190476 0.85000002 1.177399136e-38
2.29466665 -0.0016190476 0.85000002 1.186509958e-38
2.29628572 -0.0016190476 0.85000002 1.195621621e-38
2.29790479 -0.0016190476 0.85000002 1.131336774e-38
2.29881907 -0.0016152381 0.84800005 1.057905091e-38
2.30043429 -0.0016152381 0.84800005 1.076273171e-38
2.30204952 -0.0016152381 0.84800005 1.094676143e-38
2.30366477 -0.0016152381 0.84800005 1.131482088e-38
2.30528 -0.0016152381 0.84800005 1.177473405e-38
2.30689526 -0.0016152381 0.84800005 1.159108127e-38
2.30851048 -0.0016152381 0.84800005 1.149922756e-38
2.31012574 -0.0016152381 0.84800005 1.16835992e-38
2.31174099 -0.0016152381 0.84800005 1.186798906e-38
2.31224763 -0.0016095239 0.84500003 1.214313962e-38
2.31497145 -0.0016152381 0.84800005 1.242152998e-38
2.31658667 -0.0016152381 0.84800005 1.251050963e-38
2.31820193 -0.0016152381 0.84800005 1.250906349e-38
2.32057142 -0.0016190476 0.85000002 1.214350395e-38
2.32219049 -0.0016190476 0.85000002 1.177795143e-38
2.32457143 -0.0016228573 0.85200006 1.141060664e-38
2.32619432 -0.0016228573 0.85200006 1.113510576e-38
2.32781717 -0.0016228573 0.85200006 1.150460714e-38
2.33021334 -0.0016266668 0.85400003 1.196486643e-38
2.33184001 -0.0016266668 0.85400003 1.214818569e-38
2.33346668 -0.0016266668 0.85400003 1.223965125e-38
2.33509335 -0.0016266668 0.85400003 1.242331243e-38
2.33671999 -0.0016266668 0.85400003 1.251514933e-38
2.33834666 -0.0016266668 0.85400003 1.251586959e-38
2.33997333 -0.0016266668 0.85400003 1.260878549e-38
2.34160003 -0.0016266668 0.85400003 1.279066843e-38
2.34322667 -0.0016266668 0.85400003 1.306688818e-38
2.34566098 -0.0016304763 0.85600007 1.279245508e-38
2.34729147 -0.0016304763 0.85600007 1.260949315e-38
2.34892195 -0.0016304763 0.85600007 1.251764924e-38
2.35055238 -0.0016304763 0.85600007 1.242617528e-38
2.35218287 -0.0016304763 0.85600007 1.270096851e-38
2.35464001 -0.0016342858 0.85800004 1.297611767e-38
2.35710475 -0.0016380952 0.86000001 1.297504427e-38
2.35874283 -0.0016380952 0.86000001 1.306722589e-38
2.36121908 -0.0016419048 0.86200005 1.315976764e-38
2.36286098 -0.0016419048 0.86200005 1.316048931e-38
2.36450288 -0.0016419048 0.86200005 1.316013478e-38
2.36741909 -0.0016476192 0.86500007 1.315978726e-38
2.36906669 -0.0016476192 0.86500007 1.297612748e-38
2.37157145 -0.0016514286 0.86700004 1.279281802e-38
2.37322289 -0.0016514286 0.86700004 1.297577435e-38
2.37573904 -0.0016552381 0.86900002 1.325163817e-38
2.37739429 -0.0016552381 0.86900002 1.288214239e-38
2.37904954 -0.0016552381 0.86900002 1.251226125e-38
2.38158098 -0.0016590477 0.87100005 1.186974348e-38
2.38324004 -0.0016590477 0.87100005 1.131944657e-38
2.38489905 -0.0016590477 0.87100005 1.067910922e-38
2.38567048 -0.0016552381 0.86900002 1.013070687e-38
2.38732573 -0.0016552381 0.86900002 1.133614865e-38
2.24392572 0 0.83700001 1.04904356e-38
2.24551998 0 0.83700001 1.02159955e-38
2.24711429 0 0.83700001 1.003052804e-38
2.2481143 0 0.83500004 9.663543385e-39
2.24970476 0 0.83500004 9.294762267e-39
2.25129524 0 0.83500004 9.201489039e-39
2.25228 0 0.83300006 9.108218613e-39
2.26270479 0 0.86200005 8.923471423e-39
2.26434669 0 0.86200005 8.829487737e-39
2.26598859 0 0.86200005 8.732992923e-39
2.26700953 0 0.86000001 8.642599363e-39
2.26864764 0 0.86000001 8.644401433e-39
2.27028573 0 0.86000001 8.646196496e-39
2.27192384 0 0.86000001 8.831305221e-39
2.27228954 0 0.85600007 9.013908424e-39
2.27392003 0 0.85600007 9.384130077e-39
2.27555051 0 0.85600007 9.752537048e-39
2.27718097 0 0.85600007 9.939068091e-39
2.27881142 0 0.85600007 1.021421164e-38
2.28044191 0 0.85600007 1.03975197e-38
2.28141335 0 0.85400003 1.067338772e-38
2.28304002 0 0.85400003 1.094925715e-38
2.28466669 0 0.85400003 1.131588167e-38
2.28629333 0 0.85400003 1.094818235e-38
2.28792 0 0.85400003 1.058047743e-38
2.28954667 0 0.85400003 1.085597971e-38
2.29049143 0 0.85200006 1.122117771e-38
2.29211432 0 0.85200006 1.131338035e-38
2.29304764 0 0.85000002 1.149597234e-38
2.29466665 0 0.85000002 1.140305785e-38
2.29628572 0 0.85000002 1.131265588e-38
2.29790479 0 0.85000002 1.057868937e-38
2.2995238 0 0.85000002 9.935134646e-39
2.30114287 0 0.85000002 1.030177038e-38
2.30204952 0 0.84800005 1.076129538e-38
2.30366477 0 0.84800005 1.103750952e-38
2.30528 0 0.84800005 1.140557878e-38
2.30689526 0 0.84800005 1.140666479e-38
2.30851048 0 0.84800005 1.149849468e-38
2.31012574 0 0.84800005 1.177399416e-38
2.31174099 0 0.84800005 1.205093698e-38
2.31335619 0 0.84800005 1.23268022e-38
2.31497145 0 0.84800005 1.269415399e-38
2.31658667 0 0.84800005 1.251085295e-38
2.31895241 0 0.85000002 1.241793004e-38
2.32057142 0 0.85000002 1.205057685e-38
2.32294858 0 0.85200006 1.17743557e-38
2.32457143 0 0.85200006 1.113115129e-38
2.32696 0 0.85400003 1.058372844e-38
2.3285867 0 0.85400003 1.122801605e-38
2.33021334 0 0.85400003 1.196449929e-38
2.33184001 0 0.85400003 1.205670052e-38
2.33346668 0 0.85400003 1.223928831e-38
2.33509335 0 0.85400003 1.242259356e-38
2.33671999 0 0.85400003 1.269810285e-38
2.33913907 0 0.85600007 1.278994255e-38
2.34076953 0 0.85600007 1.297397929e-38
2.34240001 0 0.85600007 1.315801602e-38
2.3440305 0 0.85600007 1.34345917e-38
2.34566098 0 0.85600007 1.297648481e-38
2.34729147 0 0.85600007 1.251765485e-38
2.34892195 0 0.85600007 1.224393081e-38
2.35055238 0 0.85600007 1.205847456e-38
2.35218287 0 0.85600007 1.251765905e-38
2.35464001 0 0.85800004 1.306867063e-38
2.35710475 0 0.86000001 1.315871246e-38
2.35874283 0 0.86000001 1.325090389e-38
2.36121908 0 0.86200005 1.315906559e-38
2.36286098 0 0.86200005 1.316050332e-38
2.36577144 0 0.86500007 1.316014739e-38
2.36741909 0 0.86500007 1.315979426e-38
2.36906669 0 0.86500007 1.288501085e-38
2.37071431 0 0.86500007 1.260878829e-38
2.37322289 0 0.86700004 1.297577435e-38
2.37573904 0 0.86900002 1.343494622e-38
2.37739429 0 0.86900002 1.297253455e-38
2.37904954 0 0.86900002 1.251298152e-38
2.38070479 0 0.86900002 1.223745961e-38
2.38324004 0 0.87100005 1.19616014e-38
2.38489905 0 0.87100005 1.149920233e-38
2.38567048 0 0.86900002 1.113657292e-38
2.38732573 0 0.86900002 1.077430223e-38
2.26270479 0.0016419048 0.86200005 9.384443968e-39
2.26434669 0.0016419048 0.86200005 9.198626186e-39
2.26598859 0.0016419048 0.86200005 9.014244735e-39
2.26763049 0.0016419048 0.86200005 8.830220616e-39
2.26864764 0.0016380952 0.86000001 8.370691409e-39
2.27028573 0.0016380952 0.86000001 8.002993495e-39
2.27192384 0.0016380952 0.86000001 8.370339683e-39
2.27292573 0.0016342858 0.85800004 8.737683069e-39
2.27392003 0.0016304763 0.85600007 8.923149125e-39
2.27555051 0.0016304763 0.85600007 9.200442269e-39
2.27718097 0.0016304763 0.85600007 9.476301884e-39
2.27881142 0.0016304763 0.85600007 9.660331609e-39
2.28044191 0.0016304763 0.85600007 9.935838098e-39
2.2820724 0.0016304763 0.85600007 1.021135019e-38
2.28370288 0.0016304763 0.85600007 1.048793848e-38
2.28533337 0.0016304763 0.85600007 1.085671259e-38
2.28696382 0.0016304763 0.85600007 1.058012711e-38
2.28792 0.0016266668 0.85400003 1.039573585e-38
2.28954667 0.0016266668 0.85400003 1.067052347e-38
2.29117337 0.0016266668 0.85400003 1.094531109e-38
2.29280001 0.0016266668 0.85400003 1.122081758e-38
2.29373714 0.0016228573 0.85200006 1.15874463e-38
2.29536003 0.0016228573 0.85200006 1.140378092e-38
2.29698288 0.0016228573 0.85200006 1.122010852e-38
2.29860571 0.0016228573 0.85200006 1.076093104e-38
2.2995238 0.0016190476 0.85000002 1.03021249e-38
2.30114287 0.0016190476 0.85000002 1.048580991e-38
2.30276188 0.0016190476 0.85000002 1.076129538e-38
2.30438095 0.0016190476 0.85000002 1.094530549e-38
2.30528 0.0016152381 0.84800005 1.122153084e-38
2.30689526 0.0016152381 0.84800005 1.13140852e-38
2.30851048 0.0016152381 0.84800005 1.14070011e-38
2.31012574 0.0016152381 0.84800005 1.15906777e-38
2.31174099 0.0016152381 0.84800005 1.177470602e-38
2.31335619 0.0016152381 0.84800005 1.232607773e-38
2.31571427 0.0016190476 0.85000002 1.278597828e-38
2.31733334 0.0016190476 0.85000002 1.251012007e-38
2.31895241 0.0016190476 0.85000002 1.223460237e-38
2.32057142 0.0016190476 0.85000002 1.195872734e-38
2.32294858 0.0016228573 0.85200006 1.177470602e-38
2.32457143 0.0016228573 0.85200006 1.140773258e-38
2.32696 0.0016266668 0.85400003 1.104254299e-38
2.3285867 0.0016266668 0.85400003 1.141203737e-38
2.33021334 0.0016266668 0.85400003 1.187265538e-38
2.33184001 0.0016266668 0.85400003 1.196378042e-38
2.33346668 0.0016266668 0.85400003 1.214708848e-38
2.33509335 0.0016266668 0.85400003 1.233039793e-38
2.33750859 0.0016304763 0.85600007 1.251407313e-38
2.33913907 0.0016304763 0.85600007 1.269774973e-38
2.34076953 0.0016304763 0.85600007 1.278995376e-38
2.34240001 0.0016304763 0.85600007 1.29750695e-38
2.3440305 0.0016304763 0.85600007 1.306797138e-38
2.34566098 0.0016304763 0.85600007 1.288429058e-38
2.34729147 0.0016304763 0.85600007 1.260948754e-38
2.34892195 0.0016304763 0.85600007 1.251692197e-38
2.35055238 0.0016304763 0.85600007 1.242438022e-38
2.35300571 0.0016342858 0.85800004 1.279352848e-38
2.35464001 0.0016342858 0.85800004 1.325306049e-38
2.35710475 0.0016380952 0.86000001 1.325126262e-38
2.35874283 0.0016380952 0.86000001 1.334274499e-38
2.36121908 0.0016419048 0.86200005 1.343530496e-38
2.36286098 0.0016419048 0.86200005 1.352821805e-38
2.36577144 0.0016476192 0.86500007 1.33438324e-38
2.36741909 0.0016476192 0.86500007 1.325163677e-38
2.36906669 0.0016476192 0.86500007 1.316016e-38
2.37157145 0.0016514286 0.86700004 1.315980267e-38
2.37322289 0.0016514286 0.86700004 1.361862422e-38
2.37573904 0.0016552381 0.86900002 1.416962739e-38
2.37739429 0.0016552381 0.86900002 1.334273938e-38
2.37904954 0.0016552381 0.86900002 1.251585558e-38
2.38158098 0.0016590477 0.87100005 1.233002799e-38
2.38324004 0.0016590477 0.87100005 1.214493748e-38
2.38489905 0.0016590477 0.87100005 1.149995203e-38
2.38655812 0.0016590477 0.87100005 1.094642512e-38
2.38732573 0.0016552381 0.86900002 1.095216344e-38
2.38898098 0.0016552381 0.86900002 1.096015224e-38
2.26270479 0.0032838096 0.86200005 9.845424919e-39
2.26434669 0.0032838096 0.86200005 9.661037864e-39
2.26598859 0.0032838096 0.86200005 9.385172643e-39
2.26763049 0.0032838096 0.86200005 9.107517964e-39
2.26864764 0.0032761905 0.86000001 8.187374945e-39
2.27091432 0.0032838096 0.86200005 7.360135212e-39
2.27255622 0.0032838096 0.86200005 7.908275528e-39
2.27356189 0.0032761905 0.86000001 8.460010173e-39
2.27456003 0.0032685716 0.85800004 8.55292607e-39
2.2761943 0.0032685716 0.85800004 8.738748056e-39
2.27718097 0.0032609527 0.85600007 8.924570041e-39
2.27881142 0.0032609527 0.85600007 9.200080734e-39
2.28044191 0.0032609527 0.85600007 9.475950159e-39
2.2820724 0.0032609527 0.85600007 9.843653678e-39
2.28370288 0.0032609527 0.85600007 1.01195231e-38
2.28533337 0.0032609527 0.85600007 1.039466525e-38
2.28696382 0.0032609527 0.85600007 1.030282415e-38
2.28859431 0.0032609527 0.85600007 1.021062992e-38
2.29022479 0.0032609527 0.85600007 1.048577908e-38
2.29117337 0.0032533335 0.85400003 1.076128417e-38
2.29280001 0.0032533335 0.85400003 1.122082038e-38
2.29442668 0.0032533335 0.85400003 1.167892167e-38
2.29605335 0.0032533335 0.85400003 1.140341518e-38
2.29698288 0.0032457146 0.85200006 1.112826462e-38
2.29860571 0.0032457146 0.85200006 1.085167913e-38
2.2995238 0.0032380952 0.85000002 1.066765501e-38
2.30114287 0.0032380952 0.85000002 1.075949751e-38
2.30276188 0.0032380952 0.85000002 1.085168333e-38
2.30438095 0.0032380952 0.85000002 1.094422789e-38
2.30600002 0.0032380952 0.85000002 1.103642212e-38
2.30761904 0.0032380952 0.85000002 1.122045324e-38
2.30851048 0.0032304763 0.84800005 1.140556056e-38
2.31085718 0.0032380952 0.85000002 1.149883379e-38
2.31247619 0.0032380952 0.85000002 1.159067209e-38
2.31409526 0.0032380952 0.85000002 1.22338807e-38
2.31571427 0.0032380952 0.85000002 1.29689234e-38
2.31733334 0.0032380952 0.85000002 1.251010465e-38
2.31895241 0.0032380952 0.85000002 1.205092437e-38
2.32132575 0.0032457146 0.85200006 1.19594448e-38
2.32370666 0.0032533335 0.85400003 1.186725618e-38
2.32533333 0.0032533335 0.85400003 1.168430826e-38
2.32696 0.0032533335 0.85400003 1.159426782e-38
2.3285867 0.0032533335 0.85400003 1.168825712e-38
2.33098671 0.0032609527 0.85600007 1.177974089e-38
2.33261716 0.0032609527 0.85600007 1.196341748e-38
2.33424765 0.0032609527 0.85600007 1.214601088e-38
2.3358781 0.0032609527 0.85600007 1.223676737e-38
2.33750859 0.0032609527 0.85600007 1.242116003e-38
2.33913907 0.0032609527 0.85600007 1.251515213e-38
2.34076953 0.0032609527 0.85600007 1.269954899e-38
2.34240001 0.0032609527 0.85600007 1.270027347e-38
2.3440305 0.0032609527 0.85600007 1.279210336e-38
2.34566098 0.0032609527 0.85600007 1.279245648e-38
2.34729147 0.0032609527 0.85600007 1.279173341e-38
2.34892195 0.0032609527 0.85600007 1.279101034e-38
2.35055238 0.0032609527 0.85600007 1.288393044e-38
2.35300571 0.0032685716 0.85800004 1.316159914e-38
2.35464001 0.0032685716 0.85800004 1.343638115e-38
2.35710475 0.0032761905 0.86000001 1.343565668e-38
2.35874283 0.0032761905 0.86000001 1.343565808e-38
2.36121908 0.0032838096 0.86200005 1.361969061e-38
2.36286098 0.0032838096 0.86200005 1.389520551e-38
2.36577144 0.0032952384 0.86500007 1.361970883e-38
2.36741909 0.0032952384 0.86500007 1.334418833e-38
2.36906669 0.0032952384 0.86500007 1.35278439e-38
2.37157145 0.0033028573 0.86700004 1.380264554e-38
2.37322289 0.0033028573 0.86700004 1.435402986e-38
2.37573904 0.0033104762 0.86900002 1.490395543e-38
2.37739429 0.0033104762 0.86900002 1.370972404e-38
2.37992194 0.0033180953 0.87100005 1.260697782e-38
2.38158098 0.0033180953 0.87100005 1.242294529e-38
2.38324004 0.0033180953 0.87100005 1.232860847e-38
2.38489905 0.0033180953 0.87100005 1.150102262e-38
2.38655812 0.0033180953 0.87100005 1.076453098e-38
2.38821715 0.0033180953 0.87100005 1.113042402e-38
2.38987622 0.0033180953 0.87100005 1.150393872e-38
2.26434669 0.0049257148 0.86200005 9.939418415e-39
2.26598859 0.0049257148 0.86200005 9.662472793e-39
2.26763049 0.0049257148 0.86200005 9.38589291e-39
2.26927239 0.0049257148 0.86200005 8.923848373e-39
2.27091432 0.0049257148 0.86200005 8.462149956e-39
2.27255622 0.0049257148 0.86200005 8.644018878e-39
2.27356189 0.0049142856 0.86000001 8.918097444e-39
2.27456003 0.0049028574 0.85800004 8.828421349e-39
2.2761943 0.0049028574 0.85800004 8.736590056e-39
2.27718097 0.0048914291 0.85600007 8.461805237e-39
2.27881142 0.0048914291 0.85600007 8.279218849e-39
2.28044191 0.0048914291 0.85600007 8.829522769e-39
2.2820724 0.0048914291 0.85600007 9.380177014e-39
2.28370288 0.0048914291 0.85600007 9.565284337e-39
2.28533337 0.0048914291 0.85600007 9.842217347e-39
2.28696382 0.0048914291 0.85600007 9.841134144e-39
2.28859431 0.0048914291 0.85600007 9.840419481e-39
2.29022479 0.0048914291 0.85600007 1.002481074e-38
2.29185528 0.0048914291 0.85600007 1.02091978e-38
2.29348573 0.0048914291 0.85600007 1.066837528e-38
2.29442668 0.0048799999 0.85400003 1.121974278e-38
2.29605335 0.0048799999 0.85400003 1.103606759e-38
2.29698288 0.0048685716 0.85200006 1.085274972e-38
2.29860571 0.0048685716 0.85200006 1.057652016e-38
2.3002286 0.0048685716 0.85200006 1.039249044e-38
2.30185145 0.0048685716 0.85200006 1.048432593e-38
2.30347431 0.0048685716 0.85200006 1.066799973e-38
2.30438095 0.0048571434 0.85000002 1.085274972e-38
2.30600002 0.0048571434 0.85000002 1.103426832e-38
2.30761904 0.0048571434 0.85000002 1.112897368e-38
2.30923811 0.0048571434 0.85000002 1.122045044e-38
2.31085718 0.0048571434 0.85000002 1.122260283e-38
2.31247619 0.0048571434 0.85000002 1.131516e-38
2.31409526 0.0048571434 0.85000002 1.168286632e-38
2.31645718 0.0048685716 0.85200006 1.214239553e-38
2.31808001 0.0048685716 0.85200006 1.195907766e-38
2.31970286 0.0048685716 0.85200006 1.18676051e-38
2.32132575 0.0048685716 0.85200006 1.168358098e-38
2.32370666 0.0048799999 0.85400003 1.159138816e-38
2.32533333 0.0048799999 0.85400003 1.159318462e-38
2.32696 0.0048799999 0.85400003 1.159533982e-38
2.32935622 0.0048914291 0.85600007 1.159534262e-38
2.33098671 0.0048914291 0.85600007 1.159534822e-38
2.33261716 0.0048914291 0.85600007 1.177938496e-38
2.33424765 0.0048914291 0.85600007 1.186834919e-38
2.3358781 0.0048914291 0.85600007 1.205237892e-38
2.33750859 0.0048914291 0.85600007 1.223641144e-38
2.33913907 0.0048914291 0.85600007 1.223928551e-38
2.34076953 0.0048914291 0.85600007 1.224072604e-38
2.34240001 0.0048914291 0.85600007 1.242404391e-38
2.3440305 0.0048914291 0.85600007 1.269954899e-38
2.34566098 0.0048914291 0.85600007 1.269954759e-38
2.34810287 0.0049028574 0.85800004 1.279138449e-38
2.34973717 0.0049028574 0.85800004 1.288322139e-38
2.35137144 0.0049028574 0.85800004 1.297649742e-38
2.35300571 0.0049028574 0.85800004 1.316017542e-38
2.35546669 0.0049142856 0.86000001 1.334419533e-38
2.35710475 0.0049142856 0.86000001 1.343602242e-38
2.35957718 0.0049257148 0.86200005 1.352821385e-38
2.36121908 0.0049257148 0.86200005 1.407886529e-38
2.36286098 0.0049257148 0.86200005 1.462989508e-38
2.36450288 0.0049257148 0.86200005 1.407818146e-38
2.36741909 0.0049428577 0.86500007 1.361861582e-38
2.36906669 0.0049428577 0.86500007 1.361858779e-38
2.37157145 0.0049542859 0.86700004 1.371080444e-38
2.37322289 0.0049542859 0.86700004 1.407709265e-38
2.37573904 0.0049657146 0.86900002 1.444370455e-38
2.37739429 0.0049657146 0.86900002 1.361753121e-38
2.37992194 0.0049771429 0.87100005 1.278993415e-38
2.38158098 0.0049771429 0.87100005 1.269809865e-38
2.38324004 0.0049771429 0.87100005 1.26044737e-38
2.38489905 0.0049771429 0.87100005 1.205346492e-38
2.38655812 0.0049771429 0.87100005 1.159426082e-38
2.38821715 0.0049771429 0.87100005 1.168355996e-38
2.38987622 0.0049771429 0.87100005 1.177078379e-38
2.26598859 0.0065676193 0.86200005 9.941932345e-39
2.26763049 0.0065676193 0.86200005 9.75682362e-39
2.26927239 0.0065676193 0.86200005 9.663550392e-39
2.27185714 0.0065904767 0.86500007 9.570272959e-39
2.27255622 0.0065676193 0.86200005 9.476996929e-39
2.27419811 0.0065676193 0.86200005 9.474129872e-39
2.27456003 0.0065371431 0.85800004 9.104280964e-39
2.2761943 0.0065371431 0.85800004 8.735869789e-39
2.27718097 0.0065219053 0.85600007 8.000475361e-39
2.27881142 0.0065219053 0.85600007 7.356908022e-39
2.28044191 0.0065219053 0.85600007 8.090873125e-39
2.2820724 0.0065219053 0.85600007 8.918112858e-39
2.28370288 0.0065219053 0.85600007 9.102505519e-39
2.28600001 0.0065371431 0.85800004 9.379081198e-39
2.28763431 0.0065371431 0.85800004 9.472344618e-39
2.28926858 0.0065371431 0.85800004 9.564545853e-39
2.29090288 0.0065371431 0.85800004 9.656747088e-39
2.29185528 0.0065219053 0.85600007 9.748949724e-39
2.29348573 0.0065219053 0.85600007 1.02113642e-38
2.29511619 0.0065219053 0.85600007 1.076200444e-38
2.29674667 0.0065219053 0.85600007 1.06697976e-38
2.29768002 0.006506667 0.85400003 1.057759916e-38
2.29930666 0.006506667 0.85400003 1.039392397e-38
2.30093333 0.006506667 0.85400003 1.020881805e-38
2.30256 0.006506667 0.85400003 1.030065354e-38
2.3041867 0.006506667 0.85400003 1.048432453e-38
2.30509716 0.0064914292 0.85200006 1.076126595e-38
2.30672002 0.0064914292 0.85200006 1.103713257e-38
2.30834287 0.0064914292 0.85200006 1.103785284e-38
2.30996573 0.0064914292 0.85200006 1.112897227e-38
2.31158859 0.0064914292 0.85200006 1.103821578e-38
2.31321144 0.0064914292 0.85200006 1.103965491e-38
2.3148343 0.0064914292 0.85200006 1.122476504e-38
2.31645718 0.0064914292 0.85200006 1.140843183e-38
2.31808001 0.0064914292 0.85200006 1.150026312e-38
2.32045335 0.006506667 0.85400003 1.168322786e-38
2.32208002 0.006506667 0.85400003 1.15020792e-38
2.32370666 0.006506667 0.85400003 1.14102381e-38
2.32533333 0.006506667 0.85400003 1.150206799e-38
2.32772574 0.0065219053 0.85600007 1.159498108e-38
2.32935622 0.0065219053 0.85600007 1.150350712e-38
2.33098671 0.0065219053 0.85600007 1.150351273e-38
2.33261716 0.0065219053 0.85600007 1.159535243e-38
2.33424765 0.0065219053 0.85600007 1.16857558e-38
2.3358781 0.0065219053 0.85600007 1.18683534e-38
2.33750859 0.0065219053 0.85600007 1.205310059e-38
2.33913907 0.0065219053 0.85600007 1.196377762e-38
2.34076953 0.0065219053 0.85600007 1.187194773e-38
2.34240001 0.0065219053 0.85600007 1.223965405e-38
2.3440305 0.0065219053 0.85600007 1.260735336e-38
2.34566098 0.0065219053 0.85600007 1.269954619e-38
2.34810287 0.0065371431 0.85800004 1.288321578e-38
2.34973717 0.0065371431 0.85800004 1.297541001e-38
2.35137144 0.0065371431 0.85800004 1.315872788e-38
2.35382858 0.006552381 0.86000001 1.315837475e-38
2.35546669 0.006552381 0.86000001 1.325235844e-38
2.35793525 0.0065676193 0.86200005 1.343602522e-38
2.35957718 0.0065676193 0.86200005 1.371116737e-38
2.36121908 0.0065676193 0.86200005 1.453660504e-38
2.36286098 0.0065676193 0.86200005 1.536313431e-38
2.36577144 0.0065904767 0.86500007 1.462845875e-38
2.36741909 0.0065904767 0.86500007 1.398559626e-38
2.36906669 0.0065904767 0.86500007 1.380155393e-38
2.37157145 0.0066057146 0.86700004 1.361717528e-38
2.37322289 0.0066057146 0.86700004 1.380014002e-38
2.37573904 0.0066209524 0.86900002 1.398415993e-38
2.37739429 0.0066209524 0.86900002 1.352569151e-38
2.37992194 0.0066361907 0.87100005 1.306579376e-38
2.38158098 0.0066361907 0.87100005 1.297359673e-38
2.38324004 0.0066361907 0.87100005 1.297253034e-38
2.38489905 0.0066361907 0.87100005 1.269559873e-38
2.38655812 0.0066361907 0.87100005 1.242043276e-38
2.38821715 0.0066361907 0.87100005 1.223674355e-38
2.38987622 0.0066361907 0.87100005 1.205058105e-38
2.39153525 0.0066361907 0.87100005 1.168110629e-38
2.27185714 0.0082380958 0.86500007 9.66426085e-39
2.27255622 0.0082095247 0.86200005 9.664615379e-39
2.27515242 0.0082380958 0.86500007 9.756809607e-39
2.27584001 0.0082095247 0.86200005 9.570268756e-39
2.2761943 0.008171428 0.85800004 9.292260949e-39
2.27718097 0.0081523815 0.85600007 8.647628623e-39
2.27881142 0.0081523815 0.85600007 8.089429788e-39
2.28109714 0.008171428 0.85800004 8.458196893e-39
2.2820724 0.0081523815 0.85600007 8.826979412e-39
2.28436571 0.008171428 0.85800004 9.009938545e-39
2.28600001 0.008171428 0.85800004 9.192885066e-39
2.28763431 0.008171428 0.85800004 9.10176143e-39
2.28994286 0.0081904763 0.86000001 9.102490105e-39
2.29090288 0.008171428 0.85800004 8.829147221e-39
2.29253715 0.008171428 0.85800004 8.554375013e-39
2.29417142 0.008171428 0.85800004 9.197600436e-39
2.29511619 0.0081523815 0.85600007 9.932979449e-39
2.29674667 0.0081523815 0.85600007 1.002766378e-38
2.29837716 0.0081523815 0.85600007 1.012272367e-38
2.30000764 0.0081523815 0.85600007 9.842192124e-39
2.30093333 0.0081333332 0.85400003 9.658162399e-39
2.30256 0.0081333332 0.85400003 9.841474659e-39
2.3041867 0.0081333332 0.85400003 1.002550158e-38
2.30581334 0.0081333332 0.85400003 1.021024737e-38
2.30744001 0.0081333332 0.85400003 1.03942799e-38
2.30906668 0.0081333332 0.85400003 1.057759636e-38
2.31069335 0.0081333332 0.85400003 1.085274832e-38
2.31231999 0.0081333332 0.85400003 1.06687228e-38
2.31394666 0.0081333332 0.85400003 1.048505601e-38
2.31557333 0.0081333332 0.85400003 1.066908994e-38
2.31720001 0.0081333332 0.85400003 1.085311686e-38
2.31882668 0.0081333332 0.85400003 1.103893745e-38
2.32045335 0.0081333332 0.85400003 1.131553695e-38
2.32208002 0.0081333332 0.85400003 1.122587206e-38
2.32446477 0.0081523815 0.85600007 1.122657551e-38
2.32609525 0.0081523815 0.85600007 1.12265629e-38
2.32772574 0.0081523815 0.85600007 1.1319476e-38
2.32935622 0.0081523815 0.85600007 1.113580781e-38
2.33098671 0.0081523815 0.85600007 1.095249835e-38
2.33261716 0.0081523815 0.85600007 1.122800904e-38
2.33424765 0.0081523815 0.85600007 1.159535663e-38
2.3358781 0.0081523815 0.85600007 1.17775983e-38
2.33750859 0.0081523815 0.85600007 1.196162662e-38
2.33913907 0.0081523815 0.85600007 1.205381945e-38
2.34076953 0.0081523815 0.85600007 1.214637662e-38
2.34240001 0.0081523815 0.85600007 1.233112941e-38
2.3440305 0.0081523815 0.85600007 1.260735196e-38
2.3464686 0.008171428 0.85800004 1.279138029e-38
2.34810287 0.008171428 0.85800004 1.297540721e-38
2.35055238 0.0081904763 0.86000001 1.306688257e-38
2.35219049 0.0081904763 0.86000001 1.315872227e-38
2.35382858 0.0081904763 0.86000001 1.325128084e-38
2.35546669 0.0081904763 0.86000001 1.325235703e-38
2.35793525 0.0082095247 0.86200005 1.32519983e-38
2.35874283 0.0081904763 0.86000001 1.334346666e-38
2.36038095 0.0081904763 0.86000001 1.407778489e-38
2.36286098 0.0082095247 0.86200005 1.481103533e-38
2.36450288 0.0082095247 0.86200005 1.435329418e-38
2.36741909 0.0082380958 0.86500007 1.398631233e-38
2.36906669 0.0082380958 0.86500007 1.389376077e-38
2.37071431 0.0082380958 0.86500007 1.380084767e-38
2.37322289 0.0082571432 0.86700004 1.398523473e-38
2.37573904 0.0082761906 0.86900002 1.426145308e-38
2.37739429 0.0082761906 0.86900002 1.371079463e-38
2.37904954 0.0082761906 0.86900002 1.316013478e-38
2.38158098 0.0082952389 0.87100005 1.306614269e-38
2.38324004 0.0082952389 0.87100005 1.2973245e-38
2.38489905 0.0082952389 0.87100005 1.27870783e-38
2.38655812 0.0082952389 0.87100005 1.260411496e-38
2.38821715 0.0082952389 0.87100005 1.242007543e-38
2.39077142 0.0083142864 0.87300003 1.223639183e-38
2.39243427 0.0083142864 0.87300003 1.18665261e-38
2.39409715 0.0083142864 0.87300003 1.149529692e-38
2.39576 0.0083142864 0.87300003 1.141607731e-38
2.27255622 0.0098514296 0.86200005 9.940487606e-39
2.27515242 0.0098857153 0.86500007 1.01241572e-38
2.27584001 0.0098514296 0.86200005 1.002981057e-38
2.27683809 0.0098285712 0.86000001 9.937623352e-39
2.27782857 0.0098057147 0.85800004 9.386617381e-39
2.27946284 0.0098057147 0.85800004 8.836313462e-39
2.28175238 0.0098285712 0.86000001 8.83702392e-39
2.28273144 0.0098057147 0.85800004 8.833080666e-39
2.28502858 0.0098285712 0.86000001 8.921330239e-39
2.28666666 0.0098285712 0.86000001 9.012085334e-39
2.28830475 0.0098285712 0.86000001 8.827333941e-39
2.28994286 0.0098285712 0.86000001 8.735868388e-39
2.29158095 0.0098285712 0.86000001 8.093388456e-39
2.29253715 0.0098057147 0.85800004 7.449825321e-39
2.29485714 0.0098285712 0.86000001 8.275988856e-39
2.29511619 0.0097828582 0.85600007 9.104296379e-39
2.29674667 0.0097828582 0.85600007 9.373340079e-39
2.29837716 0.0097828582 0.85600007 9.653145751e-39
2.30000764 0.0097828582 0.85600007 9.38229858e-39
2.30163813 0.0097828582 0.85600007 9.198628989e-39
2.30326861 0.0097828582 0.85600007 9.382301382e-39
2.30489907 0.0097828582 0.85600007 9.565609438e-39
2.30652955 0.0097828582 0.85600007 9.659594526e-39
2.30744001 0.0097599998 0.85400003 9.750353825e-39
2.30906668 0.0097599998 0.85400003 1.020845651e-38
2.31069335 0.0097599998 0.85400003 1.066763819e-38
2.31231999 0.0097599998 0.85400003 1.030066055e-38
2.31394666 0.0097599998 0.85400003 1.002551419e-38
2.31557333 0.0097599998 0.85400003 1.020954672e-38
2.31720001 0.0097599998 0.85400003 1.039465124e-38
2.31882668 0.0097599998 0.85400003 1.067051506e-38
2.32120383 0.0097828582 0.85600007 1.094711036e-38
2.32283428 0.0097828582 0.85600007 1.09496327e-38
2.32446477 0.0097828582 0.85600007 1.104217585e-38
2.32609525 0.0097828582 0.85600007 1.10428835e-38
2.32772574 0.0097828582 0.85600007 1.104360377e-38
2.32935622 0.0097828582 0.85600007 1.067769952e-38
2.33098671 0.0097828582 0.85600007 1.040219303e-38
2.33261716 0.0097828582 0.85600007 1.095320601e-38
2.33424765 0.0097828582 0.85600007 1.150351974e-38
2.3358781 0.0097828582 0.85600007 1.168577401e-38
2.33750859 0.0097828582 0.85600007 1.196163223e-38
2.33913907 0.0097828582 0.85600007 1.214565635e-38
2.34076953 0.0097828582 0.85600007 1.242189011e-38
2.3432 0.0098057147 0.85800004 1.251481161e-38
2.3448343 0.0098057147 0.85800004 1.260699884e-38
2.3464686 0.0098057147 0.85800004 1.279138029e-38
2.34810287 0.0098057147 0.85800004 1.30672371e-38
2.35055238 0.0098285712 0.86000001 1.316014179e-38
2.35219049 0.0098285712 0.86000001 1.325234162e-38
2.35382858 0.0098285712 0.86000001 1.325449962e-38
2.35629335 0.0098514296 0.86200005 1.334562746e-38
2.35793525 0.0098514296 0.86200005 1.316160754e-38
2.35874283 0.0098285712 0.86000001 1.297720507e-38
2.36038095 0.0098285712 0.86000001 1.361932347e-38
2.36286098 0.0098514296 0.86200005 1.426181461e-38
2.36577144 0.0098857153 0.86500007 1.407814502e-38
2.36741909 0.0098857153 0.86500007 1.398666826e-38
2.36906669 0.0098857153 0.86500007 1.398702839e-38
2.37157145 0.0099085718 0.86700004 1.398702839e-38
2.37408379 0.0099314293 0.86900002 1.426253488e-38
2.37573904 0.0099314293 0.86900002 1.453659803e-38
2.37739429 0.0099314293 0.86900002 1.389410128e-38
2.37904954 0.0099314293 0.86900002 1.325088847e-38
2.38070479 0.0099314293 0.86900002 1.306721188e-38
2.38324004 0.0099542858 0.87100005 1.297288067e-38
2.38489905 0.0099542858 0.87100005 1.287854946e-38
2.38655812 0.0099542858 0.87100005 1.278742582e-38
2.38821715 0.0099542858 0.87100005 1.260482542e-38
2.39077142 0.0099771423 0.87300003 1.242042435e-38
2.39243427 0.0099771423 0.87300003 1.205235089e-38
2.39409715 0.0099771423 0.87300003 1.17754361e-38
2.39576 0.0099771423 0.87300003 1.048833225e-38
2.27683809 0.011466666 0.86000001 1.058119209e-38
2.27782857 0.01144 0.85800004 9.93942402e-39
2.27946284 0.01144 0.85800004 9.391635431e-39
2.28175238 0.011466666 0.86000001 9.39055503e-39
2.28339046 0.011466666 0.86000001 9.389477432e-39
2.28502858 0.011466666 0.86000001 9.479876597e-39
2.28666666 0.011466666 0.86000001 9.662109857e-39
2.28830475 0.011466666 0.86000001 9.478796196e-39
2.28994286 0.011466666 0.86000001 9.295852477e-39
2.29158095 0.011466666 0.86000001 8.830945087e-39
2.29253715 0.01144 0.85800004 8.27417978e-39
2.29417142 0.01144 0.85800004 8.734063515e-39
2.29511619 0.011413334 0.85600007 9.285803766e-39
2.29674667 0.011413334 0.85600007 9.377290339e-39
2.29837716 0.011413334 0.85600007 9.469118829e-39
2.30000764 0.011413334 0.85600007 9.104282366e-39
2.30163813 0.011413334 0.85600007 8.737301916e-39
2.30326861 0.011413334 0.85600007 8.922770774e-39
2.30489907 0.011413334 0.85600007 9.105718696e-39
2.30652955 0.011413334 0.85600007 9.104636894e-39
2.30816001 0.011413334 0.85600007 9.103918028e-39
2.30979049 0.011413334 0.85600007 8.91952817e-39
2.31142098 0.011413334 0.85600007 8.826979412e-39
2.31305146 0.011413334 0.85600007 8.919537979e-39
2.31468192 0.011413334 0.85600007 9.103926436e-39
2.3163124 0.011413334 0.85600007 9.289751224e-39
2.31794289 0.011413334 0.85600007 9.568845036e-39
2.31957337 0.011413334 0.85600007 9.935110824e-39
2.32120383 0.011413334 0.85600007 1.030174095e-38
2.32283428 0.011413334 0.85600007 1.039501838e-38
2.32446477 0.011413334 0.85600007 1.048864053e-38
2.32609525 0.011413334 0.85600007 1.067481705e-38
2.32849145 0.01144 0.85800004 1.085956704e-38
2.33012572 0.01144 0.85800004 1.076737701e-38
2.33176002 0.01144 0.85800004 1.067517858e-38
2.33339432 0.01144 0.85800004 1.104466876e-38
2.33502859 0.01144 0.85800004 1.150387707e-38
2.3358781 0.011413334 0.85600007 1.168578523e-38
2.33750859 0.011413334 0.85600007 1.18705212e-38
2.33993143 0.01144 0.85800004 1.205561732e-38
2.34156573 0.01144 0.85800004 1.224073725e-38
2.3432 0.01144 0.85800004 1.233294549e-38
2.3448343 0.01144 0.85800004 1.251696261e-38
2.3464686 0.01144 0.85800004 1.279209775e-38
2.3489143 0.011466666 0.86000001 1.2975396e-38
2.35055238 0.011466666 0.86000001 1.316048931e-38
2.35219049 0.011466666 0.86000001 1.325304787e-38
2.35465145 0.011493334 0.86200005 1.334596657e-38
2.35629335 0.011493334 0.86200005 1.343746296e-38
2.35793525 0.011493334 0.86200005 1.334564708e-38
2.35874283 0.011466666 0.86000001 1.325379196e-38
2.36121908 0.011493334 0.86200005 1.380478672e-38
2.36412382 0.011533334 0.86500007 1.435615983e-38
2.36577144 0.011533334 0.86500007 1.408029601e-38
2.36741909 0.011533334 0.86500007 1.380443079e-38
2.36992002 0.01156 0.86700004 1.362040107e-38
2.37157145 0.01156 0.86700004 1.352820824e-38
2.37408379 0.011586667 0.86900002 1.380300007e-38
2.37573904 0.011586667 0.86900002 1.407741915e-38
2.37739429 0.011586667 0.86900002 1.380226018e-38
2.37904954 0.011586667 0.86900002 1.352567189e-38
2.38070479 0.011586667 0.86900002 1.325051853e-38
2.38324004 0.011613334 0.87100005 1.306435183e-38
2.38489905 0.011613334 0.87100005 1.297432681e-38
2.38655812 0.011613334 0.87100005 1.297827146e-38
2.38821715 0.011613334 0.87100005 1.287925992e-38
2.39077142 0.01164 0.87300003 1.278920407e-38
2.39243427 0.01164 0.87300003 1.260516033e-38
2.39409715 0.01164 0.87300003 1.2421125e-38
2.39576 0.01164 0.87300003 1.113147639e-38
2.39742285 0.01164 0.87300003 9.934080869e-39
2.27946284 0.013074286 0.85800004 9.94158202e-39
2.28175238 0.013104762 0.86000001 9.941569408e-39
2.28273144 0.013074286 0.85800004 1.00334049e-38
2.28436571 0.013074286 0.85800004 1.01252418e-38
2.28666666 0.013104762 0.86000001 1.030926732e-38
2.28763431 0.013074286 0.85800004 1.012631099e-38
2.28994286 0.013104762 0.86000001 9.942647007e-39
2.29158095 0.013104762 0.86000001 9.575670761e-39
2.29253715 0.013074286 0.85800004 9.207964439e-39
2.29417142 0.013074286 0.85800004 9.299436999e-39
2.29580572 0.013074286 0.85800004 9.47952347e-39
2.29744002 0.013074286 0.85800004 9.384103452e-39
2.29907429 0.013074286 0.85800004 9.381583917e-39
2.30070859 0.013074286 0.85800004 8.828411539e-39
2.30163813 0.013043811 0.85600007 8.278480365e-39
2.30326861 0.013043811 0.85600007 8.46323316e-39
2.30489907 0.013043811 0.85600007 8.738020782e-39
2.3072457 0.013074286 0.85800004 8.549326135e-39
2.30888 0.013074286 0.85800004 8.457486435e-39
2.30979049 0.013043811 0.85600007 7.723156994e-39
2.31214857 0.013074286 0.85800004 6.989910757e-39
2.31378287 0.013074286 0.85800004 7.541285269e-39
2.31541717 0.013074286 0.85800004 8.185565869e-39
2.31705144 0.013074286 0.85800004 8.462147153e-39
2.31868574 0.013074286 0.85800004 8.739092775e-39
2.32032001 0.013074286 0.85800004 9.19970939e-39
2.32195428 0.013074286 0.85800004 9.750726571e-39
2.32434285 0.013104762 0.86000001 9.842925003e-39
2.32598096 0.013104762 0.86000001 1.002802672e-38
2.32761905 0.013104762 0.86000001 1.030711773e-38
2.32925713 0.013104762 0.86000001 1.067482545e-38
2.33089525 0.013104762 0.86000001 1.076702809e-38
2.33253333 0.013104762 0.86000001 1.095069768e-38
2.33417144 0.013104762 0.86000001 1.122799643e-38
2.33580953 0.013104762 0.86000001 1.150280367e-38
2.33744761 0.013104762 0.86000001 1.159429865e-38
2.33829716 0.013074286 0.85800004 1.178046396e-38
2.33993143 0.013074286 0.85800004 1.187479516e-38
2.34156573 0.013074286 0.85800004 1.205812424e-38
2.3432 0.013074286 0.85800004 1.224145472e-38
2.3448343 0.013074286 0.85800004 1.25169584e-38
2.3464686 0.013074286 0.85800004 1.270098532e-38
2.34810287 0.013074286 0.85800004 1.297685335e-38
2.35055238 0.013104762 0.86000001 1.316088447e-38
2.35219049 0.013104762 0.86000001 1.334490579e-38
2.35465145 0.013135239 0.86200005 1.343781048e-38
2.35629335 0.013135239 0.86200005 1.352893692e-38
2.35793525 0.013135239 0.86200005 1.352858799e-38
2.35957718 0.013135239 0.86200005 1.352892851e-38
2.36121908 0.013135239 0.86200005 1.398844791e-38
2.36412382 0.013180953 0.86500007 1.45394763e-38
2.36577144 0.013180953 0.86500007 1.408031563e-38
2.36741909 0.013180953 0.86500007 1.371189325e-38
2.36906669 0.013180953 0.86500007 1.334239607e-38
2.37157145 0.013211429 0.86700004 1.306904758e-38
2.37322289 0.013211429 0.86700004 1.334348347e-38
2.37573904 0.013241905 0.86900002 1.371081285e-38
2.37739429 0.013241905 0.86900002 1.371080023e-38
2.37904954 0.013241905 0.86900002 1.380192107e-38
2.38070479 0.013241905 0.86900002 1.352605865e-38
2.38324004 0.013272381 0.87100005 1.325090949e-38
2.38489905 0.013272381 0.87100005 1.315979146e-38
2.38655812 0.013272381 0.87100005 1.315943133e-38
2.38821715 0.013272381 0.87100005 1.315405034e-38
2.38987622 0.013272381 0.87100005 1.315654746e-38
2.39153525 0.013272381 0.87100005 1.306505668e-38
2.39409715 0.013302857 0.87300003 1.306504827e-38
2.39576 0.013302857 0.87300003 1.186651629e-38
2.39742285 0.013302857 0.87300003 1.076272891e-38
2.39908573 0.013302857 0.87300003 1.066913198e-38
2.28273144 0.014708571 0.85800004 1.012596207e-38
2.28436571 0.014708571 0.85800004 1.040111263e-38
2.28600001 0.014708571 0.85800004 1.076916787e-38
2.28763431 0.014708571 0.85800004 1.040182169e-38
2.28994286 0.014742858 0.86000001 1.01273942e-38
2.29158095 0.014742858 0.86000001 9.758980218e-39
2.29321906 0.014742858 0.86000001 9.485627526e-39
2.29485714 0.014742858 0.86000001 9.574954698e-39
2.29580572 0.014708571 0.85800004 9.666427258e-39
2.29744002 0.014708571 0.85800004 9.664270659e-39
2.29977143 0.014742858 0.86000001 9.662467188e-39
2.30140954 0.014742858 0.86000001 9.386593559e-39
2.30234286 0.014708571 0.85800004 9.110735345e-39
2.30397716 0.014708571 0.85800004 9.200068122e-39
2.30632383 0.014742858 0.86000001 9.289036562e-39
2.30796191 0.014742858 0.86000001 8.920263851e-39
2.31032002 0.014777143 0.86200005 8.643315427e-39
2.31196192 0.014777143 0.86200005 7.540923734e-39
2.31469527 0.014828573 0.86500007 6.530733276e-39
2.3170743 0.014862858 0.86700004 7.265417245e-39
2.31872573 0.014862858 0.86700004 8.001890673e-39
2.32037717 0.014862858 0.86700004 8.276675493e-39
2.32128575 0.014828573 0.86500007 8.551471523e-39
2.32293335 0.014828573 0.86500007 8.922409239e-39
2.32458097 0.014828573 0.86500007 9.29047009e-39
2.32622862 0.014828573 0.86500007 9.47486135e-39
2.32673907 0.014777143 0.86200005 9.567773043e-39
2.32838097 0.014777143 0.86200005 9.937267422e-39
2.32925713 0.014742858 0.86000001 1.030641428e-38
2.33166477 0.014777143 0.86200005 1.049081395e-38
2.33330667 0.014777143 0.86200005 1.067556254e-38
2.33417144 0.014742858 0.86000001 1.104290732e-38
2.33580953 0.014742858 0.86000001 1.141061365e-38
2.33744761 0.014742858 0.86000001 1.150245475e-38
2.33908573 0.014742858 0.86000001 1.169040811e-38
2.34072381 0.014742858 0.86000001 1.187405668e-38
2.3423619 0.014742858 0.86000001 1.205810742e-38
2.3432 0.014708571 0.85800004 1.22414407e-38
2.3448343 0.014708571 0.85800004 1.24251187e-38
2.3464686 0.014708571 0.85800004 1.26087981e-38
2.3489143 0.014742858 0.86000001 1.288575634e-38
2.35055238 0.014742858 0.86000001 1.306944555e-38
2.35219049 0.014742858 0.86000001 1.334492961e-38
2.35465145 0.014777143 0.86200005 1.334490719e-38
2.35629335 0.014777143 0.86200005 1.343674129e-38
2.35793525 0.014777143 0.86200005 1.334490439e-38
2.35957718 0.014777143 0.86200005 1.325305208e-38
2.36121908 0.014777143 0.86200005 1.371221414e-38
2.36412382 0.014828573 0.86500007 1.417142245e-38
2.36577144 0.014828573 0.86500007 1.389558806e-38
2.36741909 0.014828573 0.86500007 1.37111926e-38
2.36906669 0.014828573 0.86500007 1.352787473e-38
2.37157145 0.014862858 0.86700004 1.334492961e-38
2.37322289 0.014862858 0.86700004 1.352825168e-38
2.37573904 0.014897143 0.86900002 1.380338402e-38
2.37739429 0.014897143 0.86900002 1.398632354e-38
2.37904954 0.014897143 0.86900002 1.417000574e-38
2.38070479 0.014897143 0.86900002 1.352609368e-38
2.38324004 0.01493143 0.87100005 1.288537939e-38
2.38489905 0.01493143 0.87100005 1.297612047e-38
2.38655812 0.01493143 0.87100005 1.306544484e-38
2.38821715 0.01493143 0.87100005 1.3156923e-38
2.39077142 0.014965715 0.87300003 1.334021985e-38
2.39243427 0.014965715 0.87300003 1.306469935e-38
2.39409715 0.014965715 0.87300003 1.279061798e-38
2.39576 0.014965715 0.87300003 1.205448927e-38
2.40060952 0.015085715 0.88000005 1.131838018e-38
2.40228572 0.015085715 0.88000005 1.113077434e-38
2.40488002 0.015120001 0.88200003 1.09449958e-38
2.40656 0.015120001 0.88200003 1.113660515e-38
2.28273144 0.016342856 0.85800004 1.021671436e-38
2.28436571 0.016342856 0.85800004 1.067589605e-38
2.28600001 0.016342856 0.85800004 1.122690342e-38
2.28763431 0.016342856 0.85800004 1.076807906e-38
2.28994286 0.016380953 0.86000001 1.031106379e-38
2.29158095 0.016380953 0.86000001 1.003448951e-38
2.29321906 0.016380953 0.86000001 9.850819919e-39
2.29485714 0.016380953 0.86000001 9.850819919e-39
2.29649523 0.016380953 0.86000001 9.941577816e-39
2.29744002 0.016342856 0.85800004 9.940142887e-39
2.30046856 0.016419049 0.86200005 9.939072295e-39
2.30316195 0.016476192 0.86500007 9.938360435e-39
2.30375242 0.016419049 0.86200005 1.002947146e-38
2.30539432 0.016419049 0.86200005 9.937268823e-39
2.30703622 0.016419049 0.86200005 9.845429123e-39
2.30867812 0.016419049 0.86200005 9.294411943e-39
2.31140003 0.016476192 0.86500007 8.832360399e-39
2.31377146 0.016514286 0.86700004 7.451953893e-39
2.31615049 0.016552381 0.86900002 6.164826221e-39
2.31780574 0.016552381 0.86900002 6.989914961e-39
2.31946096 0.016552381 0.86900002 7.908624451e-39
2.32111618 0.016552381 0.86900002 8.092651373e-39
2.32202858 0.016514286 0.86700004 8.367804734e-39
2.32368001 0.016514286 0.86700004 8.64511049e-39
2.32533145 0.016514286 0.86700004 8.923126704e-39
2.32622862 0.016476192 0.86500007 9.014960799e-39
2.32787621 0.016476192 0.86500007 9.200426855e-39
2.32838097 0.016419049 0.86200005 9.568487705e-39
2.33002287 0.016419049 0.86200005 1.002910852e-38
2.33166477 0.016419049 0.86200005 1.021350679e-38
2.33330667 0.016419049 0.86200005 1.049117268e-38
2.33494857 0.016419049 0.86200005 1.085852307e-38
2.33580953 0.016380953 0.86000001 1.131841662e-38
2.33744761 0.016380953 0.86000001 1.141096958e-38
2.33908573 0.016380953 0.86000001 1.159714049e-38
2.34072381 0.016380953 0.86000001 1.17822352e-38
2.3423619 0.016380953 0.86000001 1.20566781e-38
2.34400001 0.016380953 0.86000001 1.214745001e-38
2.3448343 0.016342856 0.85800004 1.23322014e-38
2.34727621 0.016380953 0.86000001 1.260878969e-38
2.3489143 0.016380953 0.86000001 1.288538219e-38
2.35055238 0.016380953 0.86000001 1.307014059e-38
2.35219049 0.016380953 0.86000001 1.33449184e-38
2.35465145 0.016419049 0.86200005 1.3343831e-38
2.35629335 0.016419049 0.86200005 1.334490719e-38
2.35793525 0.016419049 0.86200005 1.31612362e-38
2.35957718 0.016419049 0.86200005 1.297719947e-38
2.36121908 0.016419049 0.86200005 1.334417712e-38
2.36412382 0.016476192 0.86500007 1.380337141e-38
2.36577144 0.016476192 0.86500007 1.371191146e-38
2.36741909 0.016476192 0.86500007 1.371154853e-38
2.36906669 0.016476192 0.86500007 1.361970883e-38
2.37071431 0.016476192 0.86500007 1.361971443e-38
2.37322289 0.016514286 0.86700004 1.371191567e-38
2.37487429 0.016514286 0.86700004 1.389521532e-38
2.37652573 0.016514286 0.86700004 1.426182863e-38
2.37817717 0.016514286 0.86700004 1.462845875e-38
2.38070479 0.016552381 0.86900002 1.361791657e-38
2.38235998 0.016552381 0.86900002 1.260914983e-38
