# .PCD v0.7 - Point Cloud Data file format
VERSION 0.7
FIELDS x y z rgb
SIZE 4 4 4 4
TYPE F F F F
COUNT 1 1 1 1
WIDTH 946
HEIGHT 1
VIEWPOINT 0 0 0 1 0 0 0
POINTS 946
DATA ascii
0.25966668 -0.059352383 0.77900004 1.177325147e-38
0.26297146 -0.059428573 0.78000003 1.214060187e-38
0.26662478 -0.059580956 0.78200006 1.177362001e-38
0.27029335 -0.059733335 0.78400004 1.159101821e-38
0.27327999 -0.059733335 0.78400004 1.122151543e-38
0.27626669 -0.059733335 0.78400004 9.748200029e-39
0.27925333 -0.059733335 0.78400004 9.38086365e-39
0.28080001 -0.059428573 0.78000003 9.381227988e-39
0.28340763 -0.059352383 0.77900004 1.002407366e-38
0.28490478 -0.059047621 0.77500004 1.05758069e-38
0.28711432 -0.058895241 0.77300006 1.103821998e-38
0.28968382 -0.058819048 0.77200001 1.177505354e-38
0.29262477 -0.058819048 0.77200001 1.20545159e-38
0.29556569 -0.058819048 0.77200001 1.2330035e-38
0.29850668 -0.058819048 0.77200001 1.260733935e-38
0.30144763 -0.058819048 0.77200001 1.270060137e-38
0.30557144 -0.059047621 0.77500004 1.22414351e-38
0.30772763 -0.058895241 0.77300006 1.169044314e-38
0.3114762 -0.059047621 0.77500004 1.095723754e-38
0.22491811 -0.058091432 0.78200006 1.003161124e-38
0.22848001 -0.058240004 0.78400004 9.007788953e-39
0.23028572 -0.05794286 0.78000003 7.548105388e-39
0.23295811 -0.057868574 0.77900004 8.191322403e-39
0.23532 -0.057719998 0.77700001 8.560117534e-39
0.23705335 -0.057422861 0.77300006 9.389139719e-39
0.23906668 -0.0572 0.77000004 1.012596347e-38
0.24137142 -0.057051428 0.76800001 1.05812033e-38
0.24397905 -0.056977142 0.76700002 1.104576317e-38
0.24625714 -0.056828573 0.76500005 1.288138288e-38
0.24982285 -0.056977142 0.76700002 1.242506265e-38
0.25472191 -0.057422861 0.77300006 1.177253121e-38
0.25966668 -0.057868574 0.77900004 1.232498752e-38
0.26297146 -0.05794286 0.78000003 1.269125611e-38
0.26662478 -0.058091432 0.78200006 1.214311159e-38
0.26960382 -0.058091432 0.78200006 1.196015106e-38
0.27327999 -0.058240004 0.78400004 1.178149531e-38
0.27626669 -0.058240004 0.78400004 1.1309765e-38
0.27925333 -0.058240004 0.78400004 9.198271657e-39
0.28152004 -0.058091432 0.78200006 9.840415277e-39
0.28377146 -0.05794286 0.78000003 1.011771403e-38
0.28564 -0.057719998 0.77700001 1.039357364e-38
0.28785715 -0.057571433 0.77500004 1.085562659e-38
0.29005906 -0.057422861 0.77300006 1.122404897e-38
0.29262477 -0.057348572 0.77200001 1.169040811e-38
0.29556569 -0.057348572 0.77200001 1.196304894e-38
0.29850668 -0.057348572 0.77200001 1.233039933e-38
0.3018381 -0.057422861 0.77300006 1.251623113e-38
0.30557144 -0.057571433 0.77500004 1.205849979e-38
0.3085238 -0.057571433 0.77500004 1.160148171e-38
0.3114762 -0.057571433 0.77500004 1.022111024e-38
0.22491811 -0.056601912 0.78200006 1.012344113e-38
0.22789717 -0.056601912 0.78200006 9.108229823e-39
0.23087621 -0.056601912 0.78200006 7.087847507e-39
0.23295811 -0.056384765 0.77900004 7.914734112e-39
0.23532 -0.05624 0.77700001 8.284245307e-39
0.23705335 -0.055950481 0.77300006 9.297295815e-39
0.23968762 -0.055878095 0.77200001 1.021886956e-38
0.242 -0.055733338 0.77000004 1.104539883e-38
0.24429713 -0.055588569 0.76800001 1.1964837e-38
0.24722287 -0.055588569 0.76800001 1.325160033e-38
0.25014856 -0.055588569 0.76800001 1.242399346e-38
0.25472191 -0.055950481 0.77300006 1.214203119e-38
0.25966668 -0.056384765 0.77900004 1.296963386e-38
0.26297146 -0.056457143 0.78000003 1.333912964e-38
0.26594287 -0.056457143 0.78000003 1.260193594e-38
0.26960382 -0.056601912 0.78200006 1.241826775e-38
0.27258289 -0.056601912 0.78200006 1.242471933e-38
0.27626669 -0.056746669 0.78400004 1.287671516e-38
0.27925333 -0.056746669 0.78400004 9.107150824e-39
0.28152004 -0.056601912 0.78200006 1.039069958e-38
0.28377146 -0.056457143 0.78000003 1.020990265e-38
0.28564 -0.05624 0.77700001 1.030173674e-38
0.28785715 -0.056095239 0.77500004 1.067123533e-38
0.29080951 -0.056095239 0.77500004 1.076450996e-38
0.29300383 -0.055950481 0.77300006 1.141023109e-38
0.29594859 -0.055950481 0.77300006 1.159534262e-38
0.29889333 -0.055950481 0.77300006 1.214672274e-38
0.30261904 -0.056095239 0.77500004 1.242367116e-38
0.30636001 -0.05624 0.77700001 1.196594122e-38
0.30932 -0.05624 0.77700001 1.159896918e-38
0.22640765 -0.055112384 0.78200006 1.030782118e-38
0.22938669 -0.055112384 0.78200006 8.647977547e-39
0.23177144 -0.05497143 0.78000003 7.729608572e-39
0.23444192 -0.054900955 0.77900004 8.099130977e-39
0.23619048 -0.054619048 0.77500004 8.74449338e-39
0.23852573 -0.054478098 0.77300006 9.667486639e-39
0.2411581 -0.054407619 0.77200001 1.067912464e-38
0.24346668 -0.054266669 0.77000004 1.168968364e-38
0.2464 -0.054266669 0.77000004 1.270168177e-38
0.24933335 -0.054266669 0.77000004 1.251583596e-38
0.25324953 -0.054478098 0.77300006 1.223853441e-38
0.25751999 -0.054760002 0.77700001 1.306362315e-38
0.26115048 -0.054900955 0.77900004 1.361643399e-38
0.26445717 -0.05497143 0.78000003 1.343383499e-38
0.2681143 -0.055112384 0.78200006 1.29721604e-38
0.27109334 -0.055112384 0.78200006 1.288320878e-38
0.27407241 -0.055112384 0.78200006 1.297538198e-38
0.27705145 -0.055112384 0.78200006 1.214311019e-38
0.28003049 -0.055112384 0.78200006 1.103461024e-38
0.28300956 -0.055112384 0.78200006 1.057579849e-38
0.28525716 -0.05497143 0.78000003 1.030281434e-38
0.28712001 -0.054760002 0.77700001 1.057867256e-38
0.29008001 -0.054760002 0.77700001 1.048720981e-38
0.29228574 -0.054619048 0.77500004 1.076522042e-38
0.29523808 -0.054619048 0.77500004 1.131659913e-38
0.29819047 -0.054619048 0.77500004 1.159390629e-38
0.30192 -0.054760002 0.77700001 1.187157358e-38
0.30566478 -0.054900955 0.77900004 1.196592301e-38
0.3086324 -0.054900955 0.77900004 1.187411413e-38
0.32080004 -0.056521907 0.80200005 1.113943157e-38
0.22938669 -0.05362286 0.78200006 9.292623886e-39
0.23177144 -0.053485718 0.78000003 7.912210374e-39
0.23444192 -0.053417146 0.77900004 8.098046372e-39
0.2368 -0.05328 0.77700001 8.652648074e-39
0.23852573 -0.053005718 0.77300006 9.577442002e-39
0.2414705 -0.053005718 0.77300006 1.067769531e-38
0.24409907 -0.052937143 0.77200001 1.196662646e-38
0.24703999 -0.052937143 0.77200001 1.279566686e-38
0.24998096 -0.052937143 0.77200001 1.223961481e-38
0.25390476 -0.053142861 0.77500004 1.233324677e-38
0.25751999 -0.05328 0.77700001 1.362074719e-38
0.26115048 -0.053417146 0.77900004 1.417856627e-38
0.26445717 -0.053485718 0.78000003 1.39862857e-38
0.26742858 -0.053485718 0.78000003 1.352712924e-38
0.27109334 -0.05362286 0.78200006 1.334453585e-38
0.27407241 -0.05362286 0.78200006 1.343887827e-38
0.27705145 -0.05362286 0.78200006 1.334522108e-38
0.28003049 -0.05362286 0.78200006 1.232031139e-38
0.28373334 -0.05376 0.78400004 1.094422508e-38
0.2859886 -0.05362286 0.78200006 1.048683986e-38
0.28785905 -0.053417146 0.77900004 1.067086118e-38
0.29082668 -0.053417146 0.77900004 1.030353601e-38
0.29417142 -0.053485718 0.78000003 1.03942841e-38
0.29714286 -0.053485718 0.78000003 1.113184774e-38
0.29972953 -0.053417146 0.77900004 1.131730679e-38
0.30269718 -0.053417146 0.77900004 1.150565391e-38
0.30566478 -0.053417146 0.77900004 1.178225482e-38
0.3086324 -0.053417146 0.77900004 1.196594683e-38
0.32080004 -0.054994289 0.80200005 1.169008161e-38
0.22938669 -0.052133337 0.78200006 9.386257248e-39
0.23177144 -0.052000001 0.78000003 8.374266121e-39
0.23444192 -0.051933337 0.77900004 8.189874862e-39
0.23740953 -0.051933337 0.77900004 8.468608541e-39
0.23914286 -0.05166667 0.77500004 9.388747355e-39
0.24209525 -0.05166667 0.77500004 1.058407316e-38
0.24441525 -0.051533338 0.77300006 1.187551123e-38
0.24736002 -0.051533338 0.77300006 1.270347123e-38
0.25030476 -0.051533338 0.77300006 1.307008454e-38
0.25390476 -0.05166667 0.77500004 1.334559663e-38
0.25751999 -0.051799998 0.77700001 1.389626769e-38
0.26115048 -0.051933337 0.77900004 1.472850165e-38
0.26445717 -0.052000001 0.78000003 1.472384233e-38
0.26742858 -0.052000001 0.78000003 1.407958696e-38
0.27040002 -0.052000001 0.78000003 1.389769982e-38
0.27407241 -0.052133337 0.78200006 1.389806976e-38
0.27705145 -0.052133337 0.78200006 1.408062112e-38
0.2807467 -0.052266669 0.78400004 1.352565788e-38
0.28373334 -0.052266669 0.78400004 1.204984677e-38
0.28672004 -0.052266669 0.78400004 1.103713257e-38
0.28896764 -0.052133337 0.78200006 1.103927516e-38
0.29194671 -0.052133337 0.78200006 1.076235196e-38
0.29492575 -0.052133337 0.78200006 1.066978498e-38
0.29790479 -0.052133337 0.78200006 1.113076734e-38
0.3001143 -0.052000001 0.78000003 1.113397911e-38
0.30308574 -0.052000001 0.78000003 1.122905862e-38
0.30605716 -0.052000001 0.78000003 1.178010662e-38
0.31853715 -0.053600002 0.80400002 1.214889755e-38
0.32080004 -0.05346667 0.80200005 1.18737498e-38
0.23087621 -0.050643813 0.78200006 9.01999146e-39
0.23325716 -0.050514285 0.78000003 8.556866522e-39
0.23622857 -0.050514285 0.78000003 7.91652357e-39
0.23889334 -0.050449528 0.77900004 8.838101518e-39
0.24061905 -0.050190475 0.77500004 9.663914729e-39
0.24294288 -0.050060954 0.77300006 1.141634496e-38
0.24588762 -0.050060954 0.77300006 1.233613905e-38
0.24883239 -0.050060954 0.77300006 1.297826305e-38
0.25177717 -0.050060954 0.77300006 1.490645114e-38
0.25604001 -0.050320003 0.77700001 1.380515947e-38
0.259 -0.050320003 0.77700001 1.454127136e-38
0.26263431 -0.050449528 0.77900004 1.628828277e-38
0.26560193 -0.050449528 0.77900004 1.472493815e-38
0.26891431 -0.050514285 0.78000003 1.453984064e-38
0.27188572 -0.050514285 0.78000003 1.435760597e-38
0.27556193 -0.050643813 0.78200006 1.463309985e-38
0.27854097 -0.050643813 0.78200006 1.500043203e-38
0.28224 -0.050773337 0.78400004 1.444439399e-38
0.28522667 -0.050773337 0.78400004 1.204948383e-38
0.28821334 -0.050773337 0.78400004 1.140591229e-38
0.29120001 -0.050773337 0.78400004 1.140735142e-38
0.29343623 -0.050643813 0.78200006 1.122224971e-38
0.29717335 -0.050773337 0.78400004 1.085419166e-38
0.29939431 -0.050643813 0.78200006 1.140807029e-38
0.30237335 -0.050643813 0.78200006 1.067518279e-38
0.30613333 -0.050773337 0.78400004 1.122622099e-38
0.31621715 -0.051939052 0.80200005 1.242440264e-38
0.3200686 -0.052068572 0.80400002 1.242512571e-38
0.32313141 -0.052068572 0.80400002 1.169299491e-38
0.23087621 -0.049154289 0.78200006 9.66499513e-39
0.23385525 -0.049154289 0.78200006 8.923498048e-39
0.23622857 -0.049028575 0.78000003 8.192392995e-39
0.2392 -0.049028575 0.78000003 8.47112247e-39
0.24186096 -0.048965715 0.77900004 9.299089477e-39
0.24357145 -0.048714288 0.77500004 1.169437659e-38
0.24652381 -0.048714288 0.77500004 1.205992911e-38
0.24883239 -0.048588578 0.77300006 1.270204751e-38
0.25242859 -0.048714288 0.77500004 1.407958696e-38
0.25604001 -0.048840001 0.77700001 1.362186543e-38
0.259 -0.048840001 0.77700001 1.435833465e-38
0.26196 -0.048840001 0.77700001 1.518447576e-38
0.26560193 -0.048965715 0.77900004 1.472817375e-38
0.26891431 -0.049028575 0.78000003 1.481606879e-38
0.27188572 -0.049028575 0.78000003 1.47253137e-38
0.27556193 -0.049154289 0.78200006 1.472566262e-38
0.27854097 -0.049154289 0.78200006 1.490933782e-38
0.28224 -0.049280003 0.78400004 1.481677505e-38
0.28522667 -0.049280003 0.78400004 1.444438278e-38
0.28894857 -0.049405713 0.78600001 1.278201821e-38
0.29194286 -0.049405713 0.78600001 1.095392207e-38
0.29418668 -0.049280003 0.78400004 1.168610052e-38
0.29717335 -0.049280003 0.78400004 1.242079009e-38
0.30016002 -0.049280003 0.78400004 1.195945321e-38
0.30314669 -0.049280003 0.78400004 1.177758289e-38
0.30613333 -0.049280003 0.78400004 1.269416941e-38
0.31700572 -0.050537147 0.80400002 1.288430459e-38
0.32086477 -0.05066286 0.80600005 1.270099654e-38
0.32393524 -0.05066286 0.80600005 1.196921606e-38
0.32700571 -0.05066286 0.80600005 1.059817163e-38
0.23236573 -0.047664765 0.78200006 9.760412346e-39
0.23534477 -0.047664765 0.78200006 8.833798131e-39
0.23771429 -0.047542859 0.78000003 8.281714562e-39
0.24068573 -0.047542859 0.78000003 8.562953762e-39
0.24365716 -0.047542859 0.78000003 1.049223346e-38
0.24631239 -0.047481906 0.77900004 1.196736354e-38
0.24863999 -0.047359999 0.77700001 1.215103033e-38
0.25095239 -0.047238097 0.77500004 1.279388441e-38
0.25455999 -0.047359999 0.77700001 1.33438338e-38
0.25751999 -0.047359999 0.77700001 1.380660841e-38
0.26047999 -0.047359999 0.77700001 1.408137501e-38
0.26411811 -0.047481906 0.77900004 1.445194139e-38
0.26742858 -0.047542859 0.78000003 1.490935183e-38
0.27040002 -0.047542859 0.78000003 1.509157528e-38
0.27337143 -0.047542859 0.78000003 1.500153485e-38
0.27705145 -0.047664765 0.78200006 1.49103986e-38
0.28003049 -0.047664765 0.78200006 1.509229695e-38
0.28373334 -0.047786668 0.78400004 1.601096861e-38
0.28745142 -0.047908571 0.78600001 1.554353888e-38
0.29044572 -0.047908571 0.78600001 1.241289518e-38
0.29343998 -0.047908571 0.78600001 1.131911867e-38
0.29643428 -0.047908571 0.78600001 1.307115793e-38
0.29942855 -0.047908571 0.78600001 1.32544772e-38
0.30242285 -0.047908571 0.78600001 1.270202649e-38
0.30969146 -0.048579048 0.79700005 1.353036204e-38
0.3154743 -0.049005713 0.80400002 1.380302809e-38
0.31932953 -0.049127623 0.80600005 1.325164097e-38
0.32320002 -0.049249526 0.80800003 1.270097972e-38
0.32708573 -0.049371433 0.81000006 1.206249629e-38
0.23534477 -0.046175241 0.78200006 9.205792426e-39
0.23832382 -0.046175241 0.78200006 8.008000334e-39
0.24130288 -0.046175241 0.78200006 7.917234029e-39
0.24365716 -0.046057142 0.78000003 9.572429558e-39
0.24662858 -0.046057142 0.78000003 1.104539883e-38
0.24863999 -0.045880001 0.77700001 1.178224781e-38
0.25095239 -0.045761906 0.77500004 1.223892818e-38
0.25455999 -0.045880001 0.77700001 1.278851603e-38
0.25751999 -0.045880001 0.77700001 1.30693979e-38
0.26047999 -0.045880001 0.77700001 1.362076401e-38
0.26411811 -0.0459981 0.77900004 1.417392237e-38
0.26742858 -0.046057142 0.78000003 1.463457542e-38
0.27040002 -0.046057142 0.78000003 1.518484431e-38
0.27407241 -0.046175241 0.78200006 1.527739446e-38
0.27705145 -0.046175241 0.78200006 1.500259703e-38
0.28003049 -0.046175241 0.78200006 1.50930032e-38
0.28373334 -0.046293333 0.78400004 1.564398535e-38
0.28745142 -0.046411429 0.78600001 1.554999606e-38
0.29044572 -0.046411429 0.78600001 1.407311856e-38
0.29418668 -0.046529528 0.78800005 1.269271206e-38
0.29718858 -0.046529528 0.78800005 1.279097671e-38
0.30019048 -0.046529528 0.78800005 1.279457385e-38
0.30434665 -0.046706665 0.79100001 1.261055673e-38
0.31085715 -0.047238097 0.80000001 1.362147727e-38
0.3154743 -0.047474284 0.80400002 1.380375397e-38
0.31932953 -0.047592383 0.80600005 1.334419113e-38
0.32320002 -0.047710475 0.80800003 1.288426816e-38
0.32708573 -0.047828577 0.81000006 1.224399807e-38
0.2368343 -0.044685718 0.78200006 9.113257682e-39
0.23981334 -0.044685718 0.78200006 6.354952995e-39
0.2427924 -0.044685718 0.78200006 8.467529541e-39
0.24514288 -0.044571429 0.78000003 8.92958669e-39
0.2481143 -0.044571429 0.78000003 1.141202756e-38
0.25012001 -0.044399999 0.77700001 1.141167863e-38
0.25308001 -0.044399999 0.77700001 1.214636541e-38
0.25604001 -0.044399999 0.77700001 1.242115443e-38
0.259 -0.044399999 0.77700001 1.251693878e-38
0.26263431 -0.044514287 0.77900004 1.371080304e-38
0.26560193 -0.044514287 0.77900004 1.408138482e-38
0.26891431 -0.044571429 0.78000003 1.48171506e-38
0.27188572 -0.044571429 0.78000003 1.591952828e-38
0.27556193 -0.044685718 0.78200006 1.518628204e-38
0.27854097 -0.044685718 0.78200006 1.500260964e-38
0.28224 -0.044800002 0.78400004 1.527774479e-38
0.28522667 -0.044800002 0.78400004 1.545997665e-38
0.28894857 -0.044914287 0.78600001 1.573656214e-38
0.29268572 -0.045028575 0.78800005 1.591807933e-38
0.29568762 -0.045028575 0.78800005 1.223997775e-38
0.29906857 -0.045085717 0.78900003 1.306970899e-38
0.30283999 -0.045199998 0.79100001 1.169003817e-38
0.30856001 -0.045600001 0.79800004 1.334668404e-38
0.31316191 -0.045828573 0.80200005 1.408066876e-38
0.31779429 -0.046057146 0.80600005 1.371261351e-38
0.32166097 -0.04617143 0.80800003 1.343601401e-38
0.3255429 -0.046285715 0.81000006 1.279245929e-38
0.3286286 -0.046285715 0.81000006 1.224365195e-38
0.23832382 -0.043196194 0.78200006 8.654787857e-39
0.24130288 -0.043196194 0.78200006 8.006191258e-39
0.24428193 -0.043196194 0.78200006 8.374980784e-39
0.24726097 -0.043196194 0.78200006 9.019992862e-39
0.24960001 -0.043085717 0.78000003 1.021637805e-38
0.2516 -0.042920001 0.77700001 1.113616514e-38
0.25521526 -0.043030478 0.77900004 1.177900801e-38
0.25818285 -0.043030478 0.77900004 1.196375379e-38
0.26115048 -0.043030478 0.77900004 1.22392827e-38
0.26411811 -0.043030478 0.77900004 1.297612047e-38
0.26742858 -0.043085717 0.78000003 1.380516367e-38
0.27040002 -0.043085717 0.78000003 1.490897909e-38
0.27407241 -0.043196194 0.78200006 1.536887823e-38
0.27705145 -0.043196194 0.78200006 1.509518363e-38
0.2807467 -0.043306671 0.78400004 1.536887823e-38
0.28373334 -0.043306671 0.78400004 1.545998926e-38
0.28745142 -0.043417145 0.78600001 1.536889225e-38
0.29118478 -0.043527622 0.78800005 1.555145481e-38
0.29418668 -0.043527622 0.78800005 1.490789448e-38
0.2975657 -0.043582857 0.78900003 1.389622425e-38
0.30057144 -0.043582857 0.78900003 1.306754679e-38
0.3058857 -0.043914285 0.79500002 1.306938109e-38
0.31085715 -0.044190478 0.80000001 1.398882486e-38
0.31625906 -0.044521909 0.80600005 1.408066596e-38
0.32012191 -0.044632383 0.80800003 1.398739413e-38
0.324 -0.04474286 0.81000006 1.343565388e-38
0.32789335 -0.044853333 0.81200004 1.251623533e-38
0.33017144 -0.04474286 0.81000006 1.206717663e-38
0.24192001 -0.041813336 0.78400004 8.740879431e-39
0.24490668 -0.041813336 0.78400004 8.096607239e-39
0.24726097 -0.04170667 0.78200006 8.009796799e-39
0.25024 -0.04170667 0.78200006 9.110411645e-39
0.25224763 -0.041546665 0.77900004 1.058515777e-38
0.25521526 -0.041546665 0.77900004 1.131875713e-38
0.25818285 -0.041546665 0.77900004 1.140987656e-38
0.26115048 -0.041546665 0.77900004 1.141025351e-38
0.26445717 -0.0416 0.78000003 1.205920324e-38
0.26742858 -0.0416 0.78000003 1.325451924e-38
0.27040002 -0.0416 0.78000003 1.44519554e-38
0.27407241 -0.04170667 0.78200006 1.518484571e-38
0.27705145 -0.04170667 0.78200006 1.518737365e-38
0.2807467 -0.041813336 0.78400004 1.55500409e-38
0.28373334 -0.041813336 0.78400004 1.555110869e-38
0.28745142 -0.041919999 0.78600001 1.509265568e-38
0.29118478 -0.042026669 0.78800005 1.527559239e-38
0.29418668 -0.042026669 0.78800005 1.573731744e-38
0.2975657 -0.04208 0.78900003 1.518302542e-38
0.30133334 -0.042186666 0.79100001 1.3894446e-38
0.3058857 -0.042399999 0.79500002 1.371403163e-38
0.31163427 -0.042773336 0.80200005 1.426433134e-38
0.31625906 -0.042986669 0.80600005 1.435617805e-38
0.32012191 -0.043093335 0.80800003 1.43543984e-38
0.32480001 -0.043306667 0.81200004 1.371152471e-38
0.32789335 -0.043306667 0.81200004 1.25169584e-38
0.33098668 -0.043306667 0.81200004 1.178842613e-38
0.2427924 -0.040217146 0.78200006 9.290467287e-39
0.2464 -0.040320002 0.78400004 7.273317766e-39
0.24875049 -0.040217146 0.78200006 8.097340118e-39
0.25172952 -0.040217146 0.78200006 9.385204873e-39
0.25405714 -0.040114287 0.78000003 1.030534789e-38
0.25702858 -0.040114287 0.78000003 1.103966892e-38
0.25999999 -0.040114287 0.78000003 1.094461324e-38
0.26297146 -0.040114287 0.78000003 1.104040461e-38
0.26594287 -0.040114287 0.78000003 1.177725638e-38
0.26891431 -0.040114287 0.78000003 1.389449785e-38
0.27258289 -0.040217146 0.78200006 1.482037358e-38
0.27556193 -0.040217146 0.78200006 1.47242375e-38
0.27854097 -0.040217146 0.78200006 1.463276634e-38
0.28224 -0.040320002 0.78400004 1.55511157e-38
0.2859543 -0.040422857 0.78600001 1.509157108e-38
0.28894857 -0.040422857 0.78600001 1.555002549e-38
0.29268572 -0.040525716 0.78800005 1.51834346e-38
0.29568762 -0.040525716 0.78800005 1.555078219e-38
0.29906857 -0.040577143 0.78900003 1.435580811e-38
0.30283999 -0.040679999 0.79100001 1.37136743e-38
0.30933335 -0.041142859 0.80000001 1.398846753e-38
0.31394288 -0.041348573 0.80400002 1.435617525e-38
0.31858286 -0.041554287 0.80800003 1.417216935e-38
0.32245716 -0.041657142 0.81000006 1.408032824e-38
0.32634667 -0.041760001 0.81200004 1.297649462e-38
0.33025143 -0.041862857 0.81400001 1.215071504e-38
0.2427924 -0.038727619 0.78200006 1.030639606e-38
0.2464 -0.038826667 0.78400004 6.812703954e-39
0.24875049 -0.038727619 0.78200006 8.005141685e-39
0.25172952 -0.038727619 0.78200006 8.832387023e-39
0.25405714 -0.038628571 0.78000003 9.572444972e-39
0.25768763 -0.038727619 0.78200006 1.048864334e-38
0.26066667 -0.038727619 0.78200006 1.057833625e-38
0.26297146 -0.038628571 0.78000003 1.058050546e-38
0.26594287 -0.038628571 0.78000003 1.094893905e-38
0.26891431 -0.038628571 0.78000003 1.398417114e-38
0.27258289 -0.038727619 0.78200006 1.453804417e-38
0.27556193 -0.038727619 0.78200006 1.408030863e-38
0.27925333 -0.038826667 0.78400004 1.426506282e-38
0.28224 -0.038826667 0.78400004 1.500046846e-38
0.2859543 -0.038925715 0.78600001 1.527560921e-38
0.28894857 -0.038925715 0.78600001 1.582588931e-38
0.29268572 -0.039024763 0.78800005 1.518306045e-38
0.29568762 -0.039024763 0.78800005 1.49986748e-38
0.29906857 -0.039074287 0.78900003 1.444727646e-38
0.30283999 -0.039173331 0.79100001 1.398738853e-38
0.30933335 -0.039619051 0.80000001 1.417286299e-38
0.31394288 -0.039817143 0.80400002 1.417322032e-38
0.31779429 -0.039916191 0.80600005 1.417287e-38
0.32245716 -0.040114287 0.81000006 1.362149408e-38
0.32634667 -0.040213335 0.81200004 1.307012097e-38
0.33065718 -0.040361907 0.81500006 1.224289105e-38
0.24646859 -0.03757143 0.78900003 9.296201401e-39
0.24852571 -0.037428569 0.78600001 8.097690442e-39
0.25088 -0.037333332 0.78400004 8.373201135e-39
0.25321907 -0.037238099 0.78200006 8.557228057e-39
0.25685334 -0.037333332 0.78400004 9.205086172e-39
0.25917715 -0.037238099 0.78200006 9.935110824e-39
0.26215622 -0.037238099 0.78200006 9.748585386e-39
0.26445717 -0.037142858 0.78000003 9.840810444e-39
0.26742858 -0.037142858 0.78000003 1.131197485e-38
0.27109334 -0.037238099 0.78200006 1.297467713e-38
0.27407241 -0.037238099 0.78200006 1.380371613e-38
0.27705145 -0.037238099 0.78200006 1.38973593e-38
0.2807467 -0.037333332 0.78400004 1.435725425e-38
0.28373334 -0.037333332 0.78400004 1.481718002e-38
0.28745142 -0.037428569 0.78600001 1.527631406e-38
0.29044572 -0.037428569 0.78600001 1.536706495e-38
0.29418668 -0.03752381 0.78800005 1.490647356e-38
0.29718858 -0.03752381 0.78800005 1.44465576e-38
0.30285713 -0.037857141 0.79500002 1.380297765e-38
0.30704004 -0.038000003 0.79800004 1.398956895e-38
0.31241143 -0.038285714 0.80400002 1.417393638e-38
0.31625906 -0.038380954 0.80600005 1.398955073e-38
0.32012191 -0.038476191 0.80800003 1.371330576e-38
0.32480001 -0.038666669 0.81200004 1.325378776e-38
0.32910478 -0.038809527 0.81500006 1.279389702e-38
0.33180189 -0.038761906 0.81400001 1.205955356e-38
0.24797145 -0.036068574 0.78900003 9.019978849e-39
0.25002286 -0.035931427 0.78600001 8.556503585e-39
0.25301713 -0.035931427 0.78600001 8.187729474e-39
0.25536001 -0.035840005 0.78400004 7.730701585e-39
0.25834668 -0.035840005 0.78400004 9.202223319e-39
0.26133335 -0.035840005 0.78400004 9.474143885e-39
0.26364574 -0.035748575 0.78200006 8.371414479e-39
0.26662478 -0.035748575 0.78200006 9.748960934e-39
0.26960382 -0.035748575 0.78200006 1.058085718e-38
0.27258289 -0.035748575 0.78200006 1.306005965e-38
0.27556193 -0.035748575 0.78200006 1.352390906e-38
0.27854097 -0.035748575 0.78200006 1.398847313e-38
0.28224 -0.035840005 0.78400004 1.426578589e-38
0.2859543 -0.035931427 0.78600001 1.47253109e-38
0.28894857 -0.035931427 0.78600001 1.545961932e-38
0.29268572 -0.036022857 0.78800005 1.500080477e-38
0.29606289 -0.036068574 0.78900003 1.453875743e-38
0.30058476 -0.036251429 0.79300004 1.398701858e-38
0.30513716 -0.036434289 0.79700005 1.306867203e-38
0.31088001 -0.036754288 0.80400002 1.472530529e-38
0.31472382 -0.036845718 0.80600005 1.389806416e-38
0.31779429 -0.036845718 0.80600005 1.37136785e-38
0.32166097 -0.036937144 0.80800003 1.353001171e-38
0.32634667 -0.03712 0.81200004 1.297756381e-38
0.33065718 -0.037257146 0.81500006 1.297754559e-38
0.3337619 -0.037257146 0.81500006 1.233547344e-38
0.24915811 -0.034521904 0.78800005 9.110012275e-39
0.25216001 -0.034521904 0.78800005 8.646905553e-39
0.25451428 -0.034434289 0.78600001 8.188441333e-39
0.25816384 -0.034521904 0.78800005 8.466108624e-39
0.26050287 -0.034434289 0.78600001 9.10860397e-39
0.26282668 -0.03434667 0.78400004 8.923118296e-39
0.26513526 -0.034259051 0.78200006 9.10609985e-39
0.2681143 -0.034259051 0.78200006 9.841858615e-39
0.27109334 -0.034259051 0.78200006 1.085348821e-38
0.27407241 -0.034259051 0.78200006 1.168182235e-38
0.27776 -0.03434667 0.78400004 1.233075947e-38
0.2807467 -0.03434667 0.78400004 1.32530745e-38
0.28445715 -0.034434289 0.78600001 1.398704661e-38
0.28818285 -0.034521904 0.78800005 1.426502779e-38
0.29118478 -0.034521904 0.78800005 1.445015473e-38
0.29418668 -0.034521904 0.78800005 1.426467466e-38
0.29832 -0.034653336 0.79100001 1.398702839e-38
0.30361906 -0.034916192 0.79700005 1.362003533e-38
0.30857906 -0.035135239 0.80200005 1.389842009e-38
0.31241143 -0.035222858 0.80400002 1.408208267e-38
0.31625906 -0.035310481 0.80600005 1.389770262e-38
0.32012191 -0.0353981 0.80800003 1.380552941e-38
0.32480001 -0.035573334 0.81200004 1.307048391e-38
0.32910478 -0.035704762 0.81500006 1.288643737e-38
0.33302477 -0.035792381 0.81700003 1.279455563e-38
0.24947429 -0.03306286 0.78900003 9.483817048e-39
0.25216001 -0.033020955 0.78800005 9.014610474e-39
0.25516191 -0.033020955 0.78800005 8.465734477e-39
0.25816384 -0.033020955 0.78800005 8.465384153e-39
0.26149717 -0.03306286 0.78900003 8.83346322e-39
0.26416764 -0.033020955 0.78800005 9.016391525e-39
0.26649144 -0.032937143 0.78600001 9.199000333e-39
0.26880002 -0.032853335 0.78400004 9.567421317e-39
0.27109334 -0.032769527 0.78200006 9.843292143e-39
0.27407241 -0.032769527 0.78200006 1.012131817e-38
0.27776 -0.032853335 0.78400004 1.094748871e-38
0.2807467 -0.032853335 0.78400004 1.233398946e-38
0.28445715 -0.032937143 0.78600001 1.343530496e-38
0.28818285 -0.033020955 0.78800005 1.352927183e-38
0.2915543 -0.03306286 0.78900003 1.362039967e-38
0.29456002 -0.03306286 0.78900003 1.389589775e-38
0.29907429 -0.033230476 0.79300004 1.37115177e-38
0.30361906 -0.033398096 0.79700005 1.371330155e-38
0.30857906 -0.033607621 0.80200005 1.389876901e-38
0.31241143 -0.033691429 0.80400002 1.398989124e-38
0.31625906 -0.03377524 0.80600005 1.408171553e-38
0.32012191 -0.033859048 0.80800003 1.399064514e-38
0.3256 -0.034110479 0.81400001 1.297936448e-38
0.32910478 -0.034152381 0.81500006 1.288643176e-38
0.33302477 -0.034236193 0.81700003 1.306647199e-38
0.33860573 -0.03448762 0.82300001 1.252602761e-38
0.25065905 -0.031520002 0.78800005 9.573154029e-39
0.25398287 -0.03156 0.78900003 9.199706587e-39
0.25698858 -0.03156 0.78900003 8.006912926e-39
0.2599943 -0.03156 0.78900003 8.650499884e-39
0.26300001 -0.03156 0.78900003 9.107526372e-39
0.26600572 -0.03156 0.78900003 9.106794894e-39
0.26867047 -0.031520002 0.78800005 9.198275861e-39
0.27098286 -0.031440001 0.78600001 9.474865554e-39
0.27327999 -0.03136 0.78400004 9.478095547e-39
0.27556193 -0.03128 0.78200006 9.936926907e-39
0.27925333 -0.03136 0.78400004 1.094461465e-38
0.28296 -0.031440001 0.78600001 1.306902375e-38
0.28668192 -0.031520002 0.78800005 1.334166179e-38
0.29005143 -0.03156 0.78900003 1.297503446e-38
0.29305717 -0.03156 0.78900003 1.334452744e-38
0.29681331 -0.031640001 0.79100001 1.325233461e-38
0.30134284 -0.031799998 0.79500002 1.343384901e-38
0.30628571 -0.032000002 0.80000001 1.380836003e-38
0.31088001 -0.032160003 0.80400002 1.389840888e-38
0.31472382 -0.03224 0.80600005 1.343743073e-38
0.31779429 -0.03224 0.80600005 1.44476422e-38
0.32325333 -0.032480001 0.81200004 1.380589515e-38
0.32715046 -0.032559998 0.81400001 1.270276778e-38
0.33146858 -0.032680001 0.81700003 1.316083683e-38
0.33540002 -0.032760002 0.81900007 1.242370059e-38
0.25398287 -0.030057143 0.78900003 9.572428157e-39
0.25698858 -0.030057143 0.78900003 7.914361367e-39
0.26065335 -0.030133333 0.79100001 8.556506388e-39
0.26366666 -0.030133333 0.79100001 9.19899753e-39
0.26668 -0.030133333 0.79100001 9.198987721e-39
0.26901144 -0.030057143 0.78900003 9.014959398e-39
0.2716724 -0.03001905 0.78800005 9.107516562e-39
0.27397713 -0.029942857 0.78600001 9.018193594e-39
0.27626669 -0.029866667 0.78400004 9.571008641e-39
0.27996573 -0.029942857 0.78600001 1.030390736e-38
0.28368002 -0.03001905 0.78800005 1.297682252e-38
0.28668192 -0.03001905 0.78800005 1.297538619e-38
0.29005143 -0.030057143 0.78900003 1.279135506e-38
0.29305717 -0.030057143 0.78900003 1.269951396e-38
0.29681331 -0.030133333 0.79100001 1.288282622e-38
0.30210099 -0.030361906 0.79700005 1.325161855e-38
0.30705145 -0.030552382 0.80200005 1.380729785e-38
0.31088001 -0.030628571 0.80400002 1.371438476e-38
0.31472382 -0.030704763 0.80600005 1.307045728e-38
0.31779429 -0.030704763 0.80600005 1.472314869e-38
0.32325333 -0.030933335 0.81200004 1.380516788e-38
0.32715046 -0.031009525 0.81400001 1.325378356e-38
0.33228004 -0.031200001 0.81900007 1.288499263e-38
0.33621907 -0.031276189 0.82100004 1.224075127e-38
0.25398287 -0.028554287 0.78900003 9.854747758e-39
0.25764 -0.028626667 0.79100001 8.835587589e-39
0.26065335 -0.028626667 0.79100001 8.9242015e-39
0.26433334 -0.028699048 0.79300004 8.371036129e-39
0.26735431 -0.028699048 0.79300004 8.833439398e-39
0.27037525 -0.028699048 0.79300004 8.923479831e-39
0.27339619 -0.028699048 0.79300004 9.017469123e-39
0.27572 -0.028626667 0.79100001 8.925635028e-39
0.27767622 -0.028518097 0.78800005 8.745554163e-39
0.28067809 -0.028518097 0.78800005 1.003054345e-38
0.28404 -0.028554287 0.78900003 1.214886252e-38
0.28704572 -0.028554287 0.78900003 1.242508227e-38
0.29005143 -0.028554287 0.78900003 1.251225424e-38
0.2938 -0.028626667 0.79100001 1.242040754e-38
0.2983143 -0.028771428 0.79500002 1.288245348e-38
0.30248001 -0.02888 0.79800004 1.343673148e-38
0.30705145 -0.029024763 0.80200005 1.389771383e-38
0.31088001 -0.029097142 0.80400002 1.380586853e-38
0.31394288 -0.029097142 0.80400002 1.343816921e-38
0.31779429 -0.029169526 0.80600005 1.44487198e-38
0.32245716 -0.029314287 0.81000006 1.38962761e-38
0.32755241 -0.029495239 0.81500006 1.343889228e-38
0.33228004 -0.029640002 0.81900007 1.288501505e-38
0.33540002 -0.029640002 0.81900007 1.214963744e-38
0.25613335 -0.02712 0.79100001 9.944077733e-39
0.25980192 -0.027188573 0.79300004 9.570275762e-39
0.26348573 -0.027257143 0.79500002 8.463950625e-39
0.26584381 -0.027188573 0.79300004 8.095521232e-39
0.26886478 -0.027188573 0.79300004 8.741240966e-39
0.27257144 -0.027257143 0.79500002 8.927068557e-39
0.27560002 -0.027257143 0.79500002 8.924925971e-39
0.27792761 -0.027188573 0.79300004 8.465375745e-39
0.28024 -0.02712 0.79100001 8.929227958e-39
0.28253713 -0.02705143 0.78900003 1.057941525e-38
0.28554288 -0.02705143 0.78900003 1.159428884e-38
0.28928003 -0.02712 0.79100001 1.205308937e-38
0.29229331 -0.02712 0.79100001 1.223532123e-38
0.29680002 -0.027257143 0.79500002 1.260515753e-38
0.30096003 -0.02736 0.79800004 1.325232761e-38
0.30552381 -0.027497144 0.80200005 1.380480494e-38
0.30857906 -0.027497144 0.80200005 1.389770122e-38
0.31241143 -0.027565714 0.80400002 1.380550979e-38
0.31625906 -0.027634287 0.80600005 1.399025698e-38
0.32012191 -0.027702859 0.80800003 1.417321471e-38
0.32480001 -0.027840002 0.81200004 1.389663343e-38
0.32910478 -0.027942859 0.81500006 1.334489878e-38
0.33302477 -0.028011428 0.81700003 1.25169584e-38
0.33696002 -0.028080003 0.81900007 1.141530379e-38
0.2613124 -0.025678096 0.79300004 1.021420324e-38
0.26566666 -0.025807621 0.79700005 8.465018414e-39
0.26802856 -0.025742857 0.79500002 8.556488171e-39
0.27173907 -0.025807621 0.79700005 8.556855311e-39
0.27511999 -0.025840001 0.79800004 8.738743852e-39
0.27781144 -0.025807621 0.79700005 8.924560232e-39
0.28014284 -0.025742857 0.79500002 8.46430235e-39
0.28245905 -0.025678096 0.79300004 9.752171309e-39
0.28476 -0.025613334 0.79100001 1.085423089e-38
0.28777334 -0.025613334 0.79100001 1.15006723e-38
0.29152194 -0.025678096 0.79300004 1.177579763e-38
0.29602858 -0.025807621 0.79700005 1.214492487e-38
0.29944003 -0.025840001 0.79800004 1.270060277e-38
0.30323809 -0.025904762 0.80000001 1.407993728e-38
0.30781716 -0.026034286 0.80400002 1.408101628e-38
0.31088001 -0.026034286 0.80400002 1.389734249e-38
0.31472382 -0.026099049 0.80600005 1.389913895e-38
0.31858286 -0.026163809 0.80800003 1.426648234e-38
0.32245716 -0.026228573 0.81000006 1.408066035e-38
0.32715046 -0.026358096 0.81400001 1.371403303e-38
0.33065718 -0.026390478 0.81500006 1.316051453e-38
0.33540002 -0.026520003 0.81900007 1.233507266e-38
0.34100002 -0.026714286 0.82500005 1.123203217e-38
0.2613124 -0.02416762 0.79300004 1.104431423e-38
0.266 -0.024320001 0.79800004 9.29369728e-39
0.26903999 -0.024320001 0.79800004 8.648686604e-39
0.27208 -0.024320001 0.79800004 8.187363735e-39
0.27580953 -0.024380952 0.80000001 8.555081268e-39
0.27816001 -0.024320001 0.79800004 9.01532934e-39
0.28084764 -0.024289524 0.79700005 9.016035595e-39
0.28317145 -0.024228571 0.79500002 9.750730774e-39
0.28476 -0.024106666 0.79100001 1.03950366e-38
0.28777334 -0.024106666 0.79100001 1.113080657e-38
0.29152194 -0.02416762 0.79300004 1.140701792e-38
0.29602858 -0.024289524 0.79700005 1.205309078e-38
0.29944003 -0.024320001 0.79800004 1.242510189e-38
0.30323809 -0.024380952 0.80000001 1.463058872e-38
0.30705145 -0.024441905 0.80200005 1.417140844e-38
0.31088001 -0.024502857 0.80400002 1.389769421e-38
0.31472382 -0.024563812 0.80600005 1.408244701e-38
0.31858286 -0.024624763 0.80800003 1.426612361e-38
0.32245716 -0.024685716 0.81000006 1.417321051e-38
0.32634667 -0.024746668 0.81200004 1.37136757e-38
0.33065718 -0.024838097 0.81500006 1.343709441e-38
0.33621907 -0.025020953 0.82100004 1.261057215e-38
0.34017333 -0.025081905 0.82300001 1.18745135e-38
0.26447999 -0.0228 0.79800004 1.003343153e-38
0.26819047 -0.022857143 0.80000001 9.11180874e-39
0.27123812 -0.022857143 0.80000001 8.462514294e-39
0.27497146 -0.022914287 0.80200005 8.185218347e-39
0.27733335 -0.022857143 0.80000001 8.3714369e-39
0.27967998 -0.0228 0.79800004 8.647974744e-39
0.28236571 -0.022771429 0.79700005 9.015327939e-39
0.28468573 -0.022714285 0.79500002 9.565976578e-39
0.28699049 -0.022657143 0.79300004 1.030068717e-38
0.29001144 -0.022657143 0.79300004 1.085349661e-38
0.29377142 -0.022714285 0.79500002 1.177614656e-38
0.29792002 -0.0228 0.79800004 1.269773992e-38
0.3017143 -0.022857143 0.80000001 1.343566369e-38
0.30552381 -0.022914287 0.80200005 1.407991626e-38
0.30934858 -0.022971429 0.80400002 1.371294843e-38
0.31241143 -0.022971429 0.80400002 1.380656357e-38
0.31625906 -0.023028573 0.80600005 1.417393498e-38
0.32012191 -0.023085715 0.80800003 1.43568787e-38
0.32480001 -0.0232 0.81200004 1.408101348e-38
0.32870096 -0.023257142 0.81400001 1.362148708e-38
0.33220956 -0.023285715 0.81500006 1.316229838e-38
0.33778289 -0.023457143 0.82100004 1.251621431e-38
0.34257144 -0.02357143 0.82500005 1.233805323e-38
0.26819047 -0.021333333 0.80000001 9.297276197e-39
0.27191621 -0.021386668 0.80200005 8.46179823e-39
0.27565715 -0.021440001 0.80400002 8.000464151e-39
0.27802667 -0.021386668 0.80200005 8.09555066e-39
0.27967998 -0.021280002 0.79800004 8.372103918e-39
0.28236571 -0.021253334 0.79700005 8.647617413e-39
0.28540194 -0.021253334 0.79700005 9.105714493e-39
0.28843811 -0.021253334 0.79700005 9.837549622e-39
0.29147431 -0.021253334 0.79700005 1.048328057e-38
0.29488003 -0.021280002 0.79800004 1.196124547e-38
0.29866666 -0.021333333 0.80000001 1.315727473e-38
0.3017143 -0.021333333 0.80000001 1.343460711e-38
0.30628571 -0.021440001 0.80400002 1.371294843e-38
0.30934858 -0.021440001 0.80400002 1.353000611e-38
0.31318858 -0.021493334 0.80600005 1.371438476e-38
0.31625906 -0.021493334 0.80600005 1.417357765e-38
0.32012191 -0.021546667 0.80800003 1.454053148e-38
0.32480001 -0.021653334 0.81200004 1.435580671e-38
0.32870096 -0.021706667 0.81400001 1.371333378e-38
0.33220956 -0.021733334 0.81500006 1.325413808e-38
0.33778289 -0.021893334 0.82100004 1.279242986e-38
0.34174097 -0.021946667 0.82300001 1.233551127e-38
0.27106285 -0.019908572 0.80400002 9.112894746e-39
0.27412573 -0.019908572 0.80400002 8.281351626e-39
0.27787814 -0.019958096 0.80600005 7.452319632e-39
0.27955431 -0.019859049 0.80200005 8.188434327e-39
0.28119999 -0.019760001 0.79800004 8.464652675e-39
0.28388384 -0.019735239 0.79700005 8.923112691e-39
0.28692001 -0.019735239 0.79700005 9.751072691e-39
0.29177526 -0.019859049 0.80200005 1.0853477e-38
0.2948305 -0.019859049 0.80200005 1.149704574e-38
0.29788575 -0.019859049 0.80200005 1.306829648e-38
0.30094096 -0.019859049 0.80200005 1.334204714e-38
0.30475429 -0.019908572 0.80400002 1.380374276e-38
0.30781716 -0.019908572 0.80400002 1.389556284e-38
0.31088001 -0.019908572 0.80400002 1.362077522e-38
0.31472382 -0.019958096 0.80600005 1.444872681e-38
0.31779429 -0.019958096 0.80600005 1.435686749e-38
0.32245716 -0.020057144 0.81000006 1.444762539e-38
0.32634667 -0.020106668 0.81200004 1.389592858e-38
0.33025143 -0.02015619 0.81400001 1.353002152e-38
0.33540002 -0.020280002 0.81900007 1.325376814e-38
0.33934668 -0.020329524 0.82100004 1.260951136e-38
0.34247431 -0.020329524 0.82100004 1.169768085e-38
0.27173716 -0.018422859 0.80600005 9.296572745e-39
0.27480763 -0.018422859 0.80600005 8.465751293e-39
0.27925718 -0.018514289 0.81000006 7.084984654e-39
0.28164572 -0.018468572 0.80800003 8.188076996e-39
0.28331429 -0.018377144 0.80400002 8.555414777e-39
0.28637716 -0.018377144 0.80400002 9.107508155e-39
0.28799999 -0.018285714 0.80000001 1.021133618e-38
0.29250288 -0.018377144 0.80400002 1.140593331e-38
0.2948305 -0.018331429 0.80200005 1.223532404e-38
0.29862857 -0.018377144 0.80400002 1.306722309e-38
0.30169141 -0.018377144 0.80400002 1.352570973e-38
0.30475429 -0.018377144 0.80400002 1.380265535e-38
0.30781716 -0.018377144 0.80400002 1.407922963e-38
0.31088001 -0.018377144 0.80400002 1.389699777e-38
0.31472382 -0.018422859 0.80600005 1.481643033e-38
0.31779429 -0.018422859 0.80600005 1.435652277e-38
0.32245716 -0.018514289 0.81000006 1.426432434e-38
0.32634667 -0.01856 0.81200004 1.380480074e-38
0.33025143 -0.018605713 0.81400001 1.371332257e-38
0.33540002 -0.018720001 0.81900007 1.343744474e-38
0.34017333 -0.018811429 0.82300001 1.279389281e-38
0.34330857 -0.018811429 0.82300001 1.114414273e-38
0.27881715 -0.01732762 0.82700002 9.480610877e-39
0.2812857 -0.017285716 0.82500005 8.741986457e-39
0.27994666 -0.017013334 0.81200004 7.63636337e-39
0.28234288 -0.01697143 0.81000006 8.279195027e-39
0.28401908 -0.01688762 0.80600005 8.649406871e-39
0.28708956 -0.01688762 0.80600005 9.384099248e-39
0.28944001 -0.016845714 0.80400002 1.048721121e-38
0.29250288 -0.016845714 0.80400002 1.159140637e-38
0.29556569 -0.016845714 0.80400002 1.242258796e-38
0.29862857 -0.016845714 0.80400002 1.315834532e-38
0.30169141 -0.016845714 0.80400002 1.389160697e-38
0.30475429 -0.016845714 0.80400002 1.389376217e-38
0.30858287 -0.01688762 0.80600005 1.389591316e-38
0.31088001 -0.016845714 0.80400002 1.398955073e-38
0.31472382 -0.01688762 0.80600005 1.454128397e-38
0.31779429 -0.01688762 0.80600005 1.444801355e-38
0.32245716 -0.01697143 0.81000006 1.426612921e-38
0.32634667 -0.017013334 0.81200004 1.380658459e-38
0.33025143 -0.01705524 0.81400001 1.380586432e-38
0.33540002 -0.017160002 0.81900007 1.343780768e-38
0.34017333 -0.01724381 0.82300001 1.2978633e-38
0.34330857 -0.01724381 0.82300001 1.16929907e-38
0.27949145 -0.015790477 0.82900006 9.756477499e-39
0.2812857 -0.015714286 0.82500005 9.111832562e-39
0.28098097 -0.015523811 0.81500006 8.279207639e-39
0.28304002 -0.015466668 0.81200004 8.37139346e-39
0.28472382 -0.015390476 0.80800003 8.832366004e-39
0.28708956 -0.015352381 0.80600005 9.659971475e-39
0.28944001 -0.015314286 0.80400002 1.076415543e-38
0.2932305 -0.015352381 0.80600005 1.177686682e-38
0.29556569 -0.015314286 0.80400002 1.260517995e-38
0.29862857 -0.015314286 0.80400002 1.334129605e-38
0.30169141 -0.015314286 0.80400002 1.425966502e-38
0.30475429 -0.015314286 0.80400002 1.398666966e-38
0.30781716 -0.015314286 0.80400002 1.38044322e-38
0.31088001 -0.015314286 0.80400002 1.417394199e-38
0.31472382 -0.015352381 0.80600005 1.435725985e-38
0.31858286 -0.015390476 0.80800003 1.454092804e-38
0.32245716 -0.015428572 0.81000006 1.426541735e-38
0.32634667 -0.015466668 0.81200004 1.380623286e-38
0.33025143 -0.015504763 0.81400001 1.389734669e-38
0.33540002 -0.015600001 0.81900007 1.352965578e-38
0.33934668 -0.015638094 0.82100004 1.325378776e-38
0.34247431 -0.015638094 0.82100004 1.224325959e-38
0.27949145 -0.014211429 0.82900006 9.850468193e-39
0.28196764 -0.014177144 0.82700002 9.392714431e-39
0.28098097 -0.013971429 0.81500006 8.554709923e-39
0.28373715 -0.013954286 0.81400001 8.280278231e-39
0.28613332 -0.013920001 0.81200004 8.648700617e-39
0.28780192 -0.013851429 0.80800003 9.476666222e-39
0.29016003 -0.013817144 0.80600005 1.076631203e-38
0.2932305 -0.013817144 0.80600005 1.168646205e-38
0.29556569 -0.013782857 0.80400002 1.242473335e-38
0.29937145 -0.013817144 0.80600005 1.315834112e-38
0.30169141 -0.013782857 0.80400002 1.398523333e-38
0.30475429 -0.013782857 0.80400002 1.389626489e-38
0.30858287 -0.013817144 0.80600005 1.352963897e-38
0.31165335 -0.013817144 0.80600005 1.408282816e-38
0.31472382 -0.013817144 0.80600005 1.444910096e-38
0.31858286 -0.013851429 0.80800003 1.481428354e-38
0.32325333 -0.013920001 0.81200004 1.417287e-38
0.32715046 -0.013954286 0.81400001 1.408102889e-38
0.33025143 -0.013954286 0.81400001 1.38055168e-38
0.33458099 -0.014005714 0.81700003 1.306977485e-38
0.33934668 -0.014074286 0.82100004 1.32530773e-38
0.34247431 -0.014074286 0.82100004 1.23332762e-38
0.27949145 -0.012632382 0.82900006 9.94266102e-39
0.28196764 -0.012601905 0.82700002 9.666792996e-39
0.28373903 -0.012540952 0.82300001 8.924925971e-39
0.28373715 -0.012403809 0.81400001 8.188444136e-39
0.28613332 -0.012373334 0.81200004 8.556144853e-39
0.28851432 -0.012342858 0.81000006 9.292630892e-39
0.29016003 -0.012281906 0.80600005 1.085778599e-38
0.2932305 -0.012281906 0.80600005 1.168646065e-38
0.29630098 -0.012281906 0.80600005 1.233218038e-38
0.29937145 -0.012281906 0.80600005 1.306794195e-38
0.30244192 -0.012281906 0.80600005 1.371116457e-38
0.3055124 -0.012281906 0.80600005 1.380479653e-38
0.30858287 -0.012281906 0.80600005 1.325341922e-38
0.31165335 -0.012281906 0.80600005 1.399062833e-38
0.31472382 -0.012281906 0.80600005 1.454128537e-38
0.31858286 -0.012312382 0.80800003 1.509122075e-38
0.32325333 -0.012373334 0.81200004 1.41728798e-38
0.32715046 -0.012403809 0.81400001 1.435654659e-38
0.33065718 -0.012419049 0.81500006 1.371404144e-38
0.33458099 -0.012449524 0.81700003 1.270278459e-38
0.33852002 -0.012480001 0.81900007 1.325235984e-38
0.34247431 -0.012510477 0.82100004 1.242547744e-38
0.27949145 -0.011053334 0.82900006 9.85369258e-39
0.28196764 -0.011026666 0.82700002 9.667157334e-39
0.2844286 -0.011000001 0.82500005 9.019636932e-39
0.28373715 -0.010853333 0.81400001 7.91294045e-39
0.28683808 -0.010853333 0.81400001 8.372113727e-39
0.28922668 -0.010826667 0.81200004 9.108595562e-39
0.29087999 -0.010773334 0.80800003 1.049008247e-38
0.2939581 -0.010773334 0.80800003 1.150278686e-38
0.29630098 -0.010746667 0.80600005 1.21474332e-38
0.29937145 -0.010746667 0.80600005 1.279387179e-38
0.30244192 -0.010746667 0.80600005 1.343745595e-38
0.3055124 -0.010746667 0.80600005 1.371332818e-38
0.30858287 -0.010746667 0.80600005 1.343673568e-38
0.31165335 -0.010746667 0.80600005 1.408174215e-38
0.31472382 -0.010746667 0.80600005 1.435796331e-38
0.31858286 -0.010773334 0.80800003 1.454127977e-38
0.32245716 -0.010800001 0.81000006 1.371478833e-38
0.32634667 -0.010826667 0.81200004 1.481609542e-38
0.33025143 -0.010853333 0.81400001 1.38065972e-38
0.33458099 -0.010893334 0.81700003 1.297900154e-38
0.33852002 -0.01092 0.81900007 1.316196067e-38
0.34164003 -0.01092 0.81900007 1.270170839e-38
0.2810705 -0.0094742868 0.82900006 9.758653716e-39
0.28354284 -0.0094514284 0.82700002 9.483127609e-39
0.28461334 -0.009382857 0.82100004 8.468272229e-39
0.28563809 -0.0093142865 0.81500006 8.005845137e-39
0.28768003 -0.0092799999 0.81200004 8.647618814e-39
0.29077333 -0.0092799999 0.81200004 9.56778005e-39
0.29241905 -0.0092342859 0.80800003 1.067305561e-38
0.29476574 -0.0092114294 0.80600005 1.159678035e-38
0.29783621 -0.0092114294 0.80600005 1.224143089e-38
0.30090669 -0.0092114294 0.80600005 1.288569748e-38
0.30397716 -0.0092114294 0.80600005 1.343674549e-38
0.30704764 -0.0092114294 0.80600005 1.371116037e-38
0.31011811 -0.0092114294 0.80600005 1.389555023e-38
0.31318858 -0.0092114294 0.80600005 1.417322873e-38
0.31704384 -0.0092342859 0.80800003 1.408209949e-38
0.3209143 -0.0092571443 0.81000006 1.362364087e-38
0.32480001 -0.0092799999 0.81200004 1.426472231e-38
0.32870096 -0.0093028564 0.81400001 1.463238239e-38
0.33302477 -0.009337144 0.81700003 1.3622915e-38
0.33696002 -0.0093600005 0.81900007 1.3161232e-38
0.34008002 -0.0093600005 0.81900007 1.297900434e-38
0.34487617 -0.0094057145 0.82300001 1.242262159e-38
0.28264955 -0.0078952387 0.82900006 9.850489212e-39
0.28511807 -0.0078761913 0.82700002 9.206194599e-39
0.28617716 -0.0078190472 0.82100004 8.191323804e-39
0.2871905 -0.0077619054 0.81500006 8.097320499e-39
0.28922668 -0.0077333339 0.81200004 8.740536113e-39
0.29160002 -0.007714286 0.81000006 9.659633763e-39
0.2939581 -0.0076952381 0.80800003 1.09507187e-38
0.2970362 -0.0076952381 0.80800003 1.177938496e-38
0.29937145 -0.0076761907 0.80600005 1.242365715e-38
0.30244192 -0.0076761907 0.80600005 1.306829928e-38
0.3055124 -0.0076761907 0.80600005 1.352820684e-38
0.30858287 -0.0076761907 0.80600005 1.380406786e-38
0.31165335 -0.0076761907 0.80600005 1.454020217e-38
0.31550476 -0.0076952381 0.80800003 1.417251266e-38
0.31937146 -0.007714286 0.81000006 1.398990386e-38
0.32325333 -0.0077333339 0.81200004 1.343853075e-38
0.32634667 -0.0077333339 0.81200004 1.481641071e-38
0.33025143 -0.0077523813 0.81400001 1.39895227e-38
0.33458099 -0.0077809524 0.81700003 1.36218318e-38
0.33852002 -0.0078000003 0.81900007 1.325378215e-38
0.34330857 -0.0078380955 0.82300001 1.34367539e-38
0.3464438 -0.0078380955 0.82300001 1.1413157e-38
0.2848857 -0.0064380956 0.84500003 1.030964007e-38
0.28333145 -0.0063314289 0.83100003 9.941954765e-39
0.28580764 -0.0063161911 0.82900006 9.298383222e-39
0.28617716 -0.0062552383 0.82100004 8.651215947e-39
0.28789523 -0.0062247622 0.81700003 8.005839532e-39
0.28993905 -0.0062019047 0.81400001 8.465388357e-39
0.29232001 -0.0061866669 0.81200004 9.293370778e-39
0.29468572 -0.0061714291 0.81000006 1.058338092e-38
0.2970362 -0.0061561908 0.80800003 1.159392871e-38
0.29937145 -0.0061409529 0.80600005 1.223963443e-38
0.30244192 -0.0061409529 0.80600005 1.297610926e-38
0.3055124 -0.0061409529 0.80600005 1.343565388e-38
0.30858287 -0.0061409529 0.80600005 1.389590756e-38
0.31165335 -0.0061409529 0.80600005 1.490682389e-38
0.31550476 -0.0061561908 0.80800003 1.426433835e-38
0.31937146 -0.0061714291 0.81000006 1.398881785e-38
0.32325333 -0.0061866669 0.81200004 1.371403163e-38
0.32634667 -0.0061866669 0.81200004 1.426576347e-38
0.33065718 -0.0062095243 0.81500006 1.408208687e-38
0.33458099 -0.0062247622 0.81700003 1.389698656e-38
0.33769333 -0.0062247622 0.81700003 1.343710142e-38
0.34247431 -0.0062552383 0.82100004 1.398775707e-38
0.3464438 -0.0062704762 0.82300001 1.104722332e-38
0.34957907 -0.0062704762 0.82300001 1.233873145e-38
0.2832762 -0.0048285713 0.84500003 1.021671576e-38
0.28513905 -0.0048057144 0.84100002 1.040004624e-38
0.28491428 -0.0047485717 0.83100003 1.003306439e-38
0.28669333 -0.0047257142 0.82700002 9.207978452e-39
0.28704002 -0.0046800002 0.81900007 8.466812076e-39
0.28945145 -0.004668572 0.81700003 8.190220982e-39
0.29148951 -0.0046514282 0.81400001 8.741274597e-39
0.29386669 -0.0046399999 0.81200004 9.754354532e-39
0.29622862 -0.0046285721 0.81000006 1.085889161e-38
0.29857522 -0.004617143 0.80800003 1.168685161e-38
0.30165336 -0.004617143 0.80800003 1.233289785e-38
0.30397716 -0.0046057147 0.80600005 1.288392764e-38
0.30780953 -0.004617143 0.80800003 1.343421895e-38
0.31088763 -0.004617143 0.80800003 1.398739413e-38
