# .PCD v0.7 - Point Cloud Data file format
VERSION 0.7
FIELDS x y z rgb
SIZE 4 4 4 4
TYPE F F F F
COUNT 1 1 1 1
WIDTH 948
HEIGHT 1
VIEWPOINT 0 0 0 1 0 0 0
POINTS 948
DATA ascii
0.25980952 -0.09004762 0.77500004 1.288252074e-38
0.26276192 -0.09004762 0.77500004 1.297685755e-38
0.26571429 -0.09004762 0.77500004 1.316054536e-38
0.24821332 -0.083192386 0.71600002 1.316128945e-38
0.27161905 -0.09004762 0.77500004 1.289192906e-38
0.26630861 -0.085051432 0.73200005 1.519820429e-38
0.26909718 -0.085051432 0.73200005 1.371265135e-38
0.27188572 -0.085051432 0.73200005 1.287317127e-38
0.27429906 -0.084935233 0.73100001 1.232106108e-38
0.27746287 -0.085051432 0.73200005 1.260412477e-38
0.28025144 -0.085051432 0.73200005 1.251443607e-38
0.28304002 -0.085051432 0.73200005 1.334310933e-38
0.28543809 -0.084935233 0.73100001 1.435689692e-38
0.28861716 -0.085051432 0.73200005 1.444771087e-38
0.29140574 -0.085051432 0.73200005 1.446499869e-38
0.17188573 -0.085942864 0.75200003 1.492444802e-38
0.17428572 -0.085714296 0.75000006 1.047427022e-38
0.17667049 -0.085485712 0.74800003 8.917024049e-39
0.17952 -0.085485712 0.74800003 1.131016297e-38
0.18236953 -0.085485712 0.74800003 1.223605832e-38
0.1857143 -0.085714296 0.75000006 1.279174603e-38
0.18907429 -0.085942864 0.75200003 1.362005355e-38
0.19219428 -0.086057141 0.75300002 1.481356467e-38
0.19506286 -0.086057141 0.75300002 1.53649546e-38
0.19845717 -0.086285718 0.75500005 1.610069094e-38
0.20133334 -0.086285718 0.75500005 1.6468763e-38
0.20420954 -0.086285718 0.75500005 1.619326072e-38
0.20653716 -0.086057141 0.75300002 1.591774302e-38
0.20940572 -0.086057141 0.75300002 1.554865222e-38
0.21791239 -0.088342868 0.77300006 1.548343579e-38
0.22085716 -0.088342868 0.77300006 1.233649498e-38
0.22351238 -0.088228568 0.77200001 1.012241678e-38
0.22586668 -0.088 0.77000004 1.214818149e-38
0.2288 -0.088 0.77000004 1.380623286e-38
0.23113143 -0.087771431 0.76800001 1.49057617e-38
0.23405714 -0.087771431 0.76800001 1.545462509e-38
0.23698285 -0.087771431 0.76800001 1.536422032e-38
0.23990858 -0.087771431 0.76800001 1.499615947e-38
0.24409907 -0.088228568 0.77200001 1.48139178e-38
0.24703999 -0.088228568 0.77200001 1.4538075e-38
0.25030476 -0.088342868 0.77300006 1.389483556e-38
0.25390476 -0.088571437 0.77500004 1.306651403e-38
0.25685716 -0.088571437 0.77500004 1.260445548e-38
0.25980952 -0.088571437 0.77500004 1.269884134e-38
0.26276192 -0.088571437 0.77500004 1.288502626e-38
0.26571429 -0.088571437 0.77500004 1.297686316e-38
0.24856 -0.081942856 0.71700001 1.270138189e-38
0.25024 -0.08160001 0.71400005 1.187560932e-38
0.25473145 -0.082171433 0.71900004 1.326250664e-38
0.25890288 -0.082628578 0.72300005 1.57481761e-38
0.26346669 -0.083200008 0.72800004 1.566243905e-38
0.26733714 -0.083542861 0.73100001 1.454058893e-38
0.2701219 -0.083542861 0.73100001 1.426690973e-38
0.27215999 -0.083314285 0.72900003 1.417498596e-38
0.27380571 -0.082971431 0.72600001 1.343350289e-38
0.27771428 -0.083314285 0.72900003 1.260483103e-38
0.28049144 -0.083314285 0.72900003 1.260518556e-38
0.28404573 -0.083542861 0.73100001 1.352714185e-38
0.28683048 -0.083542861 0.73100001 1.426400204e-38
0.29001144 -0.083657146 0.73200005 1.436128298e-38
0.17524572 -0.084060952 0.74800003 1.040575233e-38
0.17809524 -0.084060952 0.74800003 1.213019863e-38
0.18094477 -0.084060952 0.74800003 1.278598389e-38
0.18379429 -0.084060952 0.74800003 1.288034032e-38
0.1876419 -0.084510483 0.75200003 1.297361355e-38
0.19050668 -0.084510483 0.75200003 1.380372034e-38
0.19362858 -0.08462286 0.75300002 1.426220558e-38
0.19649714 -0.08462286 0.75300002 1.508980404e-38
0.19989525 -0.084847622 0.75500005 1.609890429e-38
0.2022343 -0.08462286 0.75300002 1.600814779e-38
0.20510286 -0.08462286 0.75300002 1.655916077e-38
0.20852382 -0.084847622 0.75500005 1.591808073e-38
0.21504 -0.086308569 0.76800001 1.546147744e-38
0.21938477 -0.086870477 0.77300006 1.519316802e-38
0.22232954 -0.086870477 0.77300006 1.150033038e-38
0.22440001 -0.086533338 0.77000004 1.279427817e-38
0.22733334 -0.086533338 0.77000004 1.398990806e-38
0.22966857 -0.086308569 0.76800001 1.47220781e-38
0.23259428 -0.086308569 0.76800001 1.591343683e-38
0.23552001 -0.086308569 0.76800001 1.536385878e-38
0.23844571 -0.086308569 0.76800001 1.508906696e-38
0.242 -0.086533338 0.77000004 1.444550102e-38
0.24556951 -0.086758092 0.77200001 1.50905187e-38
0.24883239 -0.086870477 0.77300006 1.444551643e-38
0.25242859 -0.087095238 0.77500004 1.343422876e-38
0.25538096 -0.087095238 0.77500004 1.251228227e-38
0.25833333 -0.087095238 0.77500004 1.233041054e-38
0.26128572 -0.087095238 0.77500004 1.251337668e-38
0.26423809 -0.087095238 0.77500004 1.260557091e-38
0.26650098 -0.086870477 0.77300006 1.260916384e-38
0.26944575 -0.086870477 0.77300006 1.215036191e-38
0.25265715 -0.080577143 0.71700001 1.132279007e-38
0.25752571 -0.081251428 0.72300005 1.271579004e-38
0.26100001 -0.081476189 0.72500002 1.51139344e-38
0.2641257 -0.081588566 0.72600001 1.418332648e-38
0.26652381 -0.081476189 0.72500002 1.371516248e-38
0.26965716 -0.081588566 0.72600001 1.408249605e-38
0.27129716 -0.081251428 0.72300005 1.399276391e-38
0.27480954 -0.081476189 0.72500002 1.362003393e-38
0.27795428 -0.081588566 0.72600001 1.296821715e-38
0.28187999 -0.08192572 0.72900003 1.325198149e-38
0.28543809 -0.082150482 0.73100001 1.380409869e-38
0.28861716 -0.082262866 0.73200005 1.41714757e-38
0.29220191 -0.08248762 0.73400003 1.428059622e-38
0.17052953 -0.079763815 0.72200006 1.360600973e-38
0.17328002 -0.079763815 0.72200006 1.361323063e-38
0.17554286 -0.07954286 0.72000003 1.334238626e-38
0.18645714 -0.083188571 0.75300002 1.297038916e-38
0.18932572 -0.083188571 0.75300002 1.315151679e-38
0.19219428 -0.083188571 0.75300002 1.324338452e-38
0.19506286 -0.083188571 0.75300002 1.389486219e-38
0.19845717 -0.083409533 0.75500005 1.508978442e-38
0.20133334 -0.083409533 0.75500005 1.564008134e-38
0.20420954 -0.083409533 0.75500005 1.63747625e-38
0.20708573 -0.083409533 0.75500005 1.646840007e-38
0.21024001 -0.083520003 0.75600004 1.582624804e-38
0.21650286 -0.084845714 0.76800001 1.518492138e-38
0.22057143 -0.085287623 0.77200001 1.426686349e-38
0.22293335 -0.085066676 0.77000004 1.417862933e-38
0.22586668 -0.085066676 0.77000004 1.462989228e-38
0.22820571 -0.084845714 0.76800001 1.481462966e-38
0.23113143 -0.084845714 0.76800001 1.573012177e-38
0.23405714 -0.084845714 0.76800001 1.582087967e-38
0.23698285 -0.084845714 0.76800001 1.508870542e-38
0.23990858 -0.084845714 0.76800001 1.444226963e-38
0.24346668 -0.085066676 0.77000004 1.472136344e-38
0.24703999 -0.085287623 0.77200001 1.499688534e-38
0.25030476 -0.0853981 0.77300006 1.39838012e-38
0.25390476 -0.085619047 0.77500004 1.288034312e-38
0.25685716 -0.085619047 0.77500004 1.214566055e-38
0.25980952 -0.085619047 0.77500004 1.214602629e-38
0.26208383 -0.0853981 0.77300006 1.223786739e-38
0.2650286 -0.0853981 0.77300006 1.223283533e-38
0.26797333 -0.0853981 0.77300006 1.205706486e-38
0.27056763 -0.085287623 0.77200001 1.150785675e-38
0.25579429 -0.079763815 0.72200006 1.077173786e-38
0.25890288 -0.079874292 0.72300005 1.207580863e-38
0.26165715 -0.079874292 0.72300005 1.372055047e-38
0.26441145 -0.079874292 0.72300005 1.342742125e-38
0.26568764 -0.079432383 0.71900004 1.352142736e-38
0.26992002 -0.079874292 0.72300005 1.388874552e-38
0.27154288 -0.07954286 0.72000003 1.417248884e-38
0.27619046 -0.080095246 0.72500002 1.398989825e-38
0.28010669 -0.080426671 0.72800004 1.361319699e-38
0.28404573 -0.080758095 0.73100001 1.352640757e-38
0.28722286 -0.080868572 0.73200005 1.37111898e-38
0.2919924 -0.081420958 0.73700005 1.407962619e-38
0.16777906 -0.078388579 0.72200006 1.51150092e-38
0.17005715 -0.078171432 0.72000003 1.379291632e-38
0.1728 -0.078171432 0.72000003 1.398130269e-38
0.17529905 -0.078062862 0.71900004 1.41664016e-38
0.18645714 -0.08175429 0.75300002 1.425787977e-38
0.18932572 -0.08175429 0.75300002 1.370573734e-38
0.19219428 -0.08175429 0.75300002 1.278743423e-38
0.19558096 -0.081971437 0.75500005 1.32498431e-38
0.19845717 -0.081971437 0.75500005 1.453876864e-38
0.20133334 -0.081971437 0.75500005 1.527309388e-38
0.20420954 -0.081971437 0.75500005 1.61921565e-38
0.20790857 -0.082297146 0.75800002 1.628437034e-38
0.21163048 -0.082622863 0.76100004 1.600958693e-38
0.21622096 -0.08327429 0.76700002 1.555041085e-38
0.21942858 -0.08338286 0.76800001 1.472497178e-38
0.22235428 -0.08338286 0.76800001 1.454236858e-38
0.22528 -0.08338286 0.76800001 1.509014315e-38
0.22820571 -0.08338286 0.76800001 1.527380994e-38
0.23113143 -0.08338286 0.76800001 1.545533415e-38
0.23405714 -0.08338286 0.76800001 1.536276997e-38
0.23698285 -0.08338286 0.76800001 1.481247867e-38
0.23990858 -0.08338286 0.76800001 1.444226822e-38
0.24346668 -0.083600007 0.77000004 1.462880627e-38
0.24703999 -0.083817147 0.77200001 1.472064177e-38
0.25030476 -0.083925724 0.77300006 1.407598562e-38
0.25390476 -0.084142864 0.77500004 1.260483803e-38
0.25685716 -0.084142864 0.77500004 1.168469361e-38
0.25980952 -0.084142864 0.77500004 1.168648868e-38
0.26208383 -0.083925724 0.77300006 1.187087573e-38
0.264 -0.083600007 0.77000004 1.196055183e-38
0.26693335 -0.083600007 0.77000004 1.1686832e-38
0.26986668 -0.083600007 0.77000004 1.113690502e-38
0.25614861 -0.078497149 0.72300005 1.039680644e-38
0.25890288 -0.078497149 0.72300005 1.094828324e-38
0.26129526 -0.078388579 0.72200006 1.186764013e-38
0.26294857 -0.078062862 0.71900004 1.241578605e-38
0.26568764 -0.078062862 0.71900004 1.315116647e-38
0.26880002 -0.078171432 0.72000003 1.388803086e-38
0.27116573 -0.078062862 0.71900004 1.444657301e-38
0.27542859 -0.078497149 0.72300005 1.426505441e-38
0.28010669 -0.079040006 0.72800004 1.380294822e-38
0.28326857 -0.079148576 0.72900003 1.361607526e-38
0.28683048 -0.079365715 0.73100001 1.370938212e-38
0.2919924 -0.080017149 0.73700005 1.389556564e-38
0.16640382 -0.077013336 0.72200006 1.686346674e-38
0.16868572 -0.076799996 0.72000003 1.407350672e-38
0.17142858 -0.076799996 0.72000003 1.416494705e-38
0.17392953 -0.076693341 0.71900004 1.471705725e-38
0.17666858 -0.076693341 0.71900004 1.545102515e-38
0.17940763 -0.076693341 0.71900004 1.572687636e-38
0.19076 -0.080320001 0.75300002 1.297216741e-38
0.19414288 -0.080533341 0.75500005 1.168647046e-38
0.19701906 -0.080533341 0.75500005 1.36175214e-38
0.19989525 -0.080533341 0.75500005 1.435509205e-38
0.20277144 -0.080533341 0.75500005 1.564186939e-38
0.20592001 -0.080640003 0.75600004 1.637655616e-38
0.20990478 -0.081066668 0.76000005 1.600850372e-38
0.21364 -0.08138667 0.76300001 1.646804134e-38
0.2171143 -0.08160001 0.76500005 1.545821241e-38
0.22060381 -0.081813335 0.76700002 1.500011393e-38
0.22381714 -0.081919998 0.76800001 1.4999751e-38
0.22674286 -0.081919998 0.76800001 1.609997768e-38
0.22966857 -0.081919998 0.76800001 1.527345682e-38
0.23259428 -0.081919998 0.76800001 1.508870542e-38
0.23552001 -0.081919998 0.76800001 1.481319613e-38
0.23844571 -0.081919998 0.76800001 1.444333741e-38
0.24137142 -0.081919998 0.76800001 1.444297588e-38
0.24556951 -0.08234667 0.77200001 1.47199201e-38
0.24883239 -0.082453333 0.77300006 1.444404507e-38
0.25242859 -0.082666665 0.77500004 1.389159576e-38
0.25538096 -0.082666665 0.77500004 1.103968154e-38
0.25833333 -0.082666665 0.77500004 1.131734042e-38
0.26027429 -0.08234667 0.77200001 1.141132831e-38
0.26321524 -0.08234667 0.77200001 1.177866749e-38
0.26546669 -0.082133338 0.77000004 1.150136874e-38
0.26770288 -0.081919998 0.76800001 1.113402395e-38
0.27062857 -0.081919998 0.76800001 1.030534229e-38
0.25752571 -0.077120006 0.72300005 9.840440501e-39
0.25992 -0.077013336 0.72200006 9.746103687e-39
0.26303428 -0.077120006 0.72300005 1.048113378e-38
0.26431811 -0.076693341 0.71900004 1.232286035e-38
0.2663143 -0.076480001 0.71700001 1.324409218e-38
0.26979619 -0.076693341 0.71900004 1.453446105e-38
0.27253526 -0.076693341 0.71900004 1.508978722e-38
0.27642286 -0.077013336 0.72200006 1.417213151e-38
0.28033334 -0.077333339 0.72500002 1.389194469e-38
0.28543809 -0.077973336 0.73100001 1.361610189e-38
0.2894057 -0.078293331 0.73400003 1.380014142e-38
0.2933962 -0.078613341 0.73700005 1.381349159e-38
0.16777906 -0.075638101 0.72200006 1.325776464e-38
0.17005715 -0.075428575 0.72000003 1.315366498e-38
0.17256001 -0.075323813 0.71900004 1.425787696e-38
0.17529905 -0.075323813 0.71900004 1.51758788e-38
0.17803811 -0.075323813 0.71900004 1.563434302e-38
0.18027428 -0.075114287 0.71700001 1.50840391e-38
0.19270477 -0.079095237 0.75500005 1.389089511e-38
0.19558096 -0.079095237 0.75500005 1.36167661e-38
0.19845717 -0.079095237 0.75500005 1.370863383e-38
0.20133334 -0.079095237 0.75500005 1.407565071e-38
0.20448001 -0.0792 0.75600004 1.49046757e-38
0.20790857 -0.079409525 0.75800002 1.527345962e-38
0.21135239 -0.07961905 0.76000005 1.55500409e-38
0.21509334 -0.07993333 0.76300001 1.554967937e-38
0.21914285 -0.080352381 0.76700002 1.527561482e-38
0.22206476 -0.080352381 0.76700002 1.500047827e-38
0.22528 -0.080457143 0.76800001 1.527454142e-38
0.22820571 -0.080457143 0.76800001 1.554968918e-38
0.23113143 -0.080457143 0.76800001 1.518126119e-38
0.23405714 -0.080457143 0.76800001 1.490503723e-38
0.23698285 -0.080457143 0.76800001 1.453625471e-38
0.23990858 -0.080457143 0.76800001 1.435112497e-38
0.24346668 -0.080666669 0.77000004 1.444440941e-38
0.24703999 -0.080876186 0.77200001 1.453696657e-38
0.25030476 -0.080980957 0.77300006 1.380117698e-38
0.25390476 -0.081190482 0.77500004 1.214564934e-38
0.25685716 -0.081190482 0.77500004 1.104002626e-38
0.25913906 -0.080980957 0.77300006 1.104182832e-38
0.26174477 -0.080876186 0.77200001 1.122549091e-38
0.264 -0.080666669 0.77000004 1.113150862e-38
0.26624 -0.080457143 0.76800001 1.076238279e-38
0.26881525 -0.080352381 0.76700002 1.011771683e-38
0.25685716 -0.075952381 0.72500002 9.657471559e-39
0.25890288 -0.075742863 0.72300005 9.56454305e-39
0.26129526 -0.075638101 0.72200006 9.83684617e-39
0.26294857 -0.075323813 0.71900004 1.094173918e-38
0.26568764 -0.075323813 0.71900004 1.222887106e-38
0.26842669 -0.075323813 0.71900004 1.333414242e-38
0.27116573 -0.075323813 0.71900004 1.426038529e-38
0.2742857 -0.075428575 0.72000003 1.444589198e-38
0.27818286 -0.075742863 0.72300005 1.416925465e-38
0.28093714 -0.075742863 0.72300005 1.379977708e-38
0.28722286 -0.076685719 0.73200005 1.361396491e-38
0.29080382 -0.076895244 0.73400003 1.380300427e-38
0.16640382 -0.074262865 0.72200006 1.077138753e-38
0.16868572 -0.074057147 0.72000003 1.149850169e-38
0.17142858 -0.074057147 0.72000003 1.315619853e-38
0.17392953 -0.073954292 0.71900004 1.526878208e-38
0.17666858 -0.073954292 0.71900004 1.554286906e-38
0.17890857 -0.073748574 0.71700001 1.609531837e-38
0.18164 -0.073748574 0.71700001 1.572688617e-38
0.19440001 -0.077760004 0.75600004 1.51783591e-38
0.19701906 -0.077657148 0.75500005 1.416852177e-38
0.19989525 -0.077657148 0.75500005 1.26941582e-38
0.20304002 -0.077760004 0.75600004 1.36139579e-38
0.20592001 -0.077760004 0.75600004 1.407851496e-38
0.20990478 -0.078171432 0.76000005 1.481319893e-38
0.21308 -0.078274287 0.76100004 1.518269331e-38
0.21654667 -0.078479998 0.76300001 1.536600838e-38
0.22002858 -0.078685716 0.76500005 1.536780904e-38
0.22352572 -0.078891426 0.76700002 1.472388858e-38
0.22674286 -0.078994282 0.76800001 1.536601678e-38
0.22966857 -0.078994282 0.76800001 1.545784948e-38
0.23259428 -0.078994282 0.76800001 1.518126959e-38
0.23552001 -0.078994282 0.76800001 1.462917622e-38
0.23844571 -0.078994282 0.76800001 1.435150052e-38
0.24137142 -0.078994282 0.76800001 1.425930349e-38
0.24556951 -0.07940571 0.77200001 1.444513248e-38
0.24947619 -0.079714291 0.77500004 1.453695396e-38
0.25242859 -0.079714291 0.77500004 1.233038112e-38
0.25538096 -0.079714291 0.77500004 1.131482229e-38
0.25766668 -0.07950858 0.77300006 1.058014252e-38
0.26027429 -0.07940571 0.77200001 1.094819917e-38
0.26253334 -0.0792 0.77000004 1.10382354e-38
0.26477712 -0.078994282 0.76800001 1.048506862e-38
0.26735431 -0.078891426 0.76700002 1.002516807e-38
0.26957145 -0.078685716 0.76500005 9.290477096e-39
0.27248573 -0.078685716 0.76500005 9.380514727e-39
0.25992 -0.074262865 0.72200006 9.377650473e-39
0.26267049 -0.074262865 0.72200006 9.929748055e-39
0.26431811 -0.073954292 0.71900004 1.112541017e-38
0.2663143 -0.073748574 0.71700001 1.232071636e-38
0.26979619 -0.073954292 0.71900004 1.333772414e-38
0.27253526 -0.073954292 0.71900004 1.416819947e-38
0.27565715 -0.074057147 0.72000003 1.444442202e-38
0.27917334 -0.074262865 0.72200006 1.416782952e-38
0.28192383 -0.074262865 0.72200006 1.35242748e-38
0.2894057 -0.075497143 0.73400003 1.370902339e-38
0.16640382 -0.072887622 0.72200006 1.068020504e-38
0.16868572 -0.072685711 0.72000003 1.140737945e-38
0.17119049 -0.072584763 0.71900004 1.288177525e-38
0.17392953 -0.072584763 0.71900004 1.471812223e-38
0.17617714 -0.072382852 0.71700001 1.517589281e-38
0.17940763 -0.072584763 0.71900004 1.563758422e-38
0.1824 -0.072685711 0.72000003 1.545137828e-38
0.18565716 -0.072887622 0.72200006 1.545422712e-38
0.19728 -0.07632 0.75600004 1.453730709e-38
0.19989525 -0.076219052 0.75500005 1.361144117e-38
0.20304002 -0.07632 0.75600004 1.389340904e-38
0.20646477 -0.076521903 0.75800002 1.352498946e-38
0.20990478 -0.076723814 0.76000005 1.426218035e-38
0.21308 -0.076824762 0.76100004 1.45416357e-38
0.21654667 -0.077026665 0.76300001 1.499902232e-38
0.22002858 -0.077228576 0.76500005 1.536816357e-38
0.22294286 -0.077228576 0.76500005 1.555040524e-38
0.22644763 -0.077430479 0.76700002 1.536637411e-38
0.22966857 -0.077531427 0.76800001 1.536637411e-38
0.23259428 -0.077531427 0.76800001 1.545570829e-38
0.23552001 -0.077531427 0.76800001 1.472101872e-38
0.23844571 -0.077531427 0.76800001 1.435222359e-38
0.24137142 -0.077531427 0.76800001 1.4167475e-38
0.24556951 -0.077935241 0.77200001 1.435366132e-38
0.24947619 -0.078238092 0.77500004 1.435149211e-38
0.25242859 -0.078238092 0.77500004 1.251297311e-38
0.25538096 -0.078238092 0.77500004 1.149849748e-38
0.25766668 -0.078036197 0.77300006 1.039396741e-38
0.26027429 -0.077935241 0.77200001 1.057727406e-38
0.26253334 -0.077733338 0.77000004 1.057583072e-38
0.26477712 -0.077531427 0.76800001 9.93153471e-39
0.26735431 -0.077430479 0.76700002 9.56383119e-39
0.26957145 -0.077228576 0.76500005 9.198277263e-39
0.27177334 -0.077026665 0.76300001 9.197555594e-39
0.27467999 -0.077026665 0.76300001 9.011020348e-39
0.26303428 -0.072988577 0.72300005 9.743200196e-39
0.26431811 -0.072584763 0.71900004 1.038821508e-38
0.26705715 -0.072584763 0.71900004 1.167715183e-38
0.26979619 -0.072584763 0.71900004 1.269236173e-38
0.27253526 -0.072584763 0.71900004 1.361430542e-38
0.27527431 -0.072584763 0.71900004 1.434971106e-38
0.2784 -0.072685711 0.72000003 1.444333741e-38
0.28192383 -0.072887622 0.72200006 1.343387423e-38
0.16777906 -0.071512386 0.72200006 1.094602015e-38
0.17005715 -0.07131429 0.72000003 1.195983857e-38
0.17256001 -0.071215235 0.71900004 1.343277982e-38
0.17481142 -0.071017146 0.71700001 1.453266319e-38
0.17803811 -0.071215235 0.71900004 1.49897149e-38
0.18102857 -0.07131429 0.72000003 1.517587319e-38
0.18428192 -0.071512386 0.72200006 1.545172861e-38
0.1870324 -0.071512386 0.72200006 1.536273774e-38
0.19083428 -0.071908571 0.72600001 1.47220767e-38
0.1936 -0.071908571 0.72600001 1.435474032e-38
0.20448001 -0.074880004 0.75600004 1.36161173e-38
0.20790857 -0.075078093 0.75800002 1.334095273e-38
0.21135239 -0.075276196 0.76000005 1.389196851e-38
0.21509334 -0.07557334 0.76300001 1.435833185e-38
0.21800001 -0.07557334 0.76300001 1.499902793e-38
0.22148572 -0.075771436 0.76500005 1.59184787e-38
0.22498667 -0.075969525 0.76700002 1.591702556e-38
0.22790857 -0.075969525 0.76700002 1.527382816e-38
0.23113143 -0.076068573 0.76800001 1.554968357e-38
0.23405714 -0.076068573 0.76800001 1.527131423e-38
0.23698285 -0.076068573 0.76800001 1.453660364e-38
0.23990858 -0.076068573 0.76800001 1.425930629e-38
0.24346668 -0.076266669 0.77000004 1.416855259e-38
0.24703999 -0.076464765 0.77200001 1.426075663e-38
0.25095239 -0.076761909 0.77500004 1.343240707e-38
0.25390476 -0.076761909 0.77500004 1.214347733e-38
0.25685716 -0.076761909 0.77500004 1.09442433e-38
0.25880381 -0.076464765 0.77200001 1.020955233e-38
0.26174477 -0.076464765 0.77200001 1.011629031e-38
0.264 -0.076266669 0.77000004 9.748219648e-39
0.26624 -0.076068573 0.76800001 9.286885568e-39
0.26881525 -0.075969525 0.76700002 9.10466492e-39
0.27102858 -0.075771436 0.76500005 9.103200563e-39
0.27322668 -0.07557334 0.76300001 8.830210807e-39
0.26165715 -0.071611427 0.72300005 9.101059379e-39
0.26404572 -0.071512386 0.72200006 9.559525e-39
0.26605716 -0.07131429 0.72000003 1.03896472e-38
0.26842669 -0.071215235 0.71900004 1.158781905e-38
0.27116573 -0.071215235 0.71900004 1.260302615e-38
0.27390477 -0.071215235 0.71900004 1.370685978e-38
0.27664381 -0.071215235 0.71900004 1.453445264e-38
0.27938288 -0.071215235 0.71900004 1.407671009e-38
0.29857147 -0.074285723 0.75000006 1.409259101e-38
0.16731429 -0.069942862 0.72000003 1.06733667e-38
0.17005715 -0.069942862 0.72000003 1.14963549e-38
0.17256001 -0.069845721 0.71900004 1.315762926e-38
0.17529905 -0.069845721 0.71900004 1.42571609e-38
0.17803811 -0.069845721 0.71900004 1.462235329e-38
0.18102857 -0.069942862 0.72000003 1.489929051e-38
0.18428192 -0.070137143 0.72200006 1.526697441e-38
0.18729143 -0.070234284 0.72300005 1.527198545e-38
0.19083428 -0.070525713 0.72600001 1.508942289e-38
0.19413334 -0.070720002 0.72800004 1.49057561e-38
0.19690667 -0.070720002 0.72800004 1.44451563e-38
0.20790857 -0.073634289 0.75800002 1.398523193e-38
0.21163048 -0.073925719 0.76100004 1.342848904e-38
0.21509334 -0.07412 0.76300001 1.37079528e-38
0.21800001 -0.07412 0.76300001 1.463061955e-38
0.22090666 -0.07412 0.76300001 1.54600299e-38
0.22498667 -0.07450857 0.76700002 1.56418778e-38
0.22790857 -0.07450857 0.76700002 1.527454983e-38
0.23083048 -0.07450857 0.76700002 1.536601398e-38
0.23405714 -0.074605711 0.76800001 1.518089545e-38
0.23698285 -0.074605711 0.76800001 1.426216494e-38
0.23990858 -0.074605711 0.76800001 1.389124123e-38
0.24346668 -0.0748 0.77000004 1.398560187e-38
0.24736002 -0.075091437 0.77300006 1.398238309e-38
0.25095239 -0.075285718 0.77500004 1.333914645e-38
0.25390476 -0.075285718 0.77500004 1.251009344e-38
0.25685716 -0.075285718 0.77500004 1.112860934e-38
0.25913906 -0.075091437 0.77300006 1.002514145e-38
0.26174477 -0.074994288 0.77200001 9.931533309e-39
0.264 -0.0748 0.77000004 9.470552357e-39
0.26624 -0.074605711 0.76800001 9.011377679e-39
0.26881525 -0.07450857 0.76700002 9.011404303e-39
0.27102858 -0.074314289 0.76500005 9.011000729e-39
0.27322668 -0.07412 0.76300001 9.104636894e-39
0.26129526 -0.070137143 0.72200006 9.470549554e-39
0.26404572 -0.070137143 0.72200006 9.192534742e-39
0.26605716 -0.069942862 0.72000003 9.561678796e-39
0.26880002 -0.069942862 0.72000003 1.112325217e-38
0.27116573 -0.069845721 0.71900004 1.204519026e-38
0.27390477 -0.069845721 0.71900004 1.296930035e-38
0.27664381 -0.069845721 0.71900004 1.370613811e-38
0.27938288 -0.069845721 0.71900004 1.379976587e-38
0.29624763 -0.07334286 0.75500005 1.361899417e-38
0.29714289 -0.072857149 0.75000006 1.389416434e-38
0.30000001 -0.072857149 0.75000006 1.418664896e-38
0.16731429 -0.068571426 0.72000003 1.030926592e-38
0.17005715 -0.068571426 0.72000003 1.103573268e-38
0.17256001 -0.068476193 0.71900004 1.288247029e-38
0.17529905 -0.068476193 0.71900004 1.407347309e-38
0.17878097 -0.068761908 0.72200006 1.434719713e-38
0.18153144 -0.068761908 0.72200006 1.453085831e-38
0.18453714 -0.068857148 0.72300005 1.499074625e-38
0.18780953 -0.069047615 0.72500002 1.518195623e-38
0.19083428 -0.069142856 0.72600001 1.554824304e-38
0.19440001 -0.069428571 0.72900003 1.554861158e-38
0.19717716 -0.069428571 0.72900003 1.527669382e-38
0.2018743 -0.070095241 0.73600006 1.462951673e-38
0.21218666 -0.072666667 0.76300001 1.296572283e-38
0.21509334 -0.072666667 0.76300001 1.305718418e-38
0.21742858 -0.072476193 0.76100004 1.435295366e-38
0.22090666 -0.072666667 0.76300001 1.500155727e-38
0.22440001 -0.072857149 0.76500005 1.536709158e-38
0.22790857 -0.073047623 0.76700002 1.518306466e-38
0.23083048 -0.073047623 0.76700002 1.518055073e-38
0.23375238 -0.073047623 0.76700002 1.499758879e-38
0.23698285 -0.073142856 0.76800001 1.407885268e-38
0.23990858 -0.073142856 0.76800001 1.352353912e-38
0.24409907 -0.073523812 0.77200001 1.371080864e-38
0.24736002 -0.073619053 0.77300006 1.370688641e-38
0.25095239 -0.073809519 0.77500004 1.333915206e-38
0.25390476 -0.073809519 0.77500004 1.296890939e-38
0.25685716 -0.073809519 0.77500004 1.14059207e-38
0.25913906 -0.073619053 0.77300006 9.932954225e-39
0.26174477 -0.073523812 0.77200001 9.747146253e-39
0.264 -0.073333338 0.77000004 9.194328404e-39
0.26624 -0.073142856 0.76800001 8.827696877e-39
0.26881525 -0.073047623 0.76700002 8.826999031e-39
0.27102858 -0.072857149 0.76500005 9.010649003e-39
0.27394286 -0.072857149 0.76500005 9.379431523e-39
0.27685714 -0.072857149 0.76500005 9.930092774e-39
0.26441145 -0.068857148 0.72300005 8.825901814e-39
0.2667962 -0.068761908 0.72200006 8.731929338e-39
0.26954669 -0.068761908 0.72200006 1.065905384e-38
0.27154288 -0.068571426 0.72000003 1.149167036e-38
0.27390477 -0.068476193 0.71900004 1.213811456e-38
0.27664381 -0.068476193 0.71900004 1.287673618e-38
0.29453716 -0.072190478 0.75800002 1.343135049e-38
0.29664001 -0.072000004 0.75600004 1.380302529e-38
0.29952002 -0.072000004 0.75600004 1.407926186e-38
0.30000001 -0.071428575 0.75000006 1.391147598e-38
0.16731429 -0.067200005 0.72000003 1.040254896e-38
0.17005715 -0.067200005 0.72000003 1.094819356e-38
0.1728 -0.067200005 0.72000003 1.223458835e-38
0.17554286 -0.067200005 0.72000003 1.287887736e-38
0.17878097 -0.067386672 0.72200006 1.324265164e-38
0.18153144 -0.067386672 0.72200006 1.397947259e-38
0.18504763 -0.067666672 0.72500002 1.462411893e-38
0.18806857 -0.067759998 0.72600001 1.481390939e-38
0.19136001 -0.067946665 0.72800004 1.508906836e-38
0.19440001 -0.068039998 0.72900003 1.5181278e-38
0.1977181 -0.068226665 0.73100001 1.518413805e-38
0.2018743 -0.06869334 0.73600006 1.518411843e-38
0.20634668 -0.069253333 0.74200004 1.426074682e-38
0.21509334 -0.071213335 0.76300001 1.379471139e-38
0.21742858 -0.071026668 0.76100004 1.435330679e-38
0.22090666 -0.071213335 0.76300001 1.490719944e-38
0.22381333 -0.071213335 0.76300001 1.536601959e-38
0.22731429 -0.071400002 0.76500005 1.536601118e-38
0.23083048 -0.071586668 0.76700002 1.527167156e-38
0.23375238 -0.071586668 0.76700002 1.50883551e-38
0.23667429 -0.071586668 0.76700002 1.435400183e-38
0.23990858 -0.071680002 0.76800001 1.380083927e-38
0.24409907 -0.072053328 0.77200001 1.361753541e-38
0.24736002 -0.072146669 0.77300006 1.352322522e-38
0.25095239 -0.072333336 0.77500004 1.315584541e-38
0.25390476 -0.072333336 0.77500004 1.278954178e-38
0.25685716 -0.072333336 0.77500004 1.158924557e-38
0.25913906 -0.072146669 0.77300006 1.020775026e-38
0.26174477 -0.072053328 0.77200001 9.747865119e-39
0.264 -0.071866669 0.77000004 9.377640663e-39
0.26693335 -0.071866669 0.77000004 9.195747919e-39
0.26916569 -0.071680002 0.76800001 9.1943242e-39
0.27173716 -0.071586668 0.76700002 9.473422216e-39
0.27465904 -0.071586668 0.76700002 9.657454743e-39
0.26346669 -0.067946665 0.72800004 9.471639764e-39
0.26514289 -0.067666672 0.72500002 8.733700579e-39
0.26716572 -0.067480005 0.72300005 9.005283432e-39
0.26992002 -0.067480005 0.72300005 1.139589161e-38
0.27154288 -0.067200005 0.72000003 1.296140263e-38
0.2742857 -0.067200005 0.72000003 1.323942165e-38
0.27664381 -0.067106672 0.71900004 1.342702048e-38
0.29531431 -0.070933335 0.76000005 1.380013021e-38
0.29742476 -0.070746668 0.75800002 1.407889332e-38
0.30110478 -0.070933335 0.76000005 1.444767163e-38
0.1691543 -0.066011429 0.72200006 1.067769531e-38
0.17190477 -0.066011429 0.72200006 1.122188817e-38
0.17465526 -0.066011429 0.72200006 1.195979653e-38
0.17740573 -0.066011429 0.72200006 1.149848067e-38
0.18040572 -0.066102862 0.72300005 1.287422785e-38
0.18366668 -0.066285722 0.72500002 1.398056e-38
0.18668571 -0.066377141 0.72600001 1.462845174e-38
0.18997334 -0.06656 0.72800004 1.453806379e-38
0.19301143 -0.066651426 0.72900003 1.481428634e-38
0.1963257 -0.066834286 0.73100001 1.490684631e-38
0.2004724 -0.067291431 0.73600006 1.527489875e-38
0.2035524 -0.067382865 0.73700005 1.619324951e-38
0.20719999 -0.067657143 0.74000001 1.499399867e-38
0.21597905 -0.069577143 0.76100004 1.426002796e-38
0.21887811 -0.069577143 0.76100004 1.472173058e-38
0.22236 -0.069760002 0.76300001 1.509087463e-38
0.22526667 -0.069760002 0.76300001 1.564152607e-38
0.22877143 -0.069942862 0.76500005 1.536458325e-38
0.23229143 -0.070125714 0.76700002 1.536314692e-38
0.23521332 -0.070125714 0.76700002 1.490502742e-38
0.23813525 -0.070125714 0.76700002 1.444512267e-38
0.24137142 -0.07021714 0.76800001 1.380084207e-38
0.24556951 -0.070582859 0.77200001 1.334024227e-38
0.24883239 -0.070674293 0.77300006 1.334023807e-38
0.25242859 -0.070857145 0.77500004 1.288246889e-38
0.25538096 -0.070857145 0.77500004 1.242150335e-38
0.25833333 -0.070857145 0.77500004 1.112755976e-38
0.26061144 -0.070674293 0.77300006 1.002408207e-38
0.26321524 -0.070582859 0.77200001 9.563113726e-39
0.26546669 -0.070400007 0.77000004 9.560955726e-39
0.26840001 -0.070400007 0.77000004 9.745341381e-39
0.27027619 -0.070125714 0.76700002 9.472355828e-39
0.2731981 -0.070125714 0.76700002 1.048685388e-38
0.26244 -0.066651426 0.72900003 9.384118866e-39
0.26485333 -0.06656 0.72800004 8.824853643e-39
0.26689142 -0.066377141 0.72600001 8.64405251e-39
0.26928571 -0.066285722 0.72500002 9.933708124e-39
0.27204764 -0.066285722 0.72500002 1.443796203e-38
0.2736724 -0.066011429 0.72200006 1.462485882e-38
0.27642286 -0.066011429 0.72200006 1.407166682e-38
0.29425332 -0.069577143 0.76100004 1.4078124e-38
0.2967619 -0.069485717 0.76000005 1.426219436e-38
0.30005145 -0.069577143 0.76100004 1.453951553e-38
0.3025524 -0.069485717 0.76000005 1.527889105e-38
0.17052953 -0.064636193 0.72200006 1.067625478e-38
0.17328002 -0.064636193 0.72200006 1.103927936e-38
0.1762743 -0.064725719 0.72300005 1.11314834e-38
0.17902859 -0.064725719 0.72300005 1.149777161e-38
0.18228573 -0.064904764 0.72500002 1.269343233e-38
0.18530287 -0.06499429 0.72600001 1.380013161e-38
0.18858667 -0.065173343 0.72800004 1.407891574e-38
0.19136001 -0.065173343 0.72800004 1.43543928e-38
0.19493334 -0.065441899 0.73100001 1.472244944e-38
0.19798858 -0.065531433 0.73200005 1.508946072e-38
0.2018743 -0.06588953 0.73600006 1.554932764e-38
0.20551239 -0.066158101 0.73900002 1.545823483e-38
0.20860954 -0.06624762 0.74000001 1.490468551e-38
0.21742858 -0.068127625 0.76100004 1.481321155e-38
0.22032763 -0.068127625 0.76100004 1.49975972e-38
0.22381333 -0.06830667 0.76300001 1.509088865e-38
0.22671999 -0.06830667 0.76300001 1.518162412e-38
0.23022859 -0.068485714 0.76500005 1.518020741e-38
0.23375238 -0.068664759 0.76700002 1.508870822e-38
0.23667429 -0.068664759 0.76700002 1.462987126e-38
0.23990858 -0.068754286 0.76800001 1.407670589e-38
0.24346668 -0.068933338 0.77000004 1.343134769e-38
0.24736002 -0.069201909 0.77300006 1.333987373e-38
0.25095239 -0.069380954 0.77500004 1.324838015e-38
0.25390476 -0.069380954 0.77500004 1.269591823e-38
0.25685716 -0.069380954 0.77500004 1.177402779e-38
0.25980952 -0.069380954 0.77500004 1.066873121e-38
0.26208383 -0.069201909 0.77300006 9.6581638e-39
0.26468572 -0.069112383 0.77200001 9.655327572e-39
0.26693335 -0.068933338 0.77000004 1.01119687e-38
0.26916569 -0.068754286 0.76800001 1.057295386e-38
0.27209145 -0.068754286 0.76800001 1.103895706e-38
0.26105142 -0.065262854 0.72900003 1.113473722e-38
0.26382858 -0.065262854 0.72900003 1.085566302e-38
0.26624 -0.065173343 0.72800004 1.084740517e-38
0.26827431 -0.06499429 0.72600001 1.149708497e-38
0.27066669 -0.064904764 0.72500002 1.324697745e-38
0.27267429 -0.064725719 0.72300005 1.481071583e-38
0.27542859 -0.064725719 0.72300005 1.48096018e-38
0.29280379 -0.068127625 0.76100004 1.444579669e-38
0.29570287 -0.068127625 0.76100004 1.444798973e-38
0.29860193 -0.068127625 0.76100004 1.444661645e-38
0.30150098 -0.068127625 0.76100004 1.454060014e-38
0.30519998 -0.06830667 0.76300001 1.316740191e-38
0.17190477 -0.063260958 0.72200006 1.030854565e-38
0.17465526 -0.063260958 0.72200006 1.067444851e-38
0.17765144 -0.063348576 0.72300005 1.057939423e-38
0.18090478 -0.063523814 0.72500002 1.122153785e-38
0.18392 -0.063611425 0.72600001 1.287888857e-38
0.18720001 -0.063786671 0.72800004 1.371080864e-38
0.18997334 -0.063786671 0.72800004 1.371153452e-38
0.19301143 -0.063874289 0.72900003 1.444549682e-38
0.1965943 -0.064137146 0.73200005 1.490540577e-38
0.19992763 -0.064312384 0.73400003 1.536458466e-38
0.2032762 -0.064487621 0.73600006 1.545749495e-38
0.20692 -0.064750478 0.73900002 1.518090946e-38
0.21087047 -0.065100953 0.74300003 1.518018499e-38
0.2185905 -0.066590481 0.76000005 1.527274215e-38
0.22177716 -0.066678092 0.76100004 1.509015156e-38
0.22526667 -0.06685333 0.76300001 1.481571987e-38
0.22877143 -0.067028575 0.76500005 1.518162833e-38
0.23168573 -0.067028575 0.76500005 1.508907677e-38
0.23460001 -0.067028575 0.76500005 1.499650559e-38
0.23813525 -0.067203812 0.76700002 1.435435636e-38
0.24137142 -0.067291424 0.76800001 1.380010499e-38
0.24556951 -0.067641906 0.77200001 1.306578816e-38
0.24947619 -0.067904763 0.77500004 1.379976867e-38
0.25242859 -0.067904763 0.77500004 1.306363997e-38
0.25538096 -0.067904763 0.77500004 1.241935656e-38
0.25833333 -0.067904763 0.77500004 1.140522425e-38
0.26128572 -0.067904763 0.77500004 1.011878462e-38
0.26355618 -0.067729525 0.77300006 9.108602569e-39
0.26546669 -0.067466669 0.77000004 1.048399243e-38
0.25410861 -0.063874289 0.72900003 1.094639009e-38
0.25688571 -0.063874289 0.72900003 1.214456334e-38
0.25966287 -0.063874289 0.72900003 1.205488444e-38
0.26244 -0.063874289 0.72900003 1.288320457e-38
0.26485333 -0.063786671 0.72800004 1.260483523e-38
0.2676267 -0.063786671 0.72800004 1.352534679e-38
0.26965716 -0.063611425 0.72600001 1.417106793e-38
0.27204764 -0.063523814 0.72500002 1.453518833e-38
0.27480954 -0.063523814 0.72500002 1.582052233e-38
0.29097146 -0.066590481 0.76000005 1.481138145e-38
0.29425332 -0.066678092 0.76100004 1.481388697e-38
0.2971524 -0.066678092 0.76100004 1.472280257e-38
0.30084002 -0.06685333 0.76300001 1.454094766e-38
0.30374664 -0.06685333 0.76300001 1.408429812e-38
0.17465526 -0.061885718 0.72200006 1.067623796e-38
0.17814286 -0.062142856 0.72500002 1.039535469e-38
0.1811543 -0.062228575 0.72600001 1.030353041e-38
0.18442668 -0.062400002 0.72800004 1.131695506e-38
0.18720001 -0.062400002 0.72800004 1.260876027e-38
0.19023429 -0.062485714 0.72900003 1.343241688e-38
0.19354095 -0.06265714 0.73100001 1.416962038e-38
0.1965943 -0.062742859 0.73200005 1.472136484e-38
0.19992763 -0.06291429 0.73400003 1.517946893e-38
0.2032762 -0.06308572 0.73600006 1.564115613e-38
0.20692 -0.063342862 0.73900002 1.508978022e-38
0.21058668 -0.063600004 0.74200004 1.508834249e-38
0.21485144 -0.064028576 0.74700004 1.564044007e-38
0.22236 -0.065399997 0.76300001 1.518161992e-38
0.22526667 -0.065399997 0.76300001 1.481714499e-38
0.22877143 -0.065571435 0.76500005 1.527310089e-38
0.23168573 -0.065571435 0.76500005 1.49975986e-38
0.23460001 -0.065571435 0.76500005 1.47210019e-38
0.23813525 -0.065742858 0.76700002 1.426251386e-38
0.24137142 -0.065828577 0.76800001 1.361820944e-38
0.24556951 -0.06617143 0.77200001 1.315796977e-38
0.24947619 -0.066428572 0.77500004 1.333844861e-38
0.25242859 -0.066428572 0.77500004 1.278635383e-38
0.25538096 -0.066428572 0.77500004 1.21463584e-38
0.25833333 -0.066428572 0.77500004 1.140593611e-38
0.26128572 -0.066428572 0.77500004 1.057724323e-38
0.26355618 -0.066257149 0.77300006 1.002839246e-38
0.2661562 -0.06617143 0.77200001 1.085134142e-38
0.25410861 -0.062485714 0.72900003 1.122692164e-38
0.25688571 -0.062485714 0.72900003 1.20523663e-38
0.25930667 -0.062400002 0.72800004 1.242437742e-38
0.26208001 -0.062400002 0.72800004 1.334345405e-38
0.26485333 -0.062400002 0.72800004 1.370972964e-38
0.2676267 -0.062400002 0.72800004 1.407922542e-38
0.26965716 -0.062228575 0.72600001 1.426325795e-38
0.27204764 -0.062142856 0.72500002 1.453589738e-38
0.27480954 -0.062142856 0.72500002 1.517838712e-38
0.27757144 -0.062142856 0.72500002 1.472063476e-38
0.29425332 -0.065228574 0.76100004 1.490537495e-38
0.2971524 -0.065228574 0.76100004 1.499866079e-38
0.30084002 -0.065399997 0.76300001 1.463276914e-38
0.30374664 -0.065399997 0.76300001 1.426795931e-38
0.17676191 -0.060761906 0.72500002 1.049149077e-38
0.18026668 -0.061013337 0.72800004 9.846499715e-39
0.18304001 -0.061013337 0.72800004 9.569922635e-39
0.18581335 -0.061013337 0.72800004 1.067231433e-38
0.18884572 -0.061097141 0.72900003 1.233038532e-38
0.19162287 -0.061097141 0.72900003 1.352640197e-38
0.19520003 -0.06134858 0.73200005 1.426182582e-38
0.19852953 -0.061516192 0.73400003 1.48139164e-38
0.2018743 -0.061683815 0.73600006 1.545568867e-38
0.2049562 -0.061767623 0.73700005 1.536601818e-38
0.20860954 -0.06201905 0.74000001 1.499794192e-38
0.21228573 -0.062270477 0.74300003 1.545677748e-38
0.2151162 -0.062270477 0.74300003 1.564115753e-38
0.22322668 -0.063779049 0.76100004 1.499830345e-38
0.22671999 -0.063946664 0.76300001 1.509086062e-38
0.23022859 -0.064114295 0.76500005 1.518199687e-38
0.23314287 -0.064114295 0.76500005 1.472101872e-38
0.23667429 -0.064281903 0.76700002 1.435329418e-38
0.23959619 -0.064281903 0.76700002 1.380297344e-38
0.24346668 -0.064533338 0.77000004 1.334344003e-38
0.24703999 -0.064700954 0.77200001 1.315404474e-38
0.25030476 -0.064784765 0.77300006 1.269416521e-38
0.25390476 -0.064952381 0.77500004 1.214671153e-38
0.25685716 -0.064952381 0.77500004 1.159104063e-38
0.26047999 -0.065119997 0.77700001 1.122154906e-38
0.26276192 -0.064952381 0.77500004 1.103678785e-38
0.25062856 -0.061264765 0.73100001 1.113187997e-38
0.25272003 -0.061097141 0.72900003 1.140809411e-38
0.25549716 -0.061097141 0.72900003 1.177578782e-38
0.25827429 -0.061097141 0.72900003 1.241936357e-38
0.26069337 -0.061013337 0.72800004 1.334381698e-38
0.26346669 -0.061013337 0.72800004 1.425859023e-38
0.26624 -0.061013337 0.72800004 1.472174039e-38
0.26901335 -0.061013337 0.72800004 1.453733511e-38
0.27103999 -0.060845714 0.72600001 1.444549962e-38
0.27342859 -0.060761906 0.72500002 1.453732811e-38
0.27619046 -0.060761906 0.72500002 1.462810843e-38
0.29280379 -0.063779049 0.76100004 1.481354646e-38
0.29570287 -0.063779049 0.76100004 1.518196604e-38
0.29938668 -0.063946664 0.76300001 1.500009712e-38
0.30229336 -0.063946664 0.76300001 1.454344758e-38
0.30519998 -0.063946664 0.76300001 1.307303287e-38
0.18190286 -0.059708573 0.72900003 1.021527663e-38
0.18468 -0.059708573 0.72900003 9.93870095e-39
0.18745714 -0.059708573 0.72900003 1.011986782e-38
0.19101715 -0.059954289 0.73200005 1.177900941e-38
0.19380572 -0.059954289 0.73200005 1.352354332e-38
0.19713144 -0.060118094 0.73400003 1.435688711e-38
0.19992763 -0.060118094 0.73400003 1.472171797e-38
0.2032762 -0.06028191 0.73600006 1.545677468e-38
0.20692 -0.060527619 0.73900002 1.463061395e-38
0.21058668 -0.060773335 0.74200004 1.481356888e-38
0.21370097 -0.06085524 0.74300003 1.564080721e-38
0.2171143 -0.061019056 0.74500006 1.518054092e-38
0.22467621 -0.062329531 0.76100004 1.472136484e-38
0.22817333 -0.062493335 0.76300001 1.490540998e-38
0.23108 -0.062493335 0.76300001 1.462955176e-38
0.23460001 -0.06265714 0.76500005 1.435187607e-38
0.2375143 -0.06265714 0.76500005 1.38919587e-38
0.24105714 -0.062820949 0.76700002 1.325090249e-38
0.24493335 -0.063066669 0.77000004 1.306293231e-38
0.24851048 -0.063230477 0.77200001 1.278347416e-38
0.25242859 -0.06347619 0.77500004 1.214277248e-38
0.25538096 -0.06347619 0.77500004 1.131804107e-38
0.259 -0.063639998 0.77700001 1.140772977e-38
0.26128572 -0.06347619 0.77500004 1.131733902e-38
0.24923618 -0.059872381 0.73100001 1.131985295e-38
0.25202096 -0.059872381 0.73100001 1.150245054e-38
0.25410861 -0.059708573 0.72900003 1.168288874e-38
0.25688571 -0.059708573 0.72900003 1.214278509e-38
0.25930667 -0.059626672 0.72800004 1.306544904e-38
0.26244 -0.059708573 0.72900003 1.398559907e-38
0.26485333 -0.059626672 0.72800004 1.471994672e-38
0.2676267 -0.059626672 0.72800004 1.490541979e-38
0.26965716 -0.059462857 0.72600001 1.42603993e-38
0.27204764 -0.059380952 0.72500002 1.416927146e-38
0.27480954 -0.059380952 0.72500002 1.426112097e-38
0.29212001 -0.062493335 0.76300001 1.444587236e-38
0.29425332 -0.062329531 0.76100004 1.481427233e-38
0.29793334 -0.062493335 0.76300001 1.490502602e-38
0.30084002 -0.062493335 0.76300001 1.435617385e-38
0.30374664 -0.062493335 0.76300001 1.380662242e-38
0.18051429 -0.058320004 0.72900003 1.086100477e-38
0.18329144 -0.058320004 0.72900003 1.058297314e-38
0.18606858 -0.058320004 0.72900003 9.386606171e-39
0.18962288 -0.058560003 0.73200005 9.565629056e-39
0.19293715 -0.05872 0.73400003 1.177974089e-38
0.19573334 -0.05872 0.73400003 1.361610048e-38
0.19852953 -0.05872 0.73400003 1.426469008e-38
0.2018743 -0.058880005 0.73600006 1.472278435e-38
0.2049562 -0.058960006 0.73700005 1.472172637e-38
0.20860954 -0.0592 0.74000001 1.444585415e-38
0.212 -0.059360001 0.74200004 1.490612044e-38
0.2151162 -0.059440002 0.74300003 1.518125698e-38
0.21853335 -0.059600003 0.74500006 1.481177662e-38
0.22226286 -0.059840001 0.74800003 1.453769805e-38
0.22962667 -0.061040003 0.76300001 1.435583193e-38
0.23314287 -0.0612 0.76500005 1.426219717e-38
0.23605716 -0.0612 0.76500005 1.398234805e-38
0.23959619 -0.061360002 0.76700002 1.333950098e-38
0.24346668 -0.0616 0.77000004 1.297324921e-38
0.24703999 -0.061759997 0.77200001 1.278598108e-38
0.25030476 -0.061840005 0.77300006 1.223389191e-38
0.25390476 -0.062000006 0.77500004 1.131588307e-38
0.25751999 -0.062159996 0.77700001 1.104359536e-38
0.26047999 -0.062159996 0.77700001 1.150243933e-38
0.2478438 -0.058479998 0.73100001 1.15993181e-38
0.25062856 -0.058479998 0.73100001 1.168719633e-38
0.25272003 -0.058320004 0.72900003 1.17732823e-38
0.25549716 -0.058320004 0.72900003 1.20512803e-38
0.25792 -0.058240004 0.72800004 1.269737838e-38
0.26069337 -0.058240004 0.72800004 1.370937371e-38
0.26346669 -0.058240004 0.72800004 1.435509625e-38
0.26550856 -0.058079999 0.72600001 1.490649318e-38
0.26827431 -0.058079999 0.72600001 1.472136904e-38
0.27066669 -0.058000002 0.72500002 1.398451446e-38
0.27342859 -0.058000002 0.72500002 1.38919643e-38
0.29066667 -0.061040003 0.76300001 1.407852898e-38
0.29357335 -0.061040003 0.76300001 1.444693455e-38
0.29648 -0.061040003 0.76300001 1.462987546e-38
0.29938668 -0.061040003 0.76300001 1.426289782e-38
0.30229336 -0.061040003 0.76300001 1.352820824e-38
0.30440003 -0.060880002 0.76100004 1.242945432e-38
0.18606858 -0.056931432 0.72900003 9.84720597e-39
0.18962288 -0.05716572 0.73200005 9.750737781e-39
0.19346288 -0.0574781 0.73600006 1.094785024e-38
0.19626668 -0.0574781 0.73600006 1.242043837e-38
0.19907048 -0.0574781 0.73600006 1.343207356e-38
0.2018743 -0.0574781 0.73600006 1.389625088e-38
0.2049562 -0.057556197 0.73700005 1.380299727e-38
0.20917335 -0.057946667 0.74200004 1.389304611e-38
0.21228573 -0.058024764 0.74300003 1.453804697e-38
0.21569526 -0.058180954 0.74500006 1.47220795e-38
0.21912001 -0.058337145 0.74700004 1.444516611e-38
0.22582857 -0.059352383 0.76000005 1.435438999e-38
0.22902477 -0.05943048 0.76100004 1.426434256e-38
0.23253334 -0.059586667 0.76300001 1.41707148e-38
0.23544 -0.059586667 0.76300001 1.398376056e-38
0.23897144 -0.05974286 0.76500005 1.343133788e-38
0.24346668 -0.060133334 0.77000004 1.287997598e-38
0.24703999 -0.060289524 0.77200001 1.251154519e-38
0.25030476 -0.060367625 0.77300006 1.205165164e-38
0.25390476 -0.060523812 0.77500004 1.131659633e-38
0.25751999 -0.060679998 0.77700001 1.113469938e-38
0.24606477 -0.057321906 0.73400003 1.132020187e-38
0.2478438 -0.057087619 0.73100001 1.15039093e-38
0.25062856 -0.057087619 0.73100001 1.177795563e-38
0.25272003 -0.056931432 0.72900003 1.196052941e-38
0.25549716 -0.056931432 0.72900003 1.232927689e-38
0.25792 -0.056853335 0.72800004 1.297287226e-38
0.26069337 -0.056853335 0.72800004 1.370901778e-38
0.26346669 -0.056853335 0.72800004 1.426290062e-38
0.26550856 -0.056697145 0.72600001 1.453877985e-38
0.26827431 -0.056697145 0.72600001 1.407599963e-38
0.27066669 -0.056619048 0.72500002 1.352353071e-38
0.27267429 -0.056462858 0.72300005 1.352389925e-38
0.28990477 -0.05943048 0.76100004 1.371045552e-38
0.29357335 -0.059586667 0.76300001 1.407851356e-38
0.29648 -0.059586667 0.76300001 1.435400884e-38
0.30017143 -0.05974286 0.76500005 1.407887089e-38
0.3038781 -0.059899047 0.76700002 1.362002552e-38
0.30719998 -0.059977144 0.76800001 1.224397705e-38
0.18606858 -0.05554286 0.72900003 1.030817851e-38
0.18962288 -0.055771433 0.73200005 9.936191225e-39
0.19425143 -0.056304764 0.73900002 1.011592317e-38
0.19653335 -0.056152385 0.73700005 1.113293655e-38
0.19934097 -0.056152385 0.73700005 1.269343373e-38
0.20269714 -0.056304764 0.73900002 1.306472037e-38
0.20551239 -0.056304764 0.73900002 1.288428778e-38
0.20917335 -0.056533337 0.74200004 1.34302799e-38
0.21228573 -0.056609526 0.74300003 1.407815063e-38
0.21569526 -0.056761909 0.74500006 1.426289922e-38
0.21912001 -0.056914289 0.74700004 1.417144207e-38
0.22434287 -0.057523813 0.75500005 1.417143086e-38
0.22872382 -0.057904765 0.76000005 1.417286719e-38
0.23192382 -0.057980955 0.76100004 1.407925485e-38
0.23482287 -0.057980955 0.76100004 1.398450045e-38
0.23897144 -0.058285717 0.76500005 1.352318038e-38
0.24283428 -0.058514286 0.76800001 1.288320177e-38
0.24703999 -0.058819048 0.77200001 1.232931193e-38
0.25030476 -0.058895241 0.77300006 1.177828914e-38
0.25390476 -0.059047621 0.77500004 1.141022549e-38
0.24393144 -0.056076195 0.73600006 1.122618315e-38
0.24606477 -0.055923808 0.73400003 1.122765031e-38
0.2478438 -0.055695236 0.73100001 1.141026472e-38
0.25062856 -0.055695236 0.73100001 1.177687523e-38
0.25272003 -0.05554286 0.72900003 1.223675336e-38
0.25549716 -0.05554286 0.72900003 1.260479459e-38
0.25792 -0.055466671 0.72800004 1.315582719e-38
0.26069337 -0.055466671 0.72800004 1.380085048e-38
0.26346669 -0.055466671 0.72800004 1.426288941e-38
0.26550856 -0.055314288 0.72600001 1.417141825e-38
0.26827431 -0.055314288 0.72600001 1.352246432e-38
0.27066669 -0.055238094 0.72500002 1.30618407e-38
0.28700572 -0.057980955 0.76100004 1.324659489e-38
0.29066667 -0.058133334 0.76300001 1.343423016e-38
0.29357335 -0.058133334 0.76300001 1.380264834e-38
0.29648 -0.058133334 0.76300001 1.417033925e-38
0.30017143 -0.058285717 0.76500005 1.38951971e-38
0.30427429 -0.058514286 0.76800001 1.362004234e-38
0.30800003 -0.058666669 0.77000004 1.205707046e-38
0.19425143 -0.054897144 0.73900002 1.002980217e-38
0.19653335 -0.054748576 0.73700005 1.067159546e-38
0.19934097 -0.054748576 0.73700005 1.140665077e-38
0.20269714 -0.054897144 0.73900002 1.205167126e-38
0.20579048 -0.05497143 0.74000001 1.241937478e-38
0.20917335 -0.055120002 0.74200004 1.297074229e-38
0.21228573 -0.055194288 0.74300003 1.370686118e-38
0.21627429 -0.055491429 0.74700004 1.3802284e-38
0.21941334 -0.055565715 0.74800003 1.362005915e-38
0.22434287 -0.056085717 0.75500005 1.39870382e-38
0.22812191 -0.056308571 0.75800002 1.40788821e-38
0.23161906 -0.056457143 0.76000005 1.380340644e-38
0.23482287 -0.056531429 0.76100004 1.380192808e-38
0.23834667 -0.056679998 0.76300001 1.352641738e-38
0.24283428 -0.057051428 0.76800001 1.297575193e-38
0.2464 -0.0572 0.77000004 1.232859867e-38
0.25030476 -0.057422861 0.77300006 1.150133931e-38
0.25455999 -0.057719998 0.77700001 1.113543646e-38
0.24393144 -0.05467429 0.73600006 1.104503169e-38
0.24606477 -0.054525718 0.73400003 1.113545748e-38
0.2478438 -0.054302856 0.73100001 1.141060804e-38
0.25062856 -0.054302856 0.73100001 1.196197835e-38
0.25341335 -0.054302856 0.73100001 1.242114322e-38
0.25549716 -0.054154288 0.72900003 1.287959483e-38
0.25792 -0.054080002 0.72800004 1.324766409e-38
0.26069337 -0.054080002 0.72800004 1.352426639e-38
0.26346669 -0.054080002 0.72800004 1.334308831e-38
0.26514289 -0.053857144 0.72500002 1.287960323e-38
0.26716572 -0.053708576 0.72300005 1.259943603e-38
0.27066669 -0.053857144 0.72500002 1.287529845e-38
