# .PCD v0.7 - Point Cloud Data file format
VERSION 0.7
FIELDS x y z rgb
SIZE 4 4 4 4
TYPE F F F F
COUNT 1 1 1 1
WIDTH 978
HEIGHT 1
VIEWPOINT 0 0 0 1 0 0 0
POINTS 978
DATA ascii
0.14817524 0.084060952 0.74800003 1.186762332e-38
0.15102476 0.084060952 0.74800003 1.195945461e-38
0.15387429 0.084060952 0.74800003 1.186834639e-38
0.15672383 0.084060952 0.74800003 1.196412094e-38
0.15957333 0.084060952 0.74800003 1.205596484e-38
0.16242287 0.084060952 0.74800003 1.242296351e-38
0.16527238 0.084060952 0.74800003 1.315798239e-38
0.1681219 0.084060952 0.74800003 1.343348187e-38
0.17142859 0.084285721 0.75000006 1.3250164e-38
0.17475048 0.084510483 0.75200003 1.278920267e-38
0.17761524 0.084510483 0.75200003 1.14080773e-38
0.18048 0.084510483 0.75200003 9.737098943e-39
0.18773334 0.086533338 0.77000004 1.094638168e-38
0.19066668 0.086533338 0.77000004 1.287888857e-38
0.19360001 0.086533338 0.77000004 1.334132407e-38
0.19602285 0.086308569 0.76800001 1.205054322e-38
0.19894856 0.086308569 0.76800001 1.076448614e-38
0.20161143 0.086196192 0.76700002 1.131265027e-38
0.20346667 0.085746668 0.76300001 1.168178312e-38
0.20637333 0.085746668 0.76300001 1.214237591e-38
0.20928 0.085746668 0.76300001 1.251011306e-38
0.21218666 0.085746668 0.76300001 1.287818932e-38
0.21452953 0.085521907 0.76100004 1.343100017e-38
0.21742858 0.085521907 0.76100004 1.389159857e-38
0.22090666 0.085746668 0.76300001 1.370757865e-38
0.22528 0.086308569 0.76800001 1.361644801e-38
0.22969145 0.086870477 0.77300006 1.371188064e-38
0.2332381 0.087095238 0.77500004 1.38962803e-38
0.2368 0.08732 0.77700001 1.426432574e-38
0.24037716 0.087544769 0.77900004 1.435689131e-38
0.24365716 0.087657146 0.78000003 1.454020077e-38
0.24726097 0.087881915 0.78200006 1.454057632e-38
0.25088 0.088106669 0.78400004 1.380516928e-38
0.2538667 0.088106669 0.78400004 1.353038306e-38
0.25750858 0.088331431 0.78600001 1.398775286e-38
0.26149717 0.088668577 0.78900003 1.426324674e-38
0.26584381 0.089118101 0.79300004 1.389586272e-38
0.27022097 0.089567624 0.79700005 1.371186522e-38
0.27325717 0.089567624 0.79700005 1.371188764e-38
0.27664 0.089680001 0.79800004 1.343565668e-38
0.28038093 0.089904763 0.80000001 1.316049912e-38
0.28555432 0.090579055 0.80600005 1.288105218e-38
0.29005715 0.091028579 0.81000006 1.25126424e-38
0.29169527 0.090579055 0.80600005 1.223747503e-38
0.29549715 0.090803809 0.80800003 1.214640464e-38
0.30005333 0.091253333 0.81200004 1.18694338e-38
0.30501333 0.091815241 0.81700003 1.122798942e-38
0.30737144 0.091590479 0.81500006 1.058298015e-38
0.13680001 0.086400002 0.75600004 9.573553399e-39
0.13949525 0.086285718 0.75500005 8.654821488e-39
0.1419943 0.086057141 0.75300002 9.475940349e-39
0.14428572 0.085714296 0.75000006 1.103893184e-38
0.14675048 0.085485712 0.74800003 1.159102942e-38
0.1496 0.085485712 0.74800003 1.186653871e-38
0.15244953 0.085485712 0.74800003 1.205021111e-38
0.15529905 0.085485712 0.74800003 1.131767953e-38
0.15814857 0.085485712 0.74800003 1.232894899e-38
0.16099809 0.085485712 0.74800003 1.242044537e-38
0.16384763 0.085485712 0.74800003 1.306687556e-38
0.16669716 0.085485712 0.74800003 1.325089548e-38
0.17000002 0.085714296 0.75000006 1.371078202e-38
0.17285715 0.085714296 0.75000006 1.306540981e-38
0.17618287 0.085942864 0.75200003 1.278882712e-38
0.17904763 0.085942864 0.75200003 9.926857176e-39
0.18626668 0.088 0.77000004 9.095671387e-39
0.1892 0.088 0.77000004 1.251009624e-38
0.19213334 0.088 0.77000004 1.269665812e-38
0.19506668 0.088 0.77000004 1.407274442e-38
0.19748572 0.087771431 0.76800001 1.113075332e-38
0.20015047 0.087657146 0.76700002 1.121972597e-38
0.20254287 0.08742857 0.76500005 1.1495601e-38
0.20491999 0.087199993 0.76300001 1.177325568e-38
0.20782667 0.087199993 0.76300001 1.232606792e-38
0.21073334 0.087199993 0.76300001 1.24186391e-38
0.21364 0.087199993 0.76300001 1.315297274e-38
0.21654667 0.087199993 0.76300001 1.361430122e-38
0.21945333 0.087199993 0.76300001 1.370721011e-38
0.22294286 0.08742857 0.76500005 1.315619573e-38
0.22733334 0.088 0.77000004 1.380155533e-38
0.23116381 0.088342868 0.77300006 1.334418973e-38
0.2347143 0.088571437 0.77500004 1.426326356e-38
0.23828 0.088799998 0.77700001 1.408102329e-38
0.24186096 0.089028575 0.77900004 1.453948891e-38
0.24577145 0.089371435 0.78200006 1.518199407e-38
0.24875049 0.089371435 0.78200006 1.42636405e-38
0.25172952 0.089371435 0.78200006 1.279497882e-38
0.25536001 0.089600004 0.78400004 1.362113535e-38
0.25966477 0.09005715 0.78800005 1.407994289e-38
0.26366666 0.090399995 0.79100001 1.41710427e-38
0.26735431 0.090628572 0.79300004 1.325268914e-38
0.27105716 0.090857141 0.79500002 1.389555723e-38
0.27477524 0.091085717 0.79700005 1.371153031e-38
0.27816001 0.091200002 0.79800004 1.352713064e-38
0.28260955 0.091657147 0.80200005 1.315871246e-38
0.28708956 0.092114292 0.80600005 1.315477201e-38
0.29016003 0.092114292 0.80600005 1.278777334e-38
0.2932305 0.092114292 0.80600005 1.251191093e-38
0.2970362 0.092342861 0.80800003 1.251192214e-38
0.30234283 0.093028568 0.81400001 1.214492487e-38
0.30581906 0.09314286 0.81500006 1.232894479e-38
0.30892384 0.09314286 0.81500006 1.223639323e-38
0.13680001 0.087839998 0.75600004 9.112572447e-39
0.13949525 0.087723814 0.75500005 8.468626757e-39
0.1419943 0.08749143 0.75300002 9.291900816e-39
0.14428572 0.087142862 0.75000006 1.094673621e-38
0.14675048 0.086910479 0.74800003 1.149919253e-38
0.1496 0.086910479 0.74800003 1.195980353e-38
0.15244953 0.086910479 0.74800003 1.260121708e-38
0.1557143 0.087142862 0.75000006 1.18686841e-38
0.15814857 0.086910479 0.74800003 1.297035693e-38
0.16099809 0.086910479 0.74800003 1.25126396e-38
0.16384763 0.086910479 0.74800003 1.288392204e-38
0.16669716 0.086910479 0.74800003 1.325161855e-38
0.17000002 0.087142862 0.75000006 1.343527833e-38
0.17285715 0.087142862 0.75000006 1.269698041e-38
0.17618287 0.087375239 0.75200003 1.242075366e-38
0.17857145 0.087142862 0.75000006 9.002391152e-39
0.18626668 0.089466669 0.77000004 8.453171837e-39
0.1892 0.089466669 0.77000004 1.214238992e-38
0.19213334 0.089466669 0.77000004 1.260302195e-38
0.19506668 0.089466669 0.77000004 1.3613204e-38
0.19748572 0.089234285 0.76800001 1.177181094e-38
0.20041144 0.089234285 0.76800001 1.085238118e-38
0.20307238 0.089118101 0.76700002 1.14037655e-38
0.20545715 0.088885717 0.76500005 1.186438071e-38
0.20782667 0.088653333 0.76300001 1.223244297e-38
0.21073334 0.088653333 0.76300001 1.195945601e-38
0.21364 0.088653333 0.76300001 1.287602572e-38
0.21654667 0.088653333 0.76300001 1.352138532e-38
0.21945333 0.088653333 0.76300001 1.370899957e-38
0.22294286 0.088885717 0.76500005 1.379975606e-38
0.22733334 0.089466669 0.77000004 1.398414872e-38
0.23116381 0.089815244 0.77300006 1.371081845e-38
0.2347143 0.09004762 0.77500004 1.426291323e-38
0.23828 0.090279996 0.77700001 1.435617525e-38
0.24186096 0.09051238 0.77900004 1.444694155e-38
0.24514288 0.090628572 0.78000003 1.481179483e-38
0.2481143 0.090628572 0.78000003 1.426221398e-38
0.25172952 0.090860955 0.78200006 1.334635053e-38
0.25536001 0.091093332 0.78400004 1.371440718e-38
0.25966477 0.091558106 0.78800005 1.407958556e-38
0.26300001 0.091674291 0.78900003 1.398738432e-38
0.26668 0.091906667 0.79100001 1.361753682e-38
0.27037525 0.09213905 0.79300004 1.426111536e-38
0.27408573 0.092371434 0.79500002 1.380086029e-38
0.27816001 0.092720002 0.79800004 1.371080444e-38
0.28190476 0.092952378 0.80000001 1.352606005e-38
0.28637716 0.093417145 0.80400002 1.343387003e-38
0.29016003 0.093649529 0.80600005 1.306470776e-38
0.2932305 0.093649529 0.80600005 1.278775793e-38
0.2970362 0.093881905 0.80800003 1.269736997e-38
0.30160001 0.094346665 0.81200004 1.242115023e-38
0.30544382 0.094579048 0.81400001 1.251262699e-38
0.30854478 0.094579048 0.81400001 1.233075386e-38
0.3127943 0.094927624 0.81700003 1.150566512e-38
0.31590667 0.094927624 0.81700003 1.021959403e-38
0.32058096 0.095392384 0.82100004 1.03078408e-38
0.13680001 0.089280002 0.75600004 8.744150062e-39
0.13949525 0.08916191 0.75500005 8.375360536e-39
0.14237143 0.08916191 0.75500005 9.110030492e-39
0.14428572 0.088571437 0.75000006 1.085813351e-38
0.14675048 0.088335246 0.74800003 1.140736824e-38
0.1496 0.088335246 0.74800003 1.21431256e-38
0.15285715 0.088571437 0.75000006 1.315223846e-38
0.1557143 0.088571437 0.75000006 1.251225705e-38
0.15857144 0.088571437 0.75000006 1.361499766e-38
0.16099809 0.088335246 0.74800003 1.260589601e-38
0.16384763 0.088335246 0.74800003 1.279314732e-38
0.16669716 0.088335246 0.74800003 1.334344143e-38
0.17000002 0.088571437 0.75000006 1.325088287e-38
0.17285715 0.088571437 0.75000006 1.2418967e-38
0.17618287 0.08880762 0.75200003 1.204875236e-38
0.17857145 0.088571437 0.75000006 8.178028285e-39
0.18699239 0.09128762 0.77300006 7.813198828e-39
0.18969144 0.091169529 0.77200001 1.177289694e-38
0.19213334 0.090933338 0.77000004 1.251010886e-38
0.19506668 0.090933338 0.77000004 1.315403353e-38
0.19748572 0.090697147 0.76800001 1.250758231e-38
0.20041144 0.090697147 0.76800001 1.057723903e-38
0.20307238 0.090579048 0.76700002 1.140412844e-38
0.20545715 0.090342864 0.76500005 1.195586308e-38
0.20782667 0.090106666 0.76300001 1.214132774e-38
0.21073334 0.090106666 0.76300001 1.159175109e-38
0.21364 0.090106666 0.76300001 1.269341831e-38
0.21654667 0.090106666 0.76300001 1.352209438e-38
0.21945333 0.090106666 0.76300001 1.379940153e-38
0.22294286 0.090342864 0.76500005 1.45330009e-38
0.22733334 0.090933338 0.77000004 1.416781271e-38
0.23116381 0.09128762 0.77300006 1.416998752e-38
0.2347143 0.091523811 0.77500004 1.435510185e-38
0.23828 0.091760002 0.77700001 1.472279837e-38
0.24186096 0.0919962 0.77900004 1.435510466e-38
0.24514288 0.092114285 0.78000003 1.444551784e-38
0.2481143 0.092114285 0.78000003 1.435296067e-38
0.25172952 0.092350483 0.78200006 1.398848294e-38
0.25536001 0.092586666 0.78400004 1.389700337e-38
0.25834668 0.092586666 0.78400004 1.407922963e-38
0.26266667 0.093059056 0.78800005 1.38951929e-38
0.26600572 0.093177147 0.78900003 1.407743036e-38
0.26969334 0.093413331 0.79100001 1.471921104e-38
0.27339619 0.093649529 0.79300004 1.398488581e-38
0.27781144 0.094121903 0.79700005 1.389339503e-38
0.28119999 0.094240002 0.79800004 1.398558926e-38
0.2849524 0.094476193 0.80000001 1.371008837e-38
0.28872001 0.094712384 0.80200005 1.334164917e-38
0.29250288 0.094948567 0.80400002 1.315833131e-38
0.29630098 0.095184766 0.80600005 1.297394706e-38
0.30085716 0.095657155 0.81000006 1.269736857e-38
0.30469334 0.095893338 0.81200004 1.269629658e-38
0.30854478 0.096129529 0.81400001 1.251226686e-38
0.3127943 0.096483812 0.81700003 1.21463542e-38
0.31590667 0.096483812 0.81700003 1.242186209e-38
0.32058096 0.096956201 0.82100004 1.177758289e-38
0.32292002 0.096720003 0.81900007 1.113508474e-38
0.3268362 0.096956201 0.82100004 1.058514936e-38
0.32916003 0.096720003 0.81900007 1.076738122e-38
0.4015238 0.10038095 0.85000002 1.54856078e-38
0.40476191 0.10038095 0.85000002 1.603518444e-38
0.42032003 0.10061715 0.85200006 1.677059849e-38
0.44883808 0.1015619 0.86000001 1.67716901e-38
0.13680001 0.090720005 0.75600004 8.466486975e-39
0.13949525 0.090600006 0.75500005 8.095912195e-39
0.1419943 0.090360008 0.75300002 8.368178881e-39
0.14428572 0.090000004 0.75000006 9.849024855e-39
0.14675048 0.089759998 0.74800003 1.058121872e-38
0.1496 0.089759998 0.74800003 1.159068891e-38
0.15285715 0.090000004 0.75000006 1.24175629e-38
0.1557143 0.090000004 0.75000006 1.260158842e-38
0.15857144 0.090000004 0.75000006 1.288282342e-38
0.16099809 0.089759998 0.74800003 1.214813805e-38
0.16384763 0.089759998 0.74800003 1.215028484e-38
0.16714287 0.090000004 0.75000006 1.205809061e-38
0.17000002 0.090000004 0.75000006 1.141093875e-38
0.17285715 0.090000004 0.75000006 1.186580583e-38
0.17618287 0.090240002 0.75200003 1.186042205e-38
0.18452382 0.093000002 0.77500004 1.020451326e-38
0.18699239 0.092760012 0.77300006 8.734430655e-39
0.18969144 0.092640005 0.77200001 1.14037641e-38
0.19213334 0.092399999 0.77000004 1.250903126e-38
0.19506668 0.092399999 0.77000004 1.324587743e-38
0.19748572 0.092159994 0.76800001 1.287744664e-38
0.20041144 0.092159994 0.76800001 1.131264607e-38
0.20307238 0.092040002 0.76700002 1.168035659e-38
0.20545715 0.091800004 0.76500005 1.195837982e-38
0.20837143 0.091800004 0.76500005 1.22338835e-38
0.21073334 0.091559999 0.76300001 1.205451169e-38
0.21364 0.091559999 0.76300001 1.297142332e-38
0.21654667 0.091559999 0.76300001 1.352316357e-38
0.22002858 0.091800004 0.76500005 1.343349588e-38
0.22352572 0.092040002 0.76700002 1.42585664e-38
0.22674286 0.092159994 0.76800001 1.407633034e-38
0.23086476 0.092640005 0.77200001 1.407850375e-38
0.2341086 0.092760012 0.77300006 1.435545498e-38
0.23828 0.09324 0.77700001 1.453948611e-38
0.24186096 0.093480006 0.77900004 1.426398663e-38
0.24482858 0.093480006 0.77900004 1.426362929e-38
0.2481143 0.093600005 0.78000003 1.426362369e-38
0.25108573 0.093600005 0.78000003 1.398776688e-38
0.25470859 0.093840003 0.78200006 1.362078082e-38
0.25834668 0.094080001 0.78400004 1.389556004e-38
0.26266667 0.094560005 0.78800005 1.352785371e-38
0.26600572 0.094680004 0.78900003 1.398738712e-38
0.26969334 0.094920002 0.79100001 1.444370035e-38
0.27339619 0.095160007 0.79300004 1.371116878e-38
0.27711427 0.095400006 0.79500002 1.398414872e-38
0.28084764 0.095640004 0.79700005 1.398629972e-38
0.28424001 0.095760003 0.79800004 1.398666546e-38
0.28872001 0.096239999 0.80200005 1.352603763e-38
0.29250288 0.096479997 0.80400002 1.33420051e-38
0.29630098 0.096720003 0.80600005 1.306685314e-38
0.3001143 0.096960008 0.80800003 1.269808043e-38
0.30394286 0.097200006 0.81000006 1.278849081e-38
0.30778667 0.097440004 0.81200004 1.260553027e-38
0.31164572 0.097680002 0.81400001 1.223567296e-38
0.31590667 0.09804 0.81700003 1.214529061e-38
0.31901905 0.09804 0.81700003 1.187122746e-38
0.32292002 0.098280005 0.81900007 1.132056341e-38
0.32604003 0.098280005 0.81900007 1.104613452e-38
0.32916003 0.098280005 0.81900007 1.113365681e-38
0.33228004 0.098280005 0.81900007 1.058695563e-38
0.33540002 0.098280005 0.81900007 1.049798159e-38
0.39573336 0.10176001 0.84800005 1.34533705e-38
0.39661145 0.10116 0.84300005 1.308782358e-38
0.40314287 0.10200001 0.85000002 1.382072509e-38
0.40638095 0.10200001 0.85000002 1.382215722e-38
0.41154668 0.10248 0.85400003 1.373498945e-38
0.41480002 0.10248 0.85400003 1.373356993e-38
0.41805336 0.10248 0.85400003 1.41073691e-38
0.42032003 0.10224 0.85200006 1.42899653e-38
0.4472 0.1032 0.86000001 1.162568774e-38
0.44942859 0.10296 0.85800004 1.264050668e-38
0.13968 0.092160001 0.75600004 7.820032961e-39
0.1419943 0.09179429 0.75300002 7.724241599e-39
0.14428572 0.091428578 0.75000006 8.829854877e-39
0.14675048 0.091184765 0.74800003 9.846157799e-39
0.1496 0.091184765 0.74800003 1.104109264e-38
0.15285715 0.091428578 0.75000006 1.177649268e-38
0.1557143 0.091428578 0.75000006 1.269520917e-38
0.15857144 0.091428578 0.75000006 1.214383326e-38
0.16142859 0.091428578 0.75000006 1.168321384e-38
0.16428573 0.091428578 0.75000006 1.158599876e-38
0.16714287 0.091428578 0.75000006 1.084952113e-38
0.17000002 0.091428578 0.75000006 9.659608539e-39
0.17285715 0.091428578 0.75000006 1.140520463e-38
0.17618287 0.091672383 0.75200003 1.167819019e-38
0.18452382 0.094476193 0.77500004 1.231888066e-38
0.18747619 0.094476193 0.77500004 9.74569731e-39
0.18969144 0.094110474 0.77200001 1.103463126e-38
0.19213334 0.093866669 0.77000004 1.250938579e-38
0.19506668 0.093866669 0.77000004 1.333879753e-38
0.19748572 0.093622856 0.76800001 1.333807166e-38
0.20041144 0.093622856 0.76800001 1.213808934e-38
0.20333713 0.093622856 0.76800001 1.195621761e-38
0.20599429 0.093500957 0.76700002 1.205021251e-38
0.20837143 0.093257144 0.76500005 1.2326805e-38
0.21073334 0.093013331 0.76300001 1.251226826e-38
0.21364 0.093013331 0.76300001 1.324693541e-38
0.21654667 0.093013331 0.76300001 1.3616441e-38
0.22002858 0.093257144 0.76500005 1.30672357e-38
0.22352572 0.093500957 0.76700002 1.398449625e-38
0.22674286 0.093622856 0.76800001 1.407633034e-38
0.23086476 0.094110474 0.77200001 1.407849535e-38
0.2347143 0.094476193 0.77500004 1.435508644e-38
0.23828 0.094719999 0.77700001 1.444728767e-38
0.24186096 0.094963811 0.77900004 1.41717938e-38
0.24482858 0.094963811 0.77900004 1.407959256e-38
0.24779619 0.094963811 0.77900004 1.417141545e-38
0.25108573 0.095085718 0.78000003 1.398739553e-38
0.25470859 0.095329531 0.78200006 1.334454846e-38
0.25834668 0.095573336 0.78400004 1.380372734e-38
0.26199999 0.095817141 0.78600001 1.316158933e-38
0.26600572 0.09618286 0.78900003 1.389553902e-38
0.26969334 0.096426666 0.79100001 1.417033365e-38
0.27339619 0.096670479 0.79300004 1.352749778e-38
0.27711427 0.096914284 0.79500002 1.407671009e-38
0.28084764 0.097158097 0.79700005 1.398630812e-38
0.28424001 0.097280003 0.79800004 1.435365852e-38
0.28799999 0.097523808 0.80000001 1.380048474e-38
0.29177526 0.097767621 0.80200005 1.352532857e-38
0.29556569 0.098011427 0.80400002 1.315726772e-38
0.29937145 0.098255247 0.80600005 1.278992714e-38
0.30319241 0.098499052 0.80800003 1.297323379e-38
0.30778667 0.09898667 0.81200004 1.278919146e-38
0.31164572 0.099230476 0.81400001 1.232857484e-38
0.31513333 0.09935239 0.81500006 1.19616014e-38
0.31823811 0.09935239 0.81500006 1.196160841e-38
0.32213143 0.099596195 0.81700003 1.159498389e-38
0.32524383 0.099596195 0.81700003 1.150279947e-38
0.32755241 0.09935239 0.81500006 1.159248397e-38
0.33228004 0.099840008 0.81900007 1.214636961e-38
0.33540002 0.099840008 0.81900007 1.233397685e-38
0.34100002 0.10057143 0.82500005 1.233504884e-38
0.34414285 0.10057143 0.82500005 1.270241465e-38
0.34728575 0.10057143 0.82500005 1.297148077e-38
0.35042858 0.10057143 0.82500005 1.260665271e-38
0.35772571 0.10130286 0.83100003 1.178087173e-38
0.39433333 0.10300953 0.84500003 1.132566974e-38
0.39567047 0.1025219 0.84100002 1.142037649e-38
0.40077144 0.10300953 0.84500003 1.151113859e-38
0.40303433 0.10276572 0.84300005 1.160117623e-38
0.41058287 0.10386287 0.85200006 1.151221479e-38
0.41382858 0.10386287 0.85200006 1.133249826e-38
0.41805336 0.10410667 0.85400003 1.151975238e-38
0.42032003 0.10386287 0.85200006 1.18874587e-38
0.4472 0.1048381 0.86000001 6.36441176e-39
0.44942859 0.10459429 0.85800004 8.479852559e-39
0.13968 0.093600005 0.75600004 7.820018948e-39
0.14237143 0.093476199 0.75500005 7.631318695e-39
0.14467049 0.093104765 0.75200003 8.368872524e-39
0.14675048 0.092609525 0.74800003 9.19755139e-39
0.1496 0.092609525 0.74800003 1.021240397e-38
0.15285715 0.092857152 0.75000006 1.095139273e-38
0.1557143 0.092857152 0.75000006 1.113041141e-38
0.15857144 0.092857152 0.75000006 1.177290255e-38
0.16099809 0.092609525 0.74800003 1.103820457e-38
0.16384763 0.092609525 0.74800003 1.157918425e-38
0.16669716 0.092609525 0.74800003 1.167460707e-38
0.17000002 0.092857152 0.75000006 1.20480489e-38
0.1733181 0.093104765 0.75200003 1.269665111e-38
0.17618287 0.093104765 0.75200003 1.223387229e-38
0.17904763 0.093104765 0.75200003 1.241430348e-38
0.18747619 0.095952384 0.77500004 1.048432874e-38
0.18969144 0.09558095 0.77200001 1.047572897e-38
0.19263239 0.09558095 0.77200001 1.269341271e-38
0.19506668 0.095333338 0.77000004 1.343207636e-38
0.19800001 0.095333338 0.77000004 1.361538582e-38
0.20041144 0.095085718 0.76800001 1.250435512e-38
0.20333713 0.095085718 0.76800001 1.204876777e-38
0.20599429 0.094961904 0.76700002 1.223423943e-38
0.20837143 0.094714291 0.76500005 1.241578045e-38
0.21128573 0.094714291 0.76500005 1.269451833e-38
0.21364 0.094466671 0.76300001 1.324694242e-38
0.2171143 0.094714291 0.76500005 1.361931927e-38
0.22002858 0.094714291 0.76500005 1.407814782e-38
0.22352572 0.094961904 0.76700002 1.389338102e-38
0.22674286 0.095085718 0.76800001 1.380118258e-38
0.23086476 0.09558095 0.77200001 1.407848834e-38
0.2341086 0.095704764 0.77300006 1.426324254e-38
0.23828 0.096200004 0.77700001 1.426289642e-38
0.24186096 0.096447624 0.77900004 1.380696574e-38
0.24420001 0.096200004 0.77700001 1.426325515e-38
0.24779619 0.096447624 0.77900004 1.417140284e-38
0.25108573 0.096571431 0.78000003 1.426217194e-38
0.25470859 0.096819058 0.78200006 1.361968921e-38
0.25834668 0.097066671 0.78400004 1.389520691e-38
0.26199999 0.097314283 0.78600001 1.343781328e-38
0.2656686 0.097561903 0.78800005 1.389588514e-38
0.26969334 0.097933337 0.79100001 1.444654359e-38
0.27270669 0.097933337 0.79100001 1.38044378e-38
0.27641714 0.098180957 0.79300004 1.426110836e-38
0.28084764 0.098676197 0.79700005 1.398667526e-38
0.28424001 0.098800004 0.79800004 1.42603979e-38
0.28799999 0.099047616 0.80000001 1.389161958e-38
0.29104763 0.099047616 0.80000001 1.370901078e-38
0.2948305 0.099295244 0.80200005 1.379977008e-38
0.29862857 0.099542864 0.80400002 1.30661623e-38
0.30244192 0.099790484 0.80600005 1.306686015e-38
0.30702859 0.10028572 0.81000006 1.297321277e-38
0.31088001 0.10053334 0.81200004 1.251510589e-38
0.31474668 0.10078095 0.81400001 1.232892657e-38
0.31706667 0.10053334 0.81200004 1.223817147e-38
0.32134289 0.10090476 0.81500006 1.205343269e-38
0.32444763 0.10090476 0.81500006 1.232824274e-38
0.32715046 0.10078095 0.81400001 1.205023493e-38
0.33146858 0.10115238 0.81700003 1.214458015e-38
0.33540002 0.10140001 0.81900007 1.214994853e-38
0.34100002 0.10214286 0.82500005 1.224034489e-38
0.34414285 0.10214286 0.82500005 1.269881892e-38
0.34728575 0.10214286 0.82500005 1.269740641e-38
0.35042858 0.10214286 0.82500005 1.242262299e-38
0.35528573 0.1026381 0.82900006 1.223823593e-38
0.35930857 0.10288572 0.83100003 1.187269462e-38
0.36247429 0.10288572 0.83100003 1.178011503e-38
0.36564001 0.10288572 0.83100003 1.186978412e-38
0.36969337 0.10313334 0.83300006 1.141097798e-38
0.37286669 0.10313334 0.83300006 1.177760951e-38
0.39340004 0.10437143 0.84300005 1.186550456e-38
0.39567047 0.10412381 0.84100002 1.150031356e-38
0.39982289 0.10437143 0.84300005 1.149815837e-38
0.40303433 0.10437143 0.84300005 1.141349191e-38
0.41058287 0.10548572 0.85200006 1.159501331e-38
0.41382858 0.10548572 0.85200006 1.150353655e-38
0.41707432 0.10548572 0.85200006 1.160002856e-38
0.41933334 0.10523809 0.85000002 1.18726764e-38
0.42257145 0.10523809 0.85000002 1.205530903e-38
0.42681146 0.10548572 0.85200006 1.243811715e-38
0.44824004 0.10672382 0.86200005 4.224825187e-39
0.4504762 0.1064762 0.86000001 4.684030694e-39
0.13968 0.095040008 0.75600004 7.911134176e-39
0.1419943 0.09466286 0.75300002 7.631317294e-39
0.14467049 0.094537146 0.75200003 7.907541247e-39
0.14714287 0.094285719 0.75000006 8.548242931e-39
0.15000001 0.094285719 0.75000006 9.466237759e-39
0.15326478 0.094537146 0.75200003 1.020594959e-38
0.15612952 0.094537146 0.75200003 9.565986387e-39
0.15857144 0.094285719 0.75000006 1.140270332e-38
0.16142859 0.094285719 0.75000006 1.048433995e-38
0.16428573 0.094285719 0.75000006 1.159210982e-38
0.16714287 0.094285719 0.75000006 1.260840854e-38
0.17000002 0.094285719 0.75000006 1.444727226e-38
0.1733181 0.094537146 0.75200003 1.398772904e-38
0.17618287 0.094537146 0.75200003 1.288030669e-38
0.17904763 0.094537146 0.75200003 1.259797447e-38
0.18747619 0.097428575 0.77500004 1.121972597e-38
0.18969144 0.097051427 0.77200001 9.925790788e-39
0.19213334 0.096800007 0.77000004 1.296856887e-38
0.19506668 0.096800007 0.77000004 1.352282866e-38
0.19800001 0.096800007 0.77000004 1.398343686e-38
0.20041144 0.096548572 0.76800001 1.2967843e-38
0.20333713 0.096548572 0.76800001 1.223136257e-38
0.20626286 0.096548572 0.76800001 1.241790762e-38
0.20891619 0.096422859 0.76700002 1.260015069e-38
0.21128573 0.096171431 0.76500005 1.287745084e-38
0.21364 0.095920004 0.76300001 1.333877511e-38
0.2171143 0.096171431 0.76500005 1.370971423e-38
0.22060381 0.096422859 0.76700002 1.508797114e-38
0.22352572 0.096422859 0.76700002 1.380190565e-38
0.22674286 0.096548572 0.76800001 1.352674949e-38
0.23086476 0.097051427 0.77200001 1.417103149e-38
0.2347143 0.097428575 0.77500004 1.417103429e-38
0.23828 0.097680002 0.77700001 1.417105251e-38
0.24186096 0.09793143 0.77900004 1.353002152e-38
0.24482858 0.09793143 0.77900004 1.453840571e-38
0.24779619 0.09793143 0.77900004 1.417140984e-38
0.2507638 0.09793143 0.77900004 1.462986565e-38
0.25470859 0.098308578 0.78200006 1.389554462e-38
0.25834668 0.098560005 0.78400004 1.407959116e-38
0.26133335 0.098560005 0.78400004 1.380371753e-38
0.26499429 0.098811425 0.78600001 1.398772904e-38
0.26901144 0.099188574 0.78900003 1.481354365e-38
0.27270669 0.099440001 0.79100001 1.407851637e-38
0.27641714 0.099691428 0.79300004 1.453768964e-38
0.28014284 0.099942856 0.79500002 1.398702559e-38
0.28388384 0.1001943 0.79700005 1.416925745e-38
0.28728002 0.10032 0.79800004 1.407491503e-38
0.29032004 0.10032 0.79800004 1.389340063e-38
0.29409525 0.10057142 0.80000001 1.444298008e-38
0.29714286 0.10057142 0.80000001 1.343315677e-38
0.30094096 0.10082286 0.80200005 1.315799219e-38
0.3055124 0.10132572 0.80600005 1.324837174e-38
0.31011429 0.10182858 0.81000006 1.278846839e-38
0.31397337 0.10208 0.81200004 1.269627276e-38
0.31706667 0.10208 0.81200004 1.251260877e-38
0.32094857 0.10233142 0.81400001 1.251118085e-38
0.32404953 0.10233142 0.81400001 1.31536832e-38
0.32715046 0.10233142 0.81400001 1.260267723e-38
0.33146858 0.10270857 0.81700003 1.223605131e-38
0.33458099 0.10270857 0.81700003 1.205416557e-38
0.34017333 0.10346286 0.82300001 1.214779893e-38
0.34330857 0.10346286 0.82300001 1.269595326e-38
0.3464438 0.10346286 0.82300001 1.251372421e-38
0.35042858 0.10371429 0.82500005 1.223786599e-38
0.35528573 0.10421715 0.82900006 1.242118246e-38
0.35844383 0.10421715 0.82900006 1.232899243e-38
0.36247429 0.10446857 0.83100003 1.196305455e-38
0.36564001 0.10446857 0.83100003 1.205668651e-38
0.36969337 0.10472 0.83300006 1.187339667e-38
0.37286669 0.10472 0.83300006 1.196486923e-38
0.39250287 0.10660572 0.84800005 1.196342169e-38
0.39340004 0.10597715 0.84300005 1.242117545e-38
0.39472955 0.10547429 0.83900005 1.168541388e-38
0.39982289 0.10597715 0.84300005 1.150317502e-38
0.40112191 0.10547429 0.83900005 1.132201515e-38
0.40720952 0.10622857 0.84500003 1.168649148e-38
0.41188571 0.10660572 0.84800005 1.177940037e-38
0.41511622 0.10660572 0.84800005 1.177724237e-38
0.41933334 0.10685714 0.85000002 1.195805612e-38
0.42257145 0.10685714 0.85000002 1.159144841e-38
0.42681146 0.10710858 0.85200006 1.076063256e-38
0.42904761 0.10685714 0.85000002 1.048514149e-38
0.44779429 0.10786286 0.85800004 1.561609811e-39
0.13824001 0.096480004 0.75600004 8.646174076e-39
0.14056 0.096097142 0.75300002 7.35760727e-39
0.1432381 0.095969528 0.75200003 6.897349388e-39
0.14610286 0.095969528 0.75200003 7.723512924e-39
0.14896762 0.095969528 0.75200003 8.910922796e-39
0.15183239 0.095969528 0.75200003 1.011553781e-38
0.15469715 0.095969528 0.75200003 1.057725444e-38
0.15714286 0.095714293 0.75000006 1.122226792e-38
0.16000001 0.095714293 0.75000006 1.186512761e-38
0.16285716 0.095714293 0.75000006 1.251298292e-38
0.16571429 0.095714293 0.75000006 1.306759163e-38
0.16857144 0.095714293 0.75000006 1.334384641e-38
0.17142859 0.095714293 0.75000006 1.36196822e-38
0.17475048 0.095969528 0.75200003 1.315976484e-38
0.17761524 0.095969528 0.75200003 1.296890658e-38
0.18048 0.095969528 0.75200003 1.213879699e-38
0.18846478 0.098649532 0.77300006 1.038925344e-38
0.1911619 0.098521911 0.77200001 1.113114989e-38
0.19360001 0.098266676 0.77000004 1.306148897e-38
0.19653335 0.098266676 0.77000004 1.398487039e-38
0.19946668 0.098266676 0.77000004 1.380046932e-38
0.2024 0.098266676 0.77000004 1.278166508e-38
0.20480001 0.098011427 0.76800001 1.250794245e-38
0.20745523 0.097883806 0.76700002 1.260122268e-38
0.20982857 0.097628579 0.76500005 1.241752787e-38
0.21274288 0.097628579 0.76500005 1.269412457e-38
0.21565716 0.097628579 0.76500005 1.333878072e-38
0.21857144 0.097628579 0.76500005 1.398593118e-38
0.22206476 0.097883806 0.76700002 1.416925465e-38
0.22528 0.098011427 0.76800001 1.380154552e-38
0.2288 0.098266676 0.77000004 1.417066435e-38
0.23263621 0.098649532 0.77300006 1.435433675e-38
0.23619048 0.098904766 0.77500004 1.417101888e-38
0.23976 0.099160001 0.77700001 1.38973593e-38
0.24271999 0.099160001 0.77700001 1.398848154e-38
0.24567999 0.099160001 0.77700001 1.417141825e-38
0.24928002 0.099415243 0.77900004 1.389591036e-38
0.25257143 0.099542864 0.78000003 1.371220293e-38
0.25619811 0.099798106 0.78200006 1.371188344e-38
0.25984001 0.10005334 0.78400004 1.371153311e-38
0.26282668 0.10005334 0.78400004 1.343672027e-38
0.26716954 0.10056381 0.78800005 1.38033546e-38
0.27051428 0.10069143 0.78900003 1.416965121e-38
0.27421334 0.10094667 0.79100001 1.416999173e-38
0.27792761 0.10120191 0.79300004 1.389483697e-38
0.28165716 0.10145714 0.79500002 1.398772484e-38
0.28540194 0.10171238 0.79700005 1.417030282e-38
0.28880003 0.10184 0.79800004 1.389447823e-38
0.29184002 0.10184 0.79800004 1.398667246e-38
0.29561904 0.10209524 0.80000001 1.379942115e-38
0.29866666 0.10209524 0.80000001 1.343282186e-38
0.30322286 0.10260572 0.80400002 1.343241268e-38
0.30704764 0.10286096 0.80600005 1.333914225e-38
0.31165716 0.10337143 0.81000006 1.297106318e-38
0.31552002 0.10362667 0.81200004 1.278811666e-38
0.3178286 0.10337143 0.81000006 1.260409675e-38
0.32170668 0.10362667 0.81200004 1.269414138e-38
0.32480001 0.10362667 0.81200004 1.269522319e-38
0.32789335 0.10362667 0.81200004 1.24197223e-38
0.33220956 0.10400953 0.81500006 1.214492487e-38
0.33408001 0.10362667 0.81200004 1.205595503e-38
0.34091049 0.10477524 0.82100004 1.233006022e-38
0.3432 0.10452001 0.81900007 1.251299693e-38
0.34632 0.10452001 0.81900007 1.214529762e-38
0.35029334 0.10477524 0.82100004 1.214458996e-38
0.3542819 0.10503048 0.82300001 1.241974332e-38
0.35915428 0.10554095 0.82700002 1.196271403e-38
0.36230478 0.10554095 0.82700002 1.177934011e-38
0.36457145 0.10528572 0.82500005 1.19641882e-38
0.36771432 0.10528572 0.82500005 1.196379163e-38
0.37355432 0.10605143 0.83100003 1.20552768e-38
0.37490666 0.10554095 0.82700002 1.20552712e-38
0.37805715 0.10554095 0.82700002 1.168756347e-38
0.39086479 0.10732762 0.84100002 1.196199096e-38
0.3921943 0.10681715 0.83700001 1.186980094e-38
0.39538285 0.10681715 0.83700001 1.150280928e-38
0.39857143 0.10681715 0.83700001 1.113618756e-38
0.40175998 0.10681715 0.83700001 1.131914949e-38
0.40785143 0.10758286 0.84300005 1.177797105e-38
0.41008762 0.10732762 0.84100002 1.177795703e-38
0.41525716 0.10783809 0.84500003 1.177688644e-38
0.41649523 0.10732762 0.84100002 1.177547253e-38
0.42069715 0.10758286 0.84300005 1.140810112e-38
0.42491427 0.10783809 0.84500003 1.094711316e-38
0.42712003 0.10758286 0.84300005 1.103862356e-38
0.44675052 0.10924191 0.85600007 6.347817584e-39
0.13949525 0.09779048 0.75500005 8.552195994e-39
0.1419943 0.09753143 0.75300002 5.335089374e-39
0.14486286 0.09753143 0.75300002 6.805532109e-39
0.14753523 0.09740191 0.75200003 7.909710457e-39
0.15040001 0.09740191 0.75200003 1.002622745e-38
0.15326478 0.09740191 0.75200003 1.104109404e-38
0.1557143 0.09714286 0.75000006 1.159606989e-38
0.15857144 0.09714286 0.75000006 1.233399366e-38
0.16142859 0.09714286 0.75000006 1.334525331e-38
0.16428573 0.09714286 0.75000006 1.481425411e-38
0.16714287 0.09714286 0.75000006 1.334382959e-38
0.17000002 0.09714286 0.75000006 1.32519955e-38
0.17285715 0.09714286 0.75000006 1.306830489e-38
0.17641714 0.09753143 0.75300002 1.297465751e-38
0.17904763 0.09740191 0.75200003 1.342521561e-38
0.18191239 0.09740191 0.75200003 1.140411723e-38
0.18969144 0.099992387 0.77200001 9.284018512e-39
0.19263239 0.099992387 0.77200001 1.260015209e-38
0.19506668 0.099733338 0.77000004 1.342846802e-38
0.19800001 0.099733338 0.77000004 1.50876012e-38
0.20093334 0.099733338 0.77000004 1.343096373e-38
0.20386668 0.099733338 0.77000004 1.269089738e-38
0.20626286 0.099474281 0.76800001 1.269377144e-38
0.20891619 0.099344768 0.76700002 1.26934085e-38
0.21128573 0.099085718 0.76500005 1.159174128e-38
0.21420002 0.099085718 0.76500005 1.297143733e-38
0.2171143 0.099085718 0.76500005 1.352389224e-38
0.22060381 0.099344768 0.76700002 1.389339083e-38
0.22352572 0.099344768 0.76700002 1.398450886e-38
0.22674286 0.099474281 0.76800001 1.407777508e-38
0.23026668 0.099733338 0.77000004 1.508867459e-38
0.2341086 0.10012191 0.77300006 1.426250966e-38
0.23766668 0.10038095 0.77500004 1.407887089e-38
0.24123999 0.10064001 0.77700001 1.389665585e-38
0.24420001 0.10064001 0.77700001 1.407959677e-38
0.24716 0.10064001 0.77700001 1.389556004e-38
0.2507638 0.10089906 0.77900004 1.297719386e-38
0.25470859 0.10128763 0.78200006 1.343636994e-38
0.25768763 0.10128763 0.78200006 1.361969201e-38
0.26133335 0.10154667 0.78400004 1.352677191e-38
0.26499429 0.10180572 0.78600001 1.27020419e-38
0.26901144 0.10219429 0.78900003 1.380229101e-38
0.27270669 0.10245334 0.79100001 1.416820087e-38
0.27572 0.10245334 0.79100001 1.38941209e-38
0.27873334 0.10245334 0.79100001 1.325233882e-38
0.28245905 0.10271239 0.79300004 1.453694695e-38
0.28692001 0.10323048 0.79700005 1.407813802e-38
0.29032004 0.10336 0.79800004 1.371116878e-38
0.29336002 0.10336 0.79800004 1.389340624e-38
0.29640001 0.10336 0.79800004 1.361647323e-38
0.30019048 0.10361905 0.80000001 1.370865905e-38
0.30399621 0.1038781 0.80200005 1.379868967e-38
0.30858287 0.10439619 0.80600005 1.352281184e-38
0.31242666 0.10465524 0.80800003 1.306327002e-38
0.31628576 0.10491429 0.81000006 1.29721604e-38
0.31937146 0.10491429 0.81000006 1.269522038e-38
0.32245716 0.10491429 0.81000006 1.260374222e-38
0.3255429 0.10491429 0.81000006 1.260481701e-38
0.3286286 0.10491429 0.81000006 1.242113902e-38
0.33253333 0.10517334 0.81200004 1.205451309e-38
0.33562669 0.10517334 0.81200004 1.22392757e-38
0.34080571 0.10582096 0.81700003 1.251443046e-38
0.3430762 0.10556191 0.81500006 1.232967907e-38
0.34703049 0.10582096 0.81700003 1.159355596e-38
0.35100001 0.10608001 0.81900007 1.260267303e-38
0.3558495 0.10659809 0.82300001 1.260411356e-38
0.35985717 0.10685714 0.82500005 1.113616374e-38
0.36212 0.10659809 0.82300001 1.205489425e-38
0.36614287 0.10685714 0.82500005 1.214746963e-38
0.37197143 0.10763429 0.83100003 1.196307417e-38
0.37333143 0.10711619 0.82700002 1.223893939e-38
0.37830287 0.10763429 0.83100003 1.16879194e-38
0.38146859 0.10763429 0.83100003 1.187193231e-38
0.38807619 0.10815238 0.83500004 1.18705156e-38
0.39032003 0.10789334 0.83300006 1.177689485e-38
0.39160383 0.10737525 0.82900006 1.141132831e-38
0.39666671 0.10789334 0.83300006 1.095178789e-38
0.40080002 0.10815238 0.83500004 1.113547009e-38
0.40494859 0.10841143 0.83700001 1.186907366e-38
0.40813714 0.10841143 0.83700001 1.187085752e-38
0.41329145 0.10892952 0.84100002 1.177939056e-38
0.41550478 0.10867048 0.83900005 1.177761512e-38
0.42319238 0.10983619 0.84800005 1.159464337e-38
0.42390859 0.10918858 0.84300005 1.132019346e-38
0.42712003 0.10918858 0.84300005 1.113546449e-38
0.42931047 0.10892952 0.84100002 1.058193618e-38
0.44675052 0.11087239 0.85600007 1.104003046e-38
0.14237143 0.099228583 0.75500005 7.814667389e-39
0.14486286 0.098965712 0.75300002 8.462176581e-39
0.14773144 0.098965712 0.75300002 9.569220584e-39
0.15040001 0.098834284 0.75200003 1.067626038e-38
0.15326478 0.098834284 0.75200003 1.1319483e-38
0.1557143 0.098571435 0.75000006 1.169042492e-38
0.15857144 0.098571435 0.75000006 1.214997235e-38
0.16142859 0.098571435 0.75000006 1.297612187e-38
0.16428573 0.098571435 0.75000006 1.389625788e-38
0.16714287 0.098571435 0.75000006 1.3342752e-38
0.17000002 0.098571435 0.75000006 1.325235283e-38
0.17285715 0.098571435 0.75000006 1.315907119e-38
0.17641714 0.098965712 0.75300002 1.297394565e-38
0.17928571 0.098965712 0.75300002 1.315078952e-38
0.18191239 0.098834284 0.75200003 1.085311266e-38
0.18969144 0.10146286 0.77200001 1.011089951e-38
0.19263239 0.10146286 0.77200001 1.232428127e-38
0.19506668 0.1012 0.77000004 1.333519199e-38
0.19800001 0.1012 0.77000004 1.471810121e-38
0.20093334 0.1012 0.77000004 1.370610308e-38
0.20386668 0.1012 0.77000004 1.287456417e-38
0.20626286 0.10093714 0.76800001 1.27863258e-38
0.20891619 0.10080571 0.76700002 1.28781613e-38
0.2118381 0.10080571 0.76700002 1.21431228e-38
0.21420002 0.10054287 0.76500005 1.287924871e-38
0.2171143 0.10054287 0.76500005 1.343349868e-38
0.22060381 0.10080571 0.76700002 1.380192107e-38
0.22381714 0.10093714 0.76800001 1.407599263e-38
0.22674286 0.10093714 0.76800001 1.425966782e-38
0.23026668 0.1012 0.77000004 1.462986986e-38
0.23380572 0.10146286 0.77200001 1.371115056e-38
0.23766668 0.10185715 0.77500004 1.389486079e-38
0.24123999 0.10212 0.77700001 1.361972704e-38
0.24420001 0.10212 0.77700001 1.398776688e-38
0.24716 0.10212 0.77700001 1.398632634e-38
0.25012001 0.10212 0.77700001 1.325235703e-38
0.25470859 0.10277715 0.78200006 1.352821945e-38
0.25768763 0.10277715 0.78200006 1.361969201e-38
0.26066667 0.10277715 0.78200006 1.36186046e-38
0.26432002 0.10304001 0.78400004 1.297790712e-38
0.26901144 0.10369714 0.78900003 1.380157215e-38
0.27201715 0.10369714 0.78900003 1.398452567e-38
0.27572 0.10396 0.79100001 1.389483837e-38
0.27873334 0.10396 0.79100001 1.352749078e-38
0.28245905 0.10422286 0.79300004 1.435292844e-38
0.28620002 0.10448571 0.79500002 1.416926586e-38
0.28995618 0.10474858 0.79700005 1.38952027e-38
0.29336002 0.10488001 0.79800004 1.40777961e-38
0.29640001 0.10488001 0.79800004 1.371081285e-38
0.30019048 0.10514285 0.80000001 1.352713905e-38
0.30323809 0.10514285 0.80000001 1.416568414e-38
0.30781716 0.10566857 0.80400002 1.352389785e-38
0.31242666 0.10619429 0.80800003 1.306363997e-38
0.31550476 0.10619429 0.80800003 1.306436584e-38
0.31858286 0.10619429 0.80800003 1.278634402e-38
0.32166097 0.10619429 0.80800003 1.278992294e-38
0.32473907 0.10619429 0.80800003 1.251404931e-38
0.32781714 0.10619429 0.80800003 1.251475556e-38
0.3317143 0.10645715 0.81000006 1.187083229e-38
0.33480003 0.10645715 0.81000006 1.233110419e-38
0.33955428 0.10698286 0.81400001 1.269880911e-38
0.34265524 0.10698286 0.81400001 1.251298712e-38
0.34618098 0.10711429 0.81500006 1.223603029e-38
0.35014287 0.10737714 0.81700003 1.27874006e-38
0.35412002 0.10764001 0.81900007 1.28803221e-38
0.35811239 0.10790286 0.82100004 1.20545201e-38
0.36036003 0.10764001 0.81900007 1.241936497e-38
0.36348003 0.10764001 0.81900007 1.232897562e-38
0.36749527 0.10790286 0.82100004 1.214494729e-38
0.37152573 0.10816572 0.82300001 1.288142352e-38
0.37375048 0.10790286 0.82100004 1.150137295e-38
0.37871429 0.10842858 0.82500005 1.177758849e-38
0.38370857 0.1089543 0.82900006 1.168612014e-38
0.38780001 0.10921714 0.83100003 1.196128331e-38
0.39096573 0.10921714 0.83100003 1.159465178e-38
0.3931829 0.1089543 0.82900006 1.140916751e-38
0.39825338 0.10948001 0.83300006 1.104254439e-38
0.40239048 0.10974286 0.83500004 1.177579343e-38
0.40654284 0.11000571 0.83700001 1.195873855e-38
0.40973145 0.11000571 0.83700001 1.186941838e-38
0.41292 0.11000571 0.83700001 1.150137435e-38
0.41610858 0.11000571 0.83700001 1.168612574e-38
0.42029905 0.11026858 0.83900005 1.187085752e-38
0.42349523 0.11026858 0.83900005 1.131875993e-38
0.42669144 0.11026858 0.83900005 1.113689101e-38
0.42988762 0.11026858 0.83900005 1.012348317e-38
0.43308383 0.11026858 0.83900005 1.158962532e-38
0.442 0.11171429 0.85000002 1.140594312e-38
0.44628575 0.11197715 0.85200006 1.039465124e-38
0.14380954 0.10066667 0.75500005 1.021817451e-38
0.14629714 0.1004 0.75300002 1.067591006e-38
0.14896762 0.10026667 0.75200003 1.122944958e-38
0.15183239 0.10026667 0.75200003 1.150350292e-38
0.15469715 0.10026667 0.75200003 1.177902762e-38
0.1575619 0.10026667 0.75200003 1.196664608e-38
0.16000001 0.10000001 0.75000006 1.233182726e-38
0.16285716 0.10000001 0.75000006 1.278597548e-38
0.16571429 0.10000001 0.75000006 1.315873909e-38
0.16857144 0.10000001 0.75000006 1.334202893e-38
0.17142859 0.10000001 0.75000006 1.325198289e-38
0.17475048 0.10026667 0.75200003 1.315870265e-38
0.17761524 0.10026667 0.75200003 1.297214078e-38
0.18048 0.10026667 0.75200003 1.167998385e-38
0.18846478 0.10306668 0.77300006 1.066226702e-38
0.19066668 0.10266667 0.77000004 1.149739326e-38
0.19360001 0.10266667 0.77000004 1.2690917e-38
0.19653335 0.10266667 0.77000004 1.379941975e-38
0.19946668 0.10266667 0.77000004 1.416530719e-38
0.2024 0.10266667 0.77000004 1.352208177e-38
0.20533334 0.10266667 0.77000004 1.297179886e-38
0.20745523 0.10226667 0.76700002 1.297072407e-38
0.21037716 0.10226667 0.76700002 1.287709911e-38
0.21329905 0.10226667 0.76700002 1.278813628e-38
0.21565716 0.10200001 0.76500005 1.30640043e-38
0.21857144 0.10200001 0.76500005 1.352641598e-38
0.22206476 0.10226667 0.76700002 1.398450746e-38
0.22528 0.1024 0.76800001 1.435150332e-38
0.2288 0.10266667 0.77000004 1.435295647e-38
0.23233524 0.10293333 0.77200001 1.371186102e-38
0.23558097 0.10306668 0.77300006 1.3432763e-38
0.23914286 0.10333334 0.77500004 1.35275188e-38
0.24209525 0.10333334 0.77500004 1.371332397e-38
0.24504763 0.10333334 0.77500004 1.407923803e-38
0.24863999 0.1036 0.77700001 1.380229241e-38
0.25224763 0.10386667 0.77900004 1.361756064e-38
0.25619811 0.10426667 0.78200006 1.371079743e-38
0.25917715 0.10426667 0.78200006 1.371116737e-38
0.26282668 0.10453334 0.78400004 1.343564687e-38
0.26649144 0.1048 0.78600001 1.352785792e-38
0.27051428 0.10520001 0.78900003 1.389089511e-38
0.27352002 0.10520001 0.78900003 1.389518028e-38
0.27722669 0.10546666 0.79100001 1.389413211e-38
0.28024 0.10546666 0.79100001 1.398630672e-38
0.28396955 0.10573334 0.79300004 1.417069378e-38
0.2877143 0.106 0.79500002 1.417035747e-38
0.29147431 0.10626668 0.79700005 1.417035326e-38
0.29488003 0.10640001 0.79800004 1.407922963e-38
0.29792002 0.10640001 0.79800004 1.362005355e-38
0.3017143 0.10666667 0.80000001 1.398308374e-38
0.30400002 0.10640001 0.79800004 1.407527516e-38
0.30934858 0.1072 0.80400002 1.324838435e-38
0.31318858 0.10746667 0.80600005 1.306545605e-38
0.31625906 0.10746667 0.80600005 1.306472177e-38
0.31932953 0.10746667 0.80600005 1.297287786e-38
0.3224 0.10746667 0.80600005 1.26966399e-38
0.32547048 0.10746667 0.80600005 1.251369478e-38
0.32935619 0.10773333 0.80800003 1.214705905e-38
0.33325714 0.10800001 0.81000006 1.205488023e-38
0.3363429 0.10800001 0.81000006 1.260803299e-38
0.3402667 0.10826667 0.81200004 1.278992854e-38
0.34420574 0.10853333 0.81400001 1.278884954e-38
0.34730667 0.10853333 0.81400001 1.288031369e-38
0.35083812 0.10866667 0.81500006 1.306220223e-38
0.35481143 0.10893334 0.81700003 1.306327983e-38
0.35792381 0.10893334 0.81700003 1.287960323e-38
0.36192003 0.10920001 0.81900007 1.260303596e-38
0.36504 0.10920001 0.81900007 1.241793985e-38
0.36816001 0.10920001 0.81900007 1.297111363e-38
0.37037337 0.10893334 0.81700003 1.241937478e-38
0.37440002 0.10920001 0.81900007 1.149993241e-38
0.3784419 0.10946666 0.82100004 1.159139376e-38
0.3834286 0.11000001 0.82500005 1.177974789e-38
0.38750857 0.11026667 0.82700002 1.187015967e-38
0.39065906 0.11026667 0.82700002 1.159391049e-38
0.39380953 0.11026667 0.82700002 1.150062325e-38
0.39792004 0.11053333 0.82900006 1.168431246e-38
0.4010781 0.11053333 0.82900006 1.186726739e-38
0.4061867 0.11106668 0.83300006 1.186868971e-38
0.40936002 0.11106668 0.83300006 1.159210422e-38
0.41253337 0.11106668 0.83300006 1.150208621e-38
0.41670477 0.11133334 0.83500004 1.196054062e-38
0.42089143 0.1116 0.83700001 1.18697645e-38
0.42509335 0.11186668 0.83900005 1.131838439e-38
0.42828953 0.11186668 0.83900005 1.06762786e-38
0.43148574 0.11186668 0.83900005 1.113222749e-38
0.43571809 0.11213334 0.84100002 1.168324327e-38
0.44257528 0.11306667 0.84800005 1.07627219e-38
0.14400001 0.10224 0.75600004 1.003486646e-38
0.14629714 0.10183429 0.75300002 1.031035613e-38
0.14916572 0.10183429 0.75300002 1.104508354e-38
0.15203428 0.10183429 0.75300002 1.141059683e-38
0.15469715 0.10169905 0.75200003 1.159534963e-38
0.15714286 0.10142858 0.75000006 1.168898719e-38
0.16000001 0.10142858 0.75000006 1.196337264e-38
0.16285716 0.10142858 0.75000006 1.260374782e-38
0.16571429 0.10142858 0.75000006 1.34331918e-38
0.16857144 0.10142858 0.75000006 1.37104359e-38
0.17097142 0.1011581 0.74800003 1.352748237e-38
0.17428572 0.10142858 0.75000006 1.334272957e-38
0.17714287 0.10142858 0.75000006 1.278596147e-38
0.18000001 0.10142858 0.75000006 1.130689934e-38
0.18846478 0.10453905 0.77300006 1.038926885e-38
0.19066668 0.10413334 0.77000004 1.140555216e-38
0.19360001 0.10413334 0.77000004 1.241470005e-38
0.19653335 0.10413334 0.77000004 1.352286509e-38
0.19946668 0.10413334 0.77000004 1.42571609e-38
0.2024 0.10413334 0.77000004 1.370648704e-38
0.20480001 0.10386286 0.76800001 1.297180447e-38
0.20745523 0.10372762 0.76700002 1.297073668e-38
0.20982857 0.10345715 0.76500005 1.296858709e-38
0.21329905 0.10372762 0.76700002 1.26941582e-38
0.21565716 0.10345715 0.76500005 1.288033892e-38
0.21857144 0.10345715 0.76500005 1.352534259e-38
0.22206476 0.10372762 0.76700002 1.425928807e-38
0.22498667 0.10372762 0.76700002 1.453553725e-38
0.2288 0.10413334 0.77000004 1.435261315e-38
0.23173334 0.10413334 0.77000004 1.40781268e-38
0.23558097 0.10453905 0.77300006 1.389084607e-38
0.23914286 0.10480952 0.77500004 1.398666405e-38
0.24209525 0.10480952 0.77500004 1.398881645e-38
0.24504763 0.10480952 0.77500004 1.389592157e-38
0.24863999 0.10508 0.77700001 1.352750339e-38
0.25257143 0.10548571 0.78000003 1.361865085e-38
0.25619811 0.10575619 0.78200006 1.398665004e-38
0.25917715 0.10575619 0.78200006 1.380371893e-38
0.26282668 0.10602667 0.78400004 1.37115177e-38
0.26649144 0.10629714 0.78600001 1.389484537e-38
0.27051428 0.10670286 0.78900003 1.416675333e-38
0.27352002 0.10670286 0.78900003 1.389409007e-38
0.27722669 0.10697333 0.79100001 1.380302389e-38
0.28024 0.10697333 0.79100001 1.389447543e-38
0.28325334 0.10697333 0.79100001 1.407778209e-38
0.2877143 0.10751428 0.79500002 1.398597742e-38
0.29147431 0.10778476 0.79700005 1.380158055e-38
0.29488003 0.10792 0.79800004 1.371045131e-38
0.29792002 0.10792 0.79800004 1.361790255e-38
0.30096003 0.10792 0.79800004 1.38919629e-38
0.30400002 0.10792 0.79800004 1.352532857e-38
0.30780953 0.10819048 0.80000001 1.297504007e-38
0.31241143 0.10873143 0.80400002 1.297542683e-38
0.31625906 0.10900191 0.80600005 1.297216881e-38
0.31853715 0.10873143 0.80400002 1.28803193e-38
0.32160002 0.10873143 0.80400002 1.279098092e-38
0.32466286 0.10873143 0.80400002 1.27906404e-38
0.32854095 0.10900191 0.80600005 1.233074546e-38
0.33161145 0.10900191 0.80600005 1.233110979e-38
0.3355124 0.10927239 0.80800003 1.269877688e-38
0.3394286 0.10954287 0.81000006 1.279100474e-38
0.34251431 0.10954287 0.81000006 1.297359393e-38
0.34645334 0.10981334 0.81200004 1.315619433e-38
0.34954667 0.10981334 0.81200004 1.324623196e-38
0.35264 0.10981334 0.81200004 1.315404474e-38
0.35573334 0.10981334 0.81200004 1.287780537e-38
0.35971048 0.11008381 0.81400001 1.269522038e-38
0.36325714 0.11021905 0.81500006 1.260411917e-38
0.36636192 0.11021905 0.81500006 1.278673218e-38
0.36946669 0.11021905 0.81500006 1.241937338e-38
0.37348571 0.11048953 0.81700003 1.177723536e-38
0.37752002 0.11076001 0.81900007 1.18697575e-38
0.38249904 0.11130095 0.82300001 1.196305034e-38
0.38657144 0.11157144 0.82500005 1.186978833e-38
0.3897143 0.11157144 0.82500005 1.168645505e-38
0.39380953 0.11184191 0.82700002 1.159459713e-38
0.39696002 0.11184191 0.82700002 1.177757308e-38
0.40011048 0.11184191 0.82700002 1.195910569e-38
0.40423623 0.11211239 0.82900006 1.186832537e-38
0.40837717 0.11238286 0.83100003 1.186830715e-38
0.41253337 0.11265334 0.83300006 1.177578502e-38
0.41570669 0.11265334 0.83300006 1.186761912e-38
0.41988572 0.11292382 0.83500004 1.177756467e-38
0.42407998 0.11319429 0.83700001 1.141020307e-38
0.42726859 0.11319429 0.83700001 1.104361358e-38
0.43045714 0.11319429 0.83700001 1.113293094e-38
0.43364573 0.11319429 0.83700001 1.140736684e-38
0.4389219 0.11373524 0.84100002 1.085455459e-38
0.14380954 0.10354286 0.75500005 9.851914333e-39
0.14668572 0.10354286 0.75500005 1.003018612e-38
0.14916572 0.10326858 0.75300002 1.076597712e-38
0.15183239 0.10313143 0.75200003 1.131769635e-38
0.15469715 0.10313143 0.75200003 1.150351413e-38
0.15714286 0.10285715 0.75000006 1.150388547e-38
0.16000001 0.10285715 0.75000006 1.168680537e-38
0.16285716 0.10285715 0.75000006 1.242258656e-38
0.16571429 0.10285715 0.75000006 1.361613271e-38
