# .PCD v0.7 - Point Cloud Data file format
VERSION 0.7
FIELDS x y z rgb
SIZE 4 4 4 4
TYPE F F F F
COUNT 1 1 1 1
WIDTH 942
HEIGHT 1
VIEWPOINT 0 0 0 1 0 0 0
POINTS 942
DATA ascii
-0.40990859 -0.13356571 0.80600005 7.735032998e-39
-0.41087618 -0.13489144 0.81400001 7.271553531e-39
-0.40827623 -0.13505715 0.81500006 7.545274766e-39
-0.40616575 -0.13538857 0.81700003 6.719839905e-39
-0.40404004 -0.13572001 0.81900007 6.077707496e-39
-0.40875241 -0.13837144 0.83500004 5.33549435e-39
-0.4075143 -0.13903429 0.83900005 5.245097987e-39
-0.40528193 -0.13936572 0.84100002 4.597601407e-39
-0.46476191 -0.13104762 0.80000001 1.160730691e-38
-0.4617143 -0.13104762 0.80000001 1.25249388e-38
-0.45752001 -0.13072 0.79800004 1.36265836e-38
-0.45277143 -0.13022858 0.79500002 1.197354467e-38
-0.44747999 -0.12957333 0.79100001 1.104658994e-38
-0.44334286 -0.12924571 0.78900003 1.123276645e-38
-0.43977907 -0.12908192 0.78800005 1.178556188e-38
-0.43566856 -0.12875429 0.78600001 1.206252292e-38
-0.43157333 -0.12842667 0.78400004 1.261282964e-38
-0.42858669 -0.12842667 0.78400004 1.297942753e-38
-0.42560002 -0.12842667 0.78400004 1.399751431e-38
-0.42369142 -0.12875429 0.78600001 1.363197579e-38
-0.42069712 -0.12875429 0.78600001 1.270464692e-38
-0.41876575 -0.12908192 0.78800005 1.122447637e-38
-0.41734669 -0.12957333 0.79100001 7.905447707e-39
-0.41538098 -0.12990096 0.79300004 6.710518468e-39
-0.41600001 -0.13104762 0.80000001 7.358399004e-39
-0.41295239 -0.13104762 0.80000001 1.132166342e-38
-0.41092953 -0.13137524 0.80200005 1.05855165e-38
-0.40990859 -0.13203047 0.80600005 6.723047477e-39
-0.40885717 -0.13268572 0.81000006 6.812370445e-39
-0.40777522 -0.13334094 0.81400001 6.626912798e-39
-0.40517145 -0.13350476 0.81500006 6.444692149e-39
-0.40305334 -0.13383238 0.81700003 6.25994496e-39
-0.40875241 -0.13678096 0.83500004 5.798975218e-39
-0.4075143 -0.1374362 0.83900005 5.704988729e-39
-0.40528193 -0.13776381 0.84100002 5.60957852e-39
-0.46476191 -0.12952381 0.80000001 1.169770187e-38
-0.4628686 -0.12984763 0.80200005 1.252314233e-38
-0.45866668 -0.12952381 0.80000001 1.316596979e-38
-0.45277143 -0.12871429 0.79500002 1.18820651e-38
-0.44861144 -0.12839049 0.79300004 1.095475164e-38
-0.44334286 -0.12774286 0.78900003 9.387807084e-39
-0.43977907 -0.12758096 0.78800005 1.10541065e-38
-0.43677717 -0.12758096 0.78800005 1.178380465e-38
-0.43157333 -0.12693335 0.78400004 1.242775174e-38
-0.42749336 -0.12660953 0.78200006 1.288725012e-38
-0.42451432 -0.12660953 0.78200006 1.335361206e-38
-0.42153525 -0.12660953 0.78200006 1.280476269e-38
-0.41962668 -0.12693335 0.78400004 1.114021209e-38
-0.41664001 -0.12693335 0.78400004 9.105448246e-39
-0.41629145 -0.12774286 0.78900003 7.174006343e-39
-0.41538098 -0.12839049 0.79300004 5.791069092e-39
-0.41496 -0.1292 0.79800004 5.604166706e-39
-0.41295239 -0.12952381 0.80000001 8.657342424e-39
-0.41092953 -0.12984763 0.80200005 8.750237302e-39
-0.40889141 -0.13017143 0.80400002 6.629418319e-39
-0.40784764 -0.13081905 0.80800003 6.261351863e-39
-0.40677336 -0.13146667 0.81200004 6.16772831e-39
-0.40517145 -0.13195238 0.81500006 6.16595847e-39
-0.40502667 -0.13292381 0.82100004 5.797182957e-39
-0.40875241 -0.13519049 0.83500004 5.616737754e-39
-0.4075143 -0.13583809 0.83900005 5.800767479e-39
-0.40431812 -0.13583809 0.83900005 6.164890681e-39
-0.46555427 -0.12864001 0.80400002 1.215690597e-38
-0.46019047 -0.12800001 0.80000001 1.261605122e-38
-0.456 -0.12768 0.79800004 1.224760782e-38
-0.45125714 -0.12719999 0.79500002 1.141821009e-38
-0.44597334 -0.12656 0.79100001 9.207693988e-39
-0.44183999 -0.12624 0.78900003 8.931797939e-39
-0.43827811 -0.12608001 0.78800005 1.095330129e-38
-0.4330667 -0.12544 0.78400004 1.187598066e-38
-0.42898288 -0.12512 0.78200006 1.251847881e-38
-0.42600384 -0.12512 0.78200006 1.280042006e-38
-0.42302477 -0.12512 0.78200006 1.233764825e-38
-0.42004573 -0.12512 0.78200006 1.076529048e-38
-0.41706669 -0.12512 0.78200006 8.374668294e-39
-0.41620573 -0.12576 0.78600001 6.719105625e-39
-0.41426286 -0.12608001 0.78800005 5.698880469e-39
-0.41387048 -0.12688001 0.79300004 4.417470095e-39
-0.41344002 -0.12768 0.79800004 4.8766742e-39
-0.41142857 -0.12800001 0.80000001 6.448989931e-39
-0.40838096 -0.12800001 0.80000001 6.722324407e-39
-0.40634668 -0.12832001 0.80200005 6.078050814e-39
-0.4073143 -0.12960002 0.81000006 5.70852981e-39
-0.40622476 -0.13023999 0.81400001 5.797921442e-39
-0.40361905 -0.13040002 0.81500006 5.705343257e-39
-0.40444571 -0.13168001 0.82300001 5.428044508e-39
-0.40716192 -0.1336 0.83500004 5.708910963e-39
-0.40591621 -0.13424002 0.83900005 6.353197168e-39
-0.40272 -0.13424002 0.83900005 6.810942522e-39
-0.4628686 -0.12679239 0.80200005 1.243097333e-38
-0.45866668 -0.1264762 0.80000001 1.252133886e-38
-0.45447999 -0.12616 0.79800004 1.160295307e-38
-0.4508743 -0.12600191 0.79700005 1.049946696e-38
-0.4455905 -0.12536952 0.79300004 7.920503258e-39
-0.44033718 -0.12473714 0.78900003 8.652702725e-39
-0.43677717 -0.12457906 0.78800005 9.57072698e-39
-0.43157333 -0.12394667 0.78400004 1.068136952e-38
-0.42749336 -0.12363049 0.78200006 1.132567674e-38
-0.42451432 -0.12363049 0.78200006 1.141603807e-38
-0.42153525 -0.12363049 0.78200006 1.039575266e-38
-0.41855621 -0.12363049 0.78200006 8.376417115e-39
-0.41664001 -0.12394667 0.78400004 6.440688639e-39
-0.41576383 -0.12457906 0.78800005 5.332586655e-39
-0.41800001 -0.12616 0.79800004 3.9525585e-39
-0.41600001 -0.1264762 0.80000001 3.769614782e-39
-0.41295239 -0.1264762 0.80000001 5.05496841e-39
-0.40990475 -0.1264762 0.80000001 5.988739056e-39
-0.40787432 -0.12679239 0.80200005 5.985133515e-39
-0.40683812 -0.12742476 0.80600005 5.524151162e-39
-0.40577146 -0.12805715 0.81000006 5.338364209e-39
-0.40467429 -0.12868953 0.81400001 5.610660323e-39
-0.40157333 -0.12868953 0.81400001 5.332617484e-39
-0.40189907 -0.12979619 0.82100004 5.244352496e-39
-0.40362859 -0.13137715 0.83100003 5.523070761e-39
-0.40335429 -0.13232571 0.83700001 6.444648709e-39
-0.40016571 -0.13232571 0.83700001 6.525429361e-39
-0.4628686 -0.12526478 0.80200005 1.224621213e-38
-0.45981336 -0.12526478 0.80200005 1.242949496e-38
-0.45561904 -0.12495238 0.80000001 1.141927227e-38
-0.45144001 -0.12464001 0.79800004 1.00406342e-38
-0.44783813 -0.12448382 0.79700005 8.380396802e-39
-0.44256955 -0.12385905 0.79300004 6.998567979e-39
-0.43677717 -0.1230781 0.78800005 7.638917937e-39
-0.4304724 -0.12214097 0.78200006 9.110445276e-39
-0.42749336 -0.12214097 0.78200006 9.938764009e-39
-0.42451432 -0.12214097 0.78200006 1.012169652e-38
-0.42153525 -0.12214097 0.78200006 8.925305723e-39
-0.41962668 -0.12245334 0.78400004 7.085717533e-39
-0.41770285 -0.12276572 0.78600001 5.881441633e-39
-0.41734669 -0.12354667 0.79100001 4.229839033e-39
-0.41800001 -0.12464001 0.79800004 3.032394463e-39
-0.41600001 -0.12495238 0.80000001 3.677402337e-39
-0.41295239 -0.12495238 0.80000001 4.228077601e-39
-0.40990475 -0.12495238 0.80000001 5.058901855e-39
-0.40787432 -0.12526478 0.80200005 5.432688411e-39
-0.40683812 -0.12588952 0.80600005 5.340843106e-39
-0.40577146 -0.1265143 0.81000006 5.061768912e-39
-0.40467429 -0.12713905 0.81400001 5.333704892e-39
-0.40157333 -0.12713905 0.81400001 5.240416249e-39
-0.40287811 -0.12854476 0.82300001 4.967055148e-39
-0.40265718 -0.12948191 0.82900006 5.244355299e-39
-0.40239048 -0.13041905 0.83500004 6.164508126e-39
-0.40016571 -0.13073143 0.83700001 6.344619821e-39
-0.46671242 -0.12435429 0.80600005 1.188029666e-38
-0.46134096 -0.12373715 0.80200005 1.233766787e-38
-0.45828572 -0.12373715 0.80200005 1.178626533e-38
-0.45409524 -0.12342858 0.80000001 1.050017462e-38
-0.44992 -0.12312 0.79800004 8.935710364e-39
-0.44799998 -0.12342858 0.80000001 6.905652082e-39
-0.44217142 -0.12265715 0.79500002 6.53218362e-39
-0.4330667 -0.12096 0.78400004 7.1793565e-39
-0.42898288 -0.12065144 0.78200006 7.458448911e-39
-0.42600384 -0.12065144 0.78200006 7.916880901e-39
-0.42410669 -0.12096 0.78400004 7.822556699e-39
-0.42112002 -0.12096 0.78400004 6.900622821e-39
-0.41813335 -0.12096 0.78400004 5.789645373e-39
-0.41779429 -0.12173144 0.78900003 4.505342719e-39
-0.41952002 -0.12312 0.79800004 3.033460851e-39
-0.4175238 -0.12342858 0.80000001 2.941616947e-39
-0.41447619 -0.12342858 0.80000001 3.860703386e-39
-0.41142857 -0.12342858 0.80000001 4.411036733e-39
-0.40940192 -0.12373715 0.80200005 4.969926409e-39
-0.40735999 -0.12404571 0.80400002 5.154313465e-39
-0.40630859 -0.12466287 0.80800003 4.785879869e-39
-0.40522668 -0.12528001 0.81200004 4.783392564e-39
-0.4031238 -0.12558857 0.81400001 4.965275499e-39
-0.40346286 -0.12666857 0.82100004 4.780145755e-39
-0.40326095 -0.12759428 0.82700002 4.782684908e-39
-0.40204573 -0.12821144 0.83100003 5.243663057e-39
-0.39888 -0.12821144 0.83100003 5.888324811e-39
-0.39952382 -0.12944573 0.83900005 7.365547027e-39
-0.47328001 -0.12373334 0.81200004 1.124138444e-38
-0.46787047 -0.12312381 0.80800003 1.197320695e-38
-0.46364194 -0.12281905 0.80600005 1.24277069e-38
-0.45942858 -0.12251429 0.80400002 1.16011468e-38
-0.45409524 -0.12190476 0.80000001 1.022466813e-38
-0.45104763 -0.12190476 0.80000001 8.74202289e-39
-0.44912001 -0.12220953 0.80200005 6.259224692e-39
-0.44328383 -0.12144762 0.79700005 5.789265621e-39
-0.43527621 -0.1200762 0.78800005 6.070850942e-39
-0.43008 -0.11946667 0.78400004 5.517356266e-39
-0.42600384 -0.11916191 0.78200006 5.880389258e-39
-0.42410669 -0.11946667 0.78400004 6.06728744e-39
-0.42112002 -0.11946667 0.78400004 5.883982187e-39
-0.41813335 -0.11946667 0.78400004 5.056386524e-39
-0.41885331 -0.12053333 0.79100001 3.955050009e-39
-0.41952002 -0.12160001 0.79800004 2.483514262e-39
-0.4175238 -0.12190476 0.80000001 2.483151326e-39
-0.41447619 -0.12190476 0.80000001 3.861057915e-39
-0.41142857 -0.12190476 0.80000001 4.229505524e-39
-0.40940192 -0.12220953 0.80200005 4.783018417e-39
-0.40837336 -0.12281905 0.80600005 4.877722371e-39
-0.4073143 -0.12342858 0.81000006 4.415666623e-39
-0.40522668 -0.12373334 0.81200004 4.414964573e-39
-0.4031238 -0.1240381 0.81400001 4.781954832e-39
-0.40346286 -0.12510476 0.82100004 4.596829291e-39
-0.40228572 -0.12571429 0.82500005 4.506100821e-39
-0.4010781 -0.12632382 0.82900006 4.876314066e-39
-0.40080002 -0.12723809 0.83500004 5.520961807e-39
-0.39952382 -0.12784763 0.83900005 6.075542489e-39
-0.39632761 -0.12784763 0.83900005 6.906040241e-39
-0.47482669 -0.12218667 0.81200004 1.105842811e-38
-0.46940953 -0.12158477 0.80800003 1.169733753e-38
-0.46633142 -0.12158477 0.80800003 1.279397689e-38
-0.4621067 -0.12128381 0.80600005 1.270426156e-38
-0.45675814 -0.1206819 0.80200005 1.114410349e-38
-0.45370287 -0.1206819 0.80200005 1.058807527e-38
-0.45177144 -0.12098286 0.80400002 9.289461155e-39
-0.44759238 -0.1206819 0.80200005 6.899923573e-39
-0.44786286 -0.12158477 0.80800003 6.893791491e-39
-0.43157333 -0.11797334 0.78400004 5.518052711e-39
-0.42749336 -0.11767238 0.78200006 4.779820654e-39
-0.42451432 -0.11767238 0.78200006 5.976190428e-39
-0.42261335 -0.11797334 0.78400004 5.05818439e-39
-0.42069712 -0.11827429 0.78600001 5.237903721e-39
-0.42142287 -0.11932763 0.79300004 2.850164005e-39
-0.42051241 -0.11992953 0.79700005 3.677738648e-39
-0.41904762 -0.12038095 0.80000001 2.667176846e-39
-0.41600001 -0.12038095 0.80000001 3.952523468e-39
-0.41295239 -0.12038095 0.80000001 3.952541685e-39
-0.41092953 -0.1206819 0.80200005 4.135860951e-39
-0.40889141 -0.12098286 0.80400002 4.780856214e-39
-0.40784764 -0.12158477 0.80800003 4.782289742e-39
-0.40677336 -0.12218667 0.81200004 4.321322803e-39
-0.40467429 -0.12248762 0.81400001 4.597553763e-39
-0.40305334 -0.12293904 0.81700003 4.507867858e-39
-0.40287811 -0.1238419 0.82300001 4.139458084e-39
-0.40168571 -0.12444381 0.82700002 4.323861956e-39
-0.40046287 -0.12504572 0.83100003 4.69335073e-39
-0.40016571 -0.12594858 0.83700001 5.430898953e-39
-0.39792573 -0.12624954 0.83900005 5.891508561e-39
-0.39472955 -0.12624954 0.83900005 6.531129844e-39
-0.39153334 -0.12624954 0.83900005 6.252494256e-39
-0.47211432 -0.12034287 0.81000006 1.160799775e-38
-0.46902859 -0.12034287 0.81000006 1.252279481e-38
-0.4647924 -0.12004571 0.80800003 1.298732525e-38
-0.46057147 -0.11974858 0.80600005 1.224579454e-38
-0.4552305 -0.11915429 0.80200005 1.150895257e-38
-0.45330286 -0.11945143 0.80400002 1.1230558e-38
-0.45136005 -0.11974858 0.80600005 9.920779744e-39
-0.45162666 -0.12064 0.81200004 8.004431227e-39
-0.44853336 -0.12064 0.81200004 6.344933711e-39
-0.44544002 -0.12064 0.81200004 4.781957634e-39
-0.44125718 -0.12034287 0.81000006 4.878110531e-39
-0.43113905 -0.11841144 0.79700005 4.877733582e-39
-0.42702857 -0.11811429 0.79500002 4.413168108e-39
-0.42506671 -0.11841144 0.79700005 3.036340519e-39
-0.42256001 -0.11856001 0.79800004 2.576809911e-39
-0.41952002 -0.11856001 0.79800004 3.862124303e-39
-0.4175238 -0.11885715 0.80000001 4.135478397e-39
-0.41447619 -0.11885715 0.80000001 4.041853442e-39
-0.41142857 -0.11885715 0.80000001 3.858197864e-39
-0.40940192 -0.11915429 0.80200005 4.135867958e-39
-0.40837336 -0.11974858 0.80600005 4.592887439e-39
-0.40832001 -0.12064 0.81200004 4.686495578e-39
-0.40522668 -0.12064 0.81200004 4.504262318e-39
-0.4031238 -0.12093715 0.81400001 4.320598332e-39
-0.40248004 -0.12168001 0.81900007 4.049396632e-39
-0.40228572 -0.12257144 0.82500005 3.957243041e-39
-0.4010781 -0.12316572 0.82900006 4.233090045e-39
-0.40080002 -0.12405715 0.83500004 4.69548771e-39
-0.39952382 -0.12465143 0.83900005 5.246511897e-39
-0.39632761 -0.12465143 0.83900005 5.614927276e-39
-0.39500573 -0.12524572 0.84300005 4.507898687e-39
-0.39272383 -0.12554286 0.84500003 6.258584299e-39
-0.47211432 -0.11880001 0.81000006 1.151615104e-38
-0.46902859 -0.11880001 0.81000006 1.243384179e-38
-0.4647924 -0.11850667 0.80800003 1.289441356e-38
-0.46057147 -0.11821334 0.80600005 1.279826066e-38
-0.45636573 -0.11792 0.80400002 1.233621192e-38
-0.45443052 -0.11821334 0.80600005 1.178693235e-38
-0.45247999 -0.11850667 0.80800003 1.095712404e-38
-0.45162666 -0.11909334 0.81200004 9.387678164e-39
-0.44853336 -0.11909334 0.81200004 7.911551763e-39
-0.44544002 -0.11909334 0.81200004 6.532924907e-39
-0.44125718 -0.11880001 0.81000006 6.534006709e-39
-0.43708956 -0.11850667 0.80800003 6.442160003e-39
-0.42864001 -0.11704 0.79800004 5.425852877e-39
-0.42560002 -0.11704 0.79800004 3.866075964e-39
-0.42256001 -0.11704 0.79800004 3.219308059e-39
-0.42057142 -0.11733334 0.80000001 3.861775379e-39
-0.4175238 -0.11733334 0.80000001 4.319519332e-39
-0.41447619 -0.11733334 0.80000001 5.695608437e-39
-0.41142857 -0.11733334 0.80000001 6.709037295e-39
-0.40940192 -0.11762667 0.80200005 6.620819952e-39
-0.40837336 -0.11821334 0.80600005 6.251674496e-39
-0.4073143 -0.11880001 0.81000006 5.791021448e-39
-0.4042286 -0.11880001 0.81000006 5.239646936e-39
-0.4031238 -0.11938667 0.81400001 4.688639564e-39
-0.40346286 -0.12041334 0.82100004 4.23127116e-39
-0.40326095 -0.12129334 0.82700002 4.141635702e-39
-0.4010781 -0.12158667 0.82900006 3.957931079e-39
-0.40080002 -0.12246668 0.83500004 4.049758167e-39
-0.39857143 -0.12275999 0.83700001 4.691557068e-39
-0.39727238 -0.12334667 0.84100002 5.059253581e-39
-0.39594287 -0.12393334 0.84500003 4.322808179e-39
-0.39411813 -0.12437334 0.84800005 5.885041568e-39
-0.47248763 -0.11696762 0.80800003 1.115061533e-38
-0.47057146 -0.11725715 0.81000006 1.197463488e-38
-0.46633142 -0.11696762 0.80800003 1.280294941e-38
-0.46325335 -0.11696762 0.80800003 1.298444979e-38
-0.45789716 -0.11638857 0.80400002 1.399032985e-38
-0.45596576 -0.1166781 0.80600005 1.252309329e-38
-0.45401907 -0.11696762 0.80800003 1.234153405e-38
-0.45317337 -0.11754667 0.81200004 1.150925805e-38
-0.45118859 -0.11783619 0.81400001 1.021316768e-38
-0.44698668 -0.11754667 0.81200004 8.924963806e-39
-0.44280002 -0.11725715 0.81000006 7.729661821e-39
-0.43862858 -0.11696762 0.80800003 8.649078967e-39
-0.43447241 -0.1166781 0.80600005 7.53986155e-39
-0.42819047 -0.11580952 0.80000001 5.516958297e-39
-0.42514285 -0.11580952 0.80000001 4.049043505e-39
-0.42104 -0.11552 0.79800004 3.863227125e-39
-0.41904762 -0.11580952 0.80000001 4.136588225e-39
-0.41600001 -0.11580952 0.80000001 5.063929714e-39
-0.41295239 -0.11580952 0.80000001 9.666458086e-39
-0.41092953 -0.11609905 0.80200005 9.666093748e-39
-0.40889141 -0.11638857 0.80400002 8.563337718e-39
-0.40784764 -0.11696762 0.80800003 7.36837765e-39
-0.40577146 -0.11725715 0.81000006 6.535029657e-39
-0.40368 -0.11754667 0.81200004 5.425830456e-39
-0.40305334 -0.11827048 0.81700003 4.596090807e-39
-0.40385714 -0.11942858 0.82500005 4.229490109e-39
-0.40265718 -0.12000763 0.82900006 4.323485007e-39
-0.40046287 -0.12029715 0.83100003 3.038485907e-39
-0.39920953 -0.12087619 0.83500004 4.045814913e-39
-0.39792573 -0.12145524 0.83900005 4.322044472e-39
-0.39567047 -0.12174476 0.84100002 4.780154163e-39
-0.39573336 -0.12275811 0.84800005 3.584860586e-39
-0.39250287 -0.12275811 0.84800005 7.64288221e-39
-0.47211432 -0.11571429 0.81000006 1.151652799e-38
-0.46787047 -0.11542857 0.80800003 1.225014137e-38
-0.4647924 -0.11542857 0.80800003 1.270823004e-38
-0.46057147 -0.11514287 0.80600005 1.298337359e-38
-0.45750099 -0.11514287 0.80600005 1.279826206e-38
-0.45668575 -0.11571429 0.81000006 1.224902453e-38
-0.45360002 -0.11571429 0.81000006 1.169798773e-38
-0.45273906 -0.11628571 0.81400001 1.06813485e-38
-0.4496381 -0.11628571 0.81400001 9.574265259e-39
-0.44544002 -0.116 0.81200004 8.561221757e-39
-0.44125718 -0.11571429 0.81000006 8.283173314e-39
-0.43708956 -0.11542857 0.80800003 8.375349325e-39
-0.43186286 -0.11485714 0.80400002 7.737146157e-39
-0.42666668 -0.11428571 0.80000001 6.996721067e-39
-0.42361906 -0.11428571 0.80000001 6.803421753e-39
-0.42057142 -0.11428571 0.80000001 6.620435996e-39
-0.4175238 -0.11428571 0.80000001 7.27018166e-39
-0.41447619 -0.11428571 0.80000001 9.20948765e-39
-0.41245717 -0.11457143 0.80200005 1.031147857e-38
-0.41042286 -0.11485714 0.80400002 9.112924173e-39
-0.40837336 -0.11514287 0.80600005 7.644234463e-39
-0.4073143 -0.11571429 0.81000006 6.9063191e-39
-0.40522668 -0.116 0.81200004 6.443911626e-39
-0.40361905 -0.11642858 0.81500006 6.165176546e-39
-0.40149716 -0.11671428 0.81700003 5.609871392e-39
-0.40228572 -0.11785715 0.82500005 4.964534212e-39
-0.4010781 -0.11842857 0.82900006 4.323828325e-39
-0.40080002 -0.11928572 0.83500004 4.046504352e-39
-0.39857143 -0.11957143 0.83700001 4.230570511e-39
-0.39727238 -0.12014285 0.84100002 4.415638597e-39
-0.39594287 -0.12071429 0.84500003 4.322414414e-39
-0.39411813 -0.12114286 0.84800005 5.51123119e-39
-0.39088765 -0.12114286 0.84800005 9.777020535e-39
-0.47328001 -0.11445334 0.81200004 1.151652519e-38
-0.46787047 -0.11388953 0.80800003 1.215829746e-38
-0.4647924 -0.11388953 0.80800003 1.252455905e-38
-0.4617143 -0.11388953 0.80800003 1.252383598e-38
-0.45750099 -0.11360763 0.80600005 1.243309629e-38
-0.45668575 -0.11417144 0.81000006 1.215755898e-38
-0.45360002 -0.11417144 0.81000006 1.160294046e-38
-0.45273906 -0.11473524 0.81400001 1.058951721e-38
-0.4496381 -0.11473524 0.81400001 9.577150532e-39
-0.44544002 -0.11445334 0.81200004 8.745611616e-39
-0.44125718 -0.11417144 0.81000006 8.371418683e-39
-0.43708956 -0.11388953 0.80800003 8.652648074e-39
-0.43293718 -0.11360763 0.80600005 9.01998025e-39
-0.42773336 -0.11304381 0.80200005 9.298014681e-39
-0.42361906 -0.11276191 0.80000001 9.663941354e-39
-0.42057142 -0.11276191 0.80000001 9.389895019e-39
-0.4175238 -0.11276191 0.80000001 1.003170653e-38
-0.41447619 -0.11276191 0.80000001 1.11416218e-38
-0.41245717 -0.11304381 0.80200005 1.10468772e-38
-0.41042286 -0.11332572 0.80400002 9.112939587e-39
-0.40837336 -0.11360763 0.80600005 7.366952529e-39
-0.4073143 -0.11417144 0.81000006 6.905603036e-39
-0.4042286 -0.11417144 0.81000006 6.905270928e-39
-0.40361905 -0.1148762 0.81500006 7.361563136e-39
-0.40149716 -0.1151581 0.81700003 6.814873164e-39
-0.40131047 -0.11600381 0.82300001 5.610619685e-39
-0.4010781 -0.11684953 0.82900006 4.966686607e-39
-0.40080002 -0.11769524 0.83500004 4.600405405e-39
-0.39857143 -0.11797714 0.83700001 4.41676384e-39
-0.39727238 -0.11854095 0.84100002 4.325245037e-39
-0.39594287 -0.11910477 0.84500003 4.508596534e-39
-0.39411813 -0.11952762 0.84800005 5.419409707e-39
-0.38950476 -0.11910477 0.84500003 9.503318919e-39
-0.47328001 -0.11290666 0.81200004 1.151616505e-38
-0.46671242 -0.11207239 0.80600005 1.224797356e-38
-0.4647924 -0.11235048 0.80800003 1.261567848e-38
-0.4617143 -0.11235048 0.80800003 1.243271654e-38
-0.45750099 -0.11207239 0.80600005 1.215761363e-38
-0.45555812 -0.11235048 0.80800003 1.178915341e-38
-0.45360002 -0.11262858 0.81000006 1.123453909e-38
-0.45273906 -0.11318476 0.81400001 1.031186253e-38
-0.4496381 -0.11318476 0.81400001 9.392060025e-39
-0.44544002 -0.11290666 0.81200004 8.654494986e-39
-0.44125718 -0.11262858 0.81000006 8.096268124e-39
-0.43708956 -0.11235048 0.80800003 8.738383718e-39
-0.43293718 -0.11207239 0.80600005 1.021062152e-38
-0.42773336 -0.1115162 0.80200005 1.104506813e-38
-0.42467812 -0.1115162 0.80200005 1.095464794e-38
-0.42057142 -0.1112381 0.80000001 1.058344398e-38
-0.4175238 -0.1112381 0.80000001 1.095365162e-38
-0.41447619 -0.1112381 0.80000001 1.141569476e-38
-0.41142857 -0.1112381 0.80000001 1.104938553e-38
-0.41042286 -0.11179429 0.80400002 9.019327245e-39
-0.40837336 -0.11207239 0.80600005 7.180429895e-39
-0.40630859 -0.11235048 0.80800003 6.720857248e-39
-0.4042286 -0.11262858 0.81000006 6.536883575e-39
-0.40361905 -0.11332382 0.81500006 6.9027584e-39
-0.4005143 -0.11332382 0.81500006 6.624407276e-39
-0.40033525 -0.1141581 0.82100004 6.070165707e-39
-0.40011048 -0.11499239 0.82700002 5.517710794e-39
-0.40080002 -0.11610477 0.83500004 4.875572779e-39
-0.39857143 -0.11638286 0.83700001 4.691924208e-39
-0.39821717 -0.11721715 0.84300005 4.506054578e-39
-0.39594287 -0.11749524 0.84500003 3.954354965e-39
-0.39411813 -0.11791239 0.84800005 5.235395396e-39
-0.38950476 -0.11749524 0.84500003 9.685567593e-39
-0.47328001 -0.11136001 0.81200004 1.160763761e-38
-0.46671242 -0.11053715 0.80600005 1.234087124e-38
-0.4647924 -0.11081143 0.80800003 1.26149442e-38
-0.4617143 -0.11081143 0.80800003 1.224899651e-38
-0.45863619 -0.11081143 0.80800003 1.197248108e-38
-0.45555812 -0.11081143 0.80800003 1.151292665e-38
-0.45360002 -0.11108572 0.81000006 1.0957948e-38
-0.45162666 -0.11136001 0.81200004 1.012639367e-38
-0.44853336 -0.11136001 0.81200004 9.206954103e-39
-0.44544002 -0.11136001 0.81200004 8.56338256e-39
-0.44125718 -0.11108572 0.81000006 7.821460884e-39
-0.43708956 -0.11081143 0.80800003 8.734809006e-39
-0.43293718 -0.11053715 0.80600005 1.150889512e-38
-0.42773336 -0.10998858 0.80200005 1.280248978e-38
-0.42361906 -0.10971429 0.80000001 1.23365104e-38
-0.42057142 -0.10971429 0.80000001 1.178518353e-38
-0.4175238 -0.10971429 0.80000001 1.19674252e-38
-0.41447619 -0.10971429 0.80000001 1.169661026e-38
-0.41245717 -0.10998858 0.80200005 1.105190506e-38
-0.41042286 -0.11026286 0.80400002 9.017543392e-39
-0.40837336 -0.11053715 0.80600005 7.088248278e-39
-0.40530288 -0.11053715 0.80600005 6.625072893e-39
-0.40323049 -0.11081143 0.80800003 6.259926743e-39
-0.40361905 -0.11177143 0.81500006 6.535783556e-39
-0.4005143 -0.11177143 0.81500006 6.349978386e-39
-0.39740956 -0.11177143 0.81500006 6.437860819e-39
-0.40011048 -0.11341715 0.82700002 6.160538248e-39
-0.40080002 -0.11451429 0.83500004 5.242925974e-39
-0.39761907 -0.11451429 0.83500004 5.057116601e-39
-0.39821717 -0.11561143 0.84300005 4.688282233e-39
-0.39594287 -0.11588572 0.84500003 3.311125339e-39
-0.39411813 -0.11629715 0.84800005 4.959902921e-39
-0.46671242 -0.10900191 0.80600005 1.215539257e-38
-0.4647924 -0.10927239 0.80800003 1.243089766e-38
-0.4617143 -0.10927239 0.80800003 1.206240801e-38
-0.45863619 -0.10927239 0.80800003 1.178591361e-38
-0.45668575 -0.10954287 0.81000006 1.123311397e-38
-0.45472002 -0.10981334 0.81200004 1.058665155e-38
-0.45162666 -0.10981334 0.81200004 9.849808181e-39
-0.44853336 -0.10981334 0.81200004 9.02149085e-39
-0.44544002 -0.10981334 0.81200004 8.008787864e-39
-0.44125718 -0.10954287 0.81000006 7.452308422e-39
-0.43708956 -0.10927239 0.80800003 9.480627693e-39
-0.43293718 -0.10900191 0.80600005 1.206710376e-38
-0.42773336 -0.10846096 0.80200005 1.270992981e-38
-0.42361906 -0.10819048 0.80000001 1.243016618e-38
-0.42057142 -0.10819048 0.80000001 1.187843994e-38
-0.4175238 -0.10819048 0.80000001 1.178410873e-38
-0.41447619 -0.10819048 0.80000001 1.15108163e-38
-0.41245717 -0.10846096 0.80200005 1.040727274e-38
-0.40940192 -0.10846096 0.80200005 8.650212618e-39
-0.40735999 -0.10873143 0.80400002 7.178304125e-39
-0.40530288 -0.10900191 0.80600005 6.534312192e-39
-0.40323049 -0.10927239 0.80800003 5.98440484e-39
-0.40361905 -0.11021905 0.81500006 5.984061522e-39
-0.4005143 -0.11021905 0.81500006 5.704261455e-39
-0.39838478 -0.11048953 0.81700003 5.518424055e-39
-0.40011048 -0.11184191 0.82700002 5.333999164e-39
-0.39984003 -0.11265334 0.83300006 4.784118436e-39
-0.39761907 -0.11292382 0.83500004 5.059273199e-39
-0.39727238 -0.11373524 0.84100002 5.332199897e-39
-0.39734861 -0.11468191 0.84800005 4.228383084e-39
-0.39504763 -0.11495239 0.85000002 6.626587696e-39
-0.4647924 -0.10773333 0.80800003 1.215541639e-38
-0.4617143 -0.10773333 0.80800003 1.188021258e-38
-0.45863619 -0.10773333 0.80800003 1.160188949e-38
-0.45781335 -0.10826667 0.81200004 1.104835697e-38
-0.45472002 -0.10826667 0.81200004 1.031257999e-38
-0.45162666 -0.10826667 0.81200004 9.665416921e-39
-0.4496381 -0.10853333 0.81400001 8.836021991e-39
-0.44544002 -0.10826667 0.81200004 7.5463916e-39
-0.44125718 -0.10800001 0.81000006 7.175389424e-39
-0.43708956 -0.10773333 0.80800003 1.013463471e-38
-0.43293718 -0.10746667 0.80600005 1.26228223e-38
-0.42880002 -0.1072 0.80400002 1.270781385e-38
-0.42361906 -0.10666667 0.80000001 1.252383457e-38
-0.42057142 -0.10666667 0.80000001 1.19709943e-38
-0.4175238 -0.10666667 0.80000001 1.1601151e-38
-0.41447619 -0.10666667 0.80000001 1.123383004e-38
-0.41245717 -0.10693334 0.80200005 9.84872778e-39
-0.40940192 -0.10693334 0.80200005 8.28286783e-39
-0.40735999 -0.1072 0.80400002 7.362693983e-39
-0.40429717 -0.1072 0.80400002 6.443561301e-39
-0.40323049 -0.10773333 0.80800003 5.709978753e-39
-0.4031238 -0.10853333 0.81400001 5.431263291e-39
-0.4005143 -0.10866667 0.81500006 5.150403842e-39
-0.39740956 -0.10866667 0.81500006 4.596135649e-39
-0.39817524 -0.10973334 0.82300001 4.507496514e-39
-0.39888 -0.11080001 0.83100003 4.419280572e-39
-0.39761907 -0.11133334 0.83500004 5.062164078e-39
-0.39727238 -0.11213334 0.84100002 5.977572109e-39
-0.39594287 -0.11266667 0.84500003 5.058488472e-39
-0.39597717 -0.11360001 0.85200006 8.201445383e-39
-0.46748576 -0.10645715 0.81000006 1.187704985e-38
-0.46440002 -0.10645715 0.81000006 1.169373339e-38
-0.46131432 -0.10645715 0.81000006 1.123023851e-38
-0.46049142 -0.10698286 0.81400001 1.104835838e-38
-0.45626667 -0.10672001 0.81200004 1.049661392e-38
-0.45428953 -0.10698286 0.81400001 9.848733385e-39
-0.45118859 -0.10698286 0.81400001 9.019692984e-39
-0.44808763 -0.10698286 0.81400001 8.283583894e-39
-0.44389334 -0.10672001 0.81200004 6.899936185e-39
-0.43862858 -0.10619429 0.80800003 8.37361732e-39
-0.43447241 -0.10593143 0.80600005 1.252348425e-38
-0.43033144 -0.10566857 0.80400002 1.261459668e-38
-0.42514285 -0.10514285 0.80000001 1.344220215e-38
-0.42209524 -0.10514285 0.80000001 1.27078685e-38
-0.42009526 -0.10540573 0.80200005 1.178517512e-38
-0.41600001 -0.10514285 0.80000001 1.141603107e-38
-0.41398478 -0.10540573 0.80200005 1.095326066e-38
-0.41092953 -0.10540573 0.80200005 9.294130282e-39
-0.40889141 -0.10566857 0.80400002 8.005913801e-39
-0.40683812 -0.10593143 0.80600005 6.902773814e-39
-0.40376765 -0.10593143 0.80600005 5.705668358e-39
-0.40268573 -0.10645715 0.81000006 5.155754e-39
-0.40206671 -0.10711429 0.81500006 4.965300723e-39
-0.39896193 -0.10711429 0.81500006 4.503614918e-39
-0.39682859 -0.10737714 0.81700003 3.678496751e-39
-0.39853525 -0.10869142 0.82700002 4.694417118e-39
-0.39825338 -0.10948001 0.83300006 4.602616654e-39
-0.39697716 -0.11000571 0.83700001 5.983367879e-39
-0.39567047 -0.11053143 0.84100002 6.258818316e-39
-0.39760002 -0.11197715 0.85200006 4.969584492e-39
-0.47619432 -0.10582096 0.81700003 1.105339885e-38
-0.47134477 -0.10543238 0.81400001 1.132494667e-38
-0.46594289 -0.10491429 0.81000006 1.141500251e-38
-0.46514285 -0.10543238 0.81400001 1.10487101e-38
-0.46204191 -0.10543238 0.81400001 1.068103881e-38
-0.45894095 -0.10543238 0.81400001 1.049732718e-38
-0.45584002 -0.10543238 0.81400001 9.942715671e-39
-0.45273906 -0.10543238 0.81400001 9.204796103e-39
-0.4496381 -0.10543238 0.81400001 8.373582288e-39
-0.44653714 -0.10543238 0.81400001 7.637501224e-39
-0.44125718 -0.10491429 0.81000006 8.095567475e-39
-0.43600765 -0.10439619 0.80600005 1.077788815e-38
-0.43186286 -0.10413714 0.80400002 1.252240805e-38
-0.42773336 -0.1038781 0.80200005 1.335034563e-38
-0.42361906 -0.10361905 0.80000001 1.362588435e-38
-0.4216229 -0.1038781 0.80200005 1.252164575e-38
-0.4175238 -0.10361905 0.80000001 1.160113839e-38
-0.41447619 -0.10361905 0.80000001 1.113872251e-38
-0.41245717 -0.1038781 0.80200005 1.039973515e-38
-0.40940192 -0.1038781 0.80200005 9.016107061e-39
-0.40837336 -0.10439619 0.80600005 7.539197334e-39
-0.40530288 -0.10439619 0.80600005 6.257038667e-39
-0.40323049 -0.10465524 0.80800003 5.154673598e-39
-0.40213335 -0.10517334 0.81200004 4.693343723e-39
-0.4005143 -0.10556191 0.81500006 4.320627759e-39
-0.39740956 -0.10556191 0.81500006 3.585945191e-39
-0.39914289 -0.10685714 0.82500005 3.864655048e-39
-0.39792004 -0.10737525 0.82900006 4.87736504e-39
-0.39666671 -0.10789334 0.83300006 5.522772284e-39
-0.39632761 -0.10867048 0.83900005 6.259193864e-39
-0.39500573 -0.10918858 0.84300005 6.164460482e-39
-0.39504763 -0.11009524 0.85000002 9.130214795e-39
-0.47775051 -0.10426477 0.81700003 1.087082647e-38
-0.4746381 -0.10426477 0.81700003 1.040660151e-38
-0.46979427 -0.10388191 0.81400001 1.159901963e-38
-0.46669334 -0.10388191 0.81400001 1.132350333e-38
-0.46359238 -0.10388191 0.81400001 1.06810276e-38
-0.46049142 -0.10388191 0.81400001 1.040694904e-38
-0.45795241 -0.10400953 0.81500006 1.003634203e-38
-0.45428953 -0.10388191 0.81400001 9.388462892e-39
-0.45118859 -0.10388191 0.81400001 8.649444706e-39
-0.44863814 -0.10400953 0.81500006 8.37465288e-39
-0.44389334 -0.10362667 0.81200004 7.915495017e-39
-0.43862858 -0.10311619 0.80800003 8.923926845e-39
-0.43447241 -0.10286096 0.80600005 1.215506327e-38
-0.43033144 -0.10260572 0.80400002 1.215613105e-38
-0.42620572 -0.10235048 0.80200005 1.307377416e-38
-0.42209524 -0.10209524 0.80000001 1.224759381e-38
-0.42009526 -0.10235048 0.80200005 1.141782052e-38
-0.41600001 -0.10209524 0.80000001 1.040224628e-38
-0.41398478 -0.10235048 0.80200005 1.067631363e-38
-0.41092953 -0.10235048 0.80200005 1.039649955e-38
-0.40990859 -0.10286096 0.80600005 8.554412848e-39
-0.40683812 -0.10286096 0.80600005 7.447345022e-39
-0.40376765 -0.10286096 0.80600005 5.70353278e-39
-0.40169144 -0.10311619 0.80800003 4.691187125e-39
-0.40157333 -0.10388191 0.81400001 4.136918932e-39
-0.39896193 -0.10400953 0.81500006 4.136207072e-39
-0.39780003 -0.10452001 0.81900007 3.404044039e-39
-0.39853525 -0.10554095 0.82700002 4.414586222e-39
-0.39729714 -0.10605143 0.83100003 4.508593731e-39
-0.39508003 -0.10630667 0.83300006 5.519504456e-39
-0.39472955 -0.10707238 0.83900005 5.798928975e-39
-0.39433333 -0.10783809 0.84500003 4.606178755e-39
-0.39342856 -0.10847619 0.85000002 1.143293353e-38
-0.47619432 -0.10270857 0.81700003 1.022578076e-38
-0.47192383 -0.10245715 0.81500006 1.0681022e-38
-0.46824381 -0.10233142 0.81400001 1.150538206e-38
-0.46571431 -0.10245715 0.81500006 1.095543687e-38
-0.46260953 -0.10245715 0.81500006 1.040552392e-38
-0.45950478 -0.10245715 0.81500006 9.942362543e-39
-0.45640004 -0.10245715 0.81500006 9.479579522e-39
-0.45273906 -0.10233142 0.81400001 8.924621889e-39
-0.45019051 -0.10245715 0.81500006 8.651594298e-39
-0.44818285 -0.10270857 0.81700003 8.651266394e-39
-0.44125718 -0.10182858 0.81000006 8.739164242e-39
-0.43600765 -0.10132572 0.80600005 1.040945596e-38
-0.43293718 -0.10132572 0.80600005 1.178662687e-38
-0.42880002 -0.10107429 0.80400002 1.187625952e-38
-0.42361906 -0.10057142 0.80000001 1.168726219e-38
-0.42057142 -0.10057142 0.80000001 1.122696367e-38
-0.4175238 -0.10057142 0.80000001 1.030254109e-38
-0.41447619 -0.10057142 0.80000001 1.003169952e-38
-0.41348571 -0.10107429 0.80400002 1.076634706e-38
-0.40940192 -0.10082286 0.80200005 1.00309148e-38
-0.40735999 -0.10107429 0.80400002 8.460038199e-39
-0.40530288 -0.10132572 0.80600005 6.892014645e-39
-0.40223241 -0.10132572 0.80600005 5.146425556e-39
-0.40213335 -0.10208 0.81200004 4.135149092e-39
-0.4005143 -0.10245715 0.81500006 3.952178749e-39
-0.39936003 -0.10296001 0.81900007 3.952550093e-39
-0.39817524 -0.10346286 0.82300001 3.954691277e-39
-0.39792004 -0.10421715 0.82900006 3.953969608e-39
-0.39666671 -0.10472 0.83300006 4.414256917e-39
-0.39538285 -0.10522286 0.83700001 5.062833898e-39
-0.39313143 -0.10547429 0.83900005 4.233078835e-39
-0.39179432 -0.10597715 0.84300005 6.909990502e-39
-0.47619432 -0.10115238 0.81700003 1.050126063e-38
-0.47192383 -0.10090476 0.81500006 1.086540765e-38
-0.46824381 -0.10078095 0.81400001 1.12302301e-38
-0.46571431 -0.10090476 0.81500006 1.086180631e-38
-0.46260953 -0.10090476 0.81500006 1.040407077e-38
-0.45950478 -0.10090476 0.81500006 9.943797473e-39
-0.45640004 -0.10090476 0.81500006 9.847280239e-39
-0.45329526 -0.10090476 0.81500006 9.480299789e-39
-0.45129526 -0.10115238 0.81700003 9.021115302e-39
-0.44928005 -0.10140001 0.81900007 9.01933285e-39
-0.44125718 -0.10028572 0.81000006 9.109401309e-39
-0.43600765 -0.099790484 0.80600005 1.003850563e-38
-0.43293718 -0.099790484 0.80600005 1.114089732e-38
-0.42880002 -0.099542864 0.80400002 1.150813982e-38
-0.42467812 -0.099295244 0.80200005 1.159541128e-38
-0.4216229 -0.099295244 0.80200005 1.159070572e-38
-0.4175238 -0.099047616 0.80000001 1.150036962e-38
-0.41447619 -0.099047616 0.80000001 1.159615537e-38
-0.41245717 -0.099295244 0.80200005 1.196917121e-38
-0.40838096 -0.099047616 0.80000001 1.150849715e-38
-0.40735999 -0.099542864 0.80400002 9.480242336e-39
-0.40429717 -0.099542864 0.80400002 7.36088771e-39
-0.40223241 -0.099790484 0.80600005 6.067288841e-39
-0.4011429 -0.10028572 0.81000006 4.962035697e-39
-0.4005143 -0.10090476 0.81500006 4.136232295e-39
-0.39936003 -0.10140001 0.81900007 3.86070759e-39
-0.39914289 -0.10214286 0.82500005 3.95325915e-39
-0.39792004 -0.1026381 0.82900006 4.136916129e-39
-0.39666671 -0.10313334 0.83300006 4.505369343e-39
-0.39538285 -0.10362858 0.83700001 4.7815975e-39
-0.39313143 -0.1038762 0.83900005 3.864332749e-39
-0.39179432 -0.10437143 0.84300005 6.629087613e-39
-0.47619432 -0.099596195 0.81700003 1.086897816e-38
-0.47192383 -0.09935239 0.81500006 1.095832775e-38
-0.46824381 -0.099230476 0.81400001 1.105408969e-38
-0.46571431 -0.09935239 0.81500006 1.085892384e-38
-0.46260953 -0.09935239 0.81500006 1.049483707e-38
-0.45950478 -0.09935239 0.81500006 1.003707771e-38
-0.45752001 -0.099596195 0.81700003 1.031042059e-38
-0.45329526 -0.09935239 0.81500006 1.012674399e-38
-0.45129526 -0.099596195 0.81700003 9.481375986e-39
-0.44928005 -0.099840008 0.81900007 9.3873923e-39
-0.44343618 -0.099230476 0.81400001 9.477088013e-39
-0.43600765 -0.098255247 0.80600005 9.759400608e-39
-0.43293718 -0.098255247 0.80600005 1.058881095e-38
-0.42880002 -0.098011427 0.80400002 1.113475683e-38
-0.42467812 -0.097767621 0.80200005 1.151253289e-38
-0.42057142 -0.097523808 0.80000001 1.197311867e-38
-0.4175238 -0.097523808 0.80000001 1.279967457e-38
-0.41447619 -0.097523808 0.80000001 1.326247021e-38
-0.41142857 -0.097523808 0.80000001 1.326169669e-38
-0.40838096 -0.097523808 0.80000001 1.307552158e-38
-0.40634668 -0.097767621 0.80200005 1.058730175e-38
-0.40429717 -0.098011427 0.80400002 7.914778954e-39
-0.40223241 -0.098255247 0.80600005 7.001813386e-39
-0.4011429 -0.098742865 0.81000006 5.697075596e-39
-0.4005143 -0.09935239 0.81500006 4.409589192e-39
-0.39936003 -0.099840008 0.81900007 3.768858081e-39
-0.39914289 -0.10057143 0.82500005 3.953629092e-39
-0.39792004 -0.10105906 0.82900006 4.320221382e-39
-0.39666671 -0.10154667 0.83300006 4.505003604e-39
-0.39538285 -0.10203429 0.83700001 4.504637865e-39
-0.39406857 -0.1025219 0.84100002 3.587716432e-39
-0.39272383 -0.10300953 0.84500003 6.256699552e-39
-0.47775051 -0.09804 0.81700003 1.105948609e-38
-0.4746381 -0.09804 0.81700003 1.05913445e-38
-0.47152573 -0.09804 0.81700003 1.086540905e-38
-0.46726671 -0.097800009 0.81500006 1.094968314e-38
-0.46416193 -0.097800009 0.81500006 1.132062366e-38
-0.46105719 -0.097800009 0.81500006 1.031116608e-38
-0.45907623 -0.09804 0.81700003 9.946326817e-39
-0.45708004 -0.098280005 0.81900007 1.022002983e-38
-0.45174289 -0.097800009 0.81500006 9.024003378e-39
-0.45084006 -0.098280005 0.81900007 9.481740324e-39
-0.44662666 -0.09804 0.81700003 1.021606276e-38
-0.44080001 -0.097440004 0.81200004 9.573928947e-39
-0.43555048 -0.096960008 0.80800003 9.573225495e-39
-0.43140191 -0.096720003 0.80600005 1.140780404e-38
-0.42514285 -0.096000001 0.80000001 1.270568388e-38
-0.42315048 -0.096239999 0.80200005 1.2987265e-38
-0.41904762 -0.096000001 0.80000001 1.261812795e-38
-0.41600001 -0.096000001 0.80000001 1.316809836e-38
-0.41295239 -0.096000001 0.80000001 1.334926383e-38
-0.40990475 -0.096000001 0.80000001 1.32635408e-38
-0.40685716 -0.096000001 0.80000001 1.206355848e-38
-0.40481907 -0.096239999 0.80200005 8.107769982e-39
-0.40376765 -0.096720003 0.80600005 7.362352067e-39
-0.40169144 -0.096960008 0.80800003 6.723792968e-39
-0.3996 -0.097200006 0.81000006 6.248450108e-39
-0.39896193 -0.097800009 0.81500006 4.597901285e-39
-0.39877144 -0.098520003 0.82100004 3.220724772e-39
-0.39949906 -0.099480011 0.82900006 4.044015646e-39
-0.39729714 -0.099720001 0.83100003 3.863207506e-39
-0.39602858 -0.1002 0.83500004 4.596106221e-39
-0.39472955 -0.10068 0.83900005 4.140139115e-39
-0.39340004 -0.10116 0.84300005 3.126006805e-39
-0.39111429 -0.1014 0.84500003 9.951336459e-39
-0.4746381 -0.096483812 0.81700003 1.040336171e-38
-0.47037145 -0.096247621 0.81500006 1.058631524e-38
-0.46726671 -0.096247621 0.81500006 1.09536362e-38
-0.46416193 -0.096247621 0.81500006 1.187306736e-38
-0.46218857 -0.096483812 0.81700003 1.040514557e-38
-0.45907623 -0.096483812 0.81700003 9.945613556e-39
-0.45708004 -0.096720003 0.81900007 9.66866373e-39
-0.45285144 -0.096483812 0.81700003 8.564827298e-39
-0.45084006 -0.096720003 0.81900007 9.666844844e-39
-0.44662666 -0.096483812 0.81700003 1.095432985e-38
-0.44080001 -0.095893338 0.81200004 9.666123176e-39
-0.43662858 -0.095657155 0.81000006 9.111535486e-39
-0.43033144 -0.094948567 0.80400002 1.178267801e-38
-0.42514285 -0.094476193 0.80000001 1.418188175e-38
-0.42209524 -0.094476193 0.80000001 1.417970973e-38
-0.41904762 -0.094476193 0.80000001 1.307729982e-38
-0.41600001 -0.094476193 0.80000001 1.298297562e-38
-0.41295239 -0.094476193 0.80000001 1.353293762e-38
-0.40990475 -0.094476193 0.80000001 1.316595858e-38
-0.40685716 -0.094476193 0.80000001 1.142106453e-38
-0.4058286 -0.094948567 0.80400002 7.829402042e-39
-0.40376765 -0.095184766 0.80600005 7.267271163e-39
-0.40169144 -0.095420949 0.80800003 7.086813348e-39
-0.3996 -0.095657155 0.81000006 7.446264621e-39
-0.39847237 -0.096129529 0.81400001 5.426943087e-39
-0.39877144 -0.096956201 0.82100004 2.670066324e-39
-0.39853525 -0.097664766 0.82700002 4.044733111e-39
-0.39825338 -0.098373339 0.83300006 3.219652779e-39
-0.39602858 -0.098609529 0.83500004 4.597549559e-39
-0.39472955 -0.099081904 0.83900005 3.86465785e-39
-0.39246666 -0.099318095 0.84100002 3.492300619e-39
-0.3901886 -0.099554293 0.84300005 1.004569289e-38
-0.4746381 -0.094927624 0.81700003 1.003170793e-38
-0.47152573 -0.094927624 0.81700003 1.003494493e-38
-0.46726671 -0.094695248 0.81500006 1.040514276e-38
-0.46416193 -0.094695248 0.81500006 1.095614313e-38
-0.46105719 -0.094695248 0.81500006 9.942372352e-39
-0.45795241 -0.094695248 0.81500006 9.761230704e-39
-0.45708004 -0.095160007 0.81900007 9.575398909e-39
-0.45285144 -0.094927624 0.81700003 9.299871401e-39
-0.45084006 -0.095160007 0.81900007 9.946656122e-39
-0.44772005 -0.095160007 0.81900007 1.040618112e-38
-0.44242859 -0.094695248 0.81500006 8.748485679e-39
-0.43555048 -0.093881905 0.80800003 9.287314366e-39
-0.43140191 -0.093649529 0.80600005 1.234122296e-38
-0.42514285 -0.092952378 0.80000001 1.372092602e-38
-0.42209524 -0.092952378 0.80000001 1.381095104e-38
-0.41800001 -0.092720002 0.79800004 1.298581886e-38
-0.41496 -0.092720002 0.79800004 1.279821162e-38
-0.41192001 -0.092720002 0.79800004 1.298085125e-38
-0.40888 -0.092720002 0.79800004 1.261314493e-38
-0.40685716 -0.092952378 0.80000001 1.096224158e-38
-0.40481907 -0.093184769 0.80200005 7.275886346e-39
-0.40276572 -0.093417145 0.80400002 6.71337011e-39
-0.40169144 -0.093881905 0.80800003 6.350679035e-39
-0.3996 -0.094114289 0.81000006 6.531864124e-39
-0.39847237 -0.094579048 0.81400001 5.24687063e-39
-0.39780003 -0.095160007 0.81900007 3.680968641e-39
-0.39853525 -0.096089527 0.82700002 4.873763703e-39
-0.39825338 -0.09678667 0.83300006 4.596477566e-39
-0.39602858 -0.097019047 0.83500004 5.425513763e-39
-0.39472955 -0.097483814 0.83900005 4.691202539e-39
-0.39340004 -0.097948581 0.84300005 4.409607409e-39
-0.3901886 -0.097948581 0.84300005 1.078289639e-38
-0.4746381 -0.093371429 0.81700003 9.761201277e-39
-0.47037145 -0.09314286 0.81500006 9.481771152e-39
-0.46726671 -0.09314286 0.81500006 9.851257124e-39
-0.46530095 -0.093371429 0.81700003 1.00305953e-38
-0.46218857 -0.093371429 0.81700003 9.573933151e-39
-0.45907623 -0.093371429 0.81700003 9.665058189e-39
-0.45708004 -0.093600005 0.81900007 9.572498221e-39
-0.45285144 -0.093371429 0.81700003 1.003241138e-38
-0.45084006 -0.093600005 0.81900007 1.022217242e-38
-0.44772005 -0.093600005 0.81900007 9.852306696e-39
-0.44351432 -0.093371429 0.81700003 7.82438119e-39
-0.43555048 -0.092342861 0.80800003 9.568910897e-39
-0.43033144 -0.091885716 0.80400002 1.289260588e-38
-0.42620572 -0.091657147 0.80200005 1.326176115e-38
-0.42209524 -0.09142857 0.80000001 1.353546557e-38
-0.41800001 -0.091200002 0.79800004 1.2891873e-38
-0.41496 -0.091200002 0.79800004 1.261565045e-38
-0.41192001 -0.091200002 0.79800004 1.242911941e-38
-0.40888 -0.091200002 0.79800004 1.215396465e-38
-0.40584001 -0.091200002 0.79800004 1.050233963e-38
-0.40380952 -0.09142857 0.80000001 6.813110331e-39
-0.40276572 -0.091885716 0.80400002 6.162706057e-39
-0.40169144 -0.092342861 0.80800003 5.70531383e-39
-0.3996 -0.09257143 0.81000006 5.613856684e-39
-0.39847237 -0.093028568 0.81400001 5.153593197e-39
-0.39682859 -0.093371429 0.81700003 4.690811577e-39
-0.39757144 -0.094285719 0.82500005 5.704243238e-39
-0.39729714 -0.094971426 0.83100003 6.070525841e-39
-0.39697716 -0.095657147 0.83700001 6.251329777e-39
-0.39472955 -0.095885724 0.83900005 5.513777349e-39
-0.39340004 -0.096342862 0.84300005 5.433813654e-39
-0.4746381 -0.091815241 0.81700003 9.9498707e-39
-0.47152573 -0.091815241 0.81700003 9.109399908e-39
-0.46841335 -0.091815241 0.81700003 9.481041076e-39
-0.46530095 -0.091815241 0.81700003 9.480638903e-39
-0.46218857 -0.091815241 0.81700003 9.388807611e-39
-0.46020004 -0.092040002 0.81900007 9.386649611e-39
-0.45708004 -0.092040002 0.81900007 9.571751329e-39
-0.45396003 -0.092040002 0.81900007 1.048980221e-38
-0.45194098 -0.092264764 0.82100004 9.855197575e-39
-0.44881335 -0.092264764 0.82100004 9.662904393e-39
-0.44460005 -0.092040002 0.81900007 8.828464789e-39
-0.43555048 -0.090803809 0.80800003 1.040152041e-38
-0.42926097 -0.090129524 0.80200005 1.270966357e-38
-0.42514285 -0.089904763 0.80000001 1.298662741e-38
-0.42209524 -0.089904763 0.80000001 1.344365249e-38
-0.41800001 -0.089680001 0.79800004 1.279864602e-38
-0.41496 -0.089680001 0.79800004 1.22494183e-38
-0.41192001 -0.089680001 0.79800004 1.19695832e-38
-0.40888 -0.089680001 0.79800004 1.123489082e-38
-0.40584001 -0.089680001 0.79800004 9.49178343e-39
-0.40380952 -0.089904763 0.80000001 6.526111794e-39
-0.40276572 -0.090354286 0.80400002 5.336536916e-39
-0.40169144 -0.090803809 0.80800003 5.427650743e-39
-0.3996 -0.091028579 0.81000006 5.427664756e-39
-0.39847237 -0.091478094 0.81400001 4.876646174e-39
-0.39682859 -0.091815241 0.81700003 4.690824189e-39
-0.39757144 -0.092714287 0.82500005 5.612064424e-39
-0.39729714 -0.09338858 0.83100003 6.162376751e-39
-0.39697716 -0.094062857 0.83700001 7.081810713e-39
-0.39472955 -0.094287626 0.83900005 6.249538917e-39
-0.39340004 -0.09473715 0.84300005 6.736396247e-39
-0.47134477 -0.089927621 0.81400001 9.481062095e-39
-0.46996954 -0.090259053 0.81700003 9.020801411e-39
-0.46685714 -0.090259053 0.81700003 9.115124212e-39
-0.46488005 -0.090480007 0.81900007 9.114364708e-39
-0.46288761 -0.090700962 0.82100004 9.203728314e-39
-0.45976001 -0.090700962 0.82100004 9.388433464e-39
-0.45663241 -0.090700962 0.82100004 1.021714876e-38
-0.45350477 -0.090700962 0.82100004 1.02128734e-38
-0.45037717 -0.090700962 0.82100004 9.567826292e-39
-0.44724956 -0.090700962 0.82100004 9.74866526e-39
-0.44412193 -0.090700962 0.82100004 1.058874789e-38
-0.42971429 -0.088380955 0.80000001 1.187919104e-38
-0.42666668 -0.088380955 0.80000001 1.26181826e-38
-0.42361906 -0.088380955 0.80000001 1.30784643e-38
-0.42057142 -0.088380955 0.80000001 1.307412869e-38
-0.41648 -0.088160001 0.79800004 1.233803221e-38
-0.41344002 -0.088160001 0.79800004 1.178447307e-38
-0.4104 -0.088160001 0.79800004 1.095901579e-38
-0.40736002 -0.088160001 0.79800004 9.386320306e-39
-0.40432 -0.088160001 0.79800004 7.353358533e-39
-0.4022857 -0.088380955 0.80000001 5.429459819e-39
-0.40223241 -0.089043818 0.80600005 4.874474161e-39
-0.40015239 -0.089264765 0.80800003 5.241834363e-39
-0.39805716 -0.08948572 0.81000006 4.967412479e-39
-0.39740956 -0.090038106 0.81500006 4.688293444e-39
-0.39527237 -0.090259053 0.81700003 5.057820052e-39
-0.39408001 -0.090700962 0.82100004 5.889347759e-39
-0.39666671 -0.092026673 0.83300006 7.082166643e-39
-0.39538285 -0.092468575 0.83700001 7.449109257e-39
-0.39406857 -0.092910476 0.84100002 7.544931447e-39
-0.39179432 -0.093131438 0.84300005 1.00518544e-38
-0.47383431 -0.089137144 0.82100004 9.017946966e-39
-0.46956003 -0.088920005 0.81900007 8.837479342e-39
-0.46757907 -0.089137144 0.82100004 8.656297056e-39
-0.46332005 -0.088920005 0.81900007 8.928209214e-39
-0.46020004 -0.088920005 0.81900007 9.018971315e-39
-0.45708004 -0.088920005 0.81900007 8.929652551e-39
-0.45506859 -0.089137144 0.82100004 1.030576828e-38
-0.45304191 -0.089354284 0.82300001 9.294850549e-39
-0.44990668 -0.089354284 0.82300001 1.002415774e-38
-0.44677144 -0.089354284 0.82300001 1.057803637e-38
-0.44255811 -0.089137144 0.82100004 1.233905515e-38
-0.42819047 -0.086857148 0.80000001 1.243163474e-38
-0.42514285 -0.086857148 0.80000001 1.224976582e-38
-0.42209524 -0.086857148 0.80000001 1.271181036e-38
-0.41800001 -0.086640008 0.79800004 1.187811344e-38
-0.41600001 -0.086857148 0.80000001 1.169156838e-38
-0.41192001 -0.086640008 0.79800004 1.123272441e-38
-0.40888 -0.086640008 0.79800004 9.936964742e-39
-0.40584001 -0.086640008 0.79800004 8.188133048e-39
-0.40380952 -0.086857148 0.80000001 6.351411914e-39
-0.40276572 -0.087291434 0.80400002 4.965244671e-39
-0.40169144 -0.087725714 0.80800003 5.51589331e-39
-0.3996 -0.087942861 0.81000006 4.875209843e-39
-0.39847237 -0.08837714 0.81400001 4.413511426e-39
-0.39682859 -0.088702857 0.81700003 4.506069993e-39
-0.39564383 -0.089137144 0.82100004 5.061749293e-39
-0.39538479 -0.089788571 0.82700002 5.887912829e-39
-0.39602858 -0.090657145 0.83500004 7.084994463e-39
-0.39472955 -0.091091432 0.83900005 6.346016915e-39
-0.39246666 -0.091308571 0.84100002 9.130940668e-39
-0.47383431 -0.087573335 0.82100004 9.29704218e-39
-0.4707067 -0.087573335 0.82100004 8.562684713e-39
-0.46757907 -0.087573335 0.82100004 8.378992701e-39
-0.46332005 -0.087360002 0.81900007 8.651271999e-39
-0.46020004 -0.087360002 0.81900007 8.924977819e-39
-0.45708004 -0.087360002 0.81900007 8.37432918e-39
-0.45617715 -0.087786667 0.82300001 9.663275737e-39
-0.4541429 -0.088000007 0.82500005 9.111180958e-39
-0.44990668 -0.087786667 0.82300001 1.057983423e-38
