# .PCD v0.7 - Point Cloud Data file format
VERSION 0.7
FIELDS x y z rgb
SIZE 4 4 4 4
TYPE F F F F
COUNT 1 1 1 1
WIDTH 948
HEIGHT 1
VIEWPOINT 0 0 0 1 0 0 0
POINTS 948
DATA ascii
0.31468952 -0.062632389 0.80200005 1.380517068e-38
0.32012191 -0.063100956 0.80800003 1.343780207e-38
0.324 -0.06325715 0.81000006 1.288533314e-38
0.19562668 -0.059733335 0.78400004 9.758664926e-39
0.19760001 -0.059428573 0.78000003 6.268585366e-39
0.2003143 -0.059352383 0.77900004 1.013178587e-38
0.2022381 -0.059047621 0.77500004 1.087470527e-38
0.20333713 -0.058514286 0.76800001 9.392760674e-39
0.20411429 -0.057904765 0.76000005 8.195299288e-39
0.20564763 -0.057523813 0.75500005 8.004072494e-39
0.20769525 -0.05729524 0.75200003 7.729629592e-39
0.21000001 -0.057142861 0.75000006 8.368889339e-39
0.21228953 -0.056990478 0.74800003 7.908627253e-39
0.21427621 -0.056761909 0.74500006 7.267215111e-39
0.21536571 -0.056304764 0.73900002 8.096965971e-39
0.2175905 -0.056152385 0.73700005 7.454118899e-39
0.22009906 -0.056076195 0.73600006 8.555065853e-39
0.22229715 -0.055923808 0.73400003 9.290108555e-39
0.22509333 -0.055923808 0.73400003 9.84327813e-39
0.22788954 -0.055923808 0.73400003 1.030281995e-38
0.23005715 -0.055771433 0.73200005 1.021062992e-38
0.23284574 -0.055771433 0.73200005 1.011879723e-38
0.23531239 -0.055695236 0.73100001 9.293005039e-39
0.23744573 -0.05554286 0.72900003 1.131482088e-38
0.23989335 -0.055466671 0.72800004 1.232572741e-38
0.24266668 -0.055466671 0.72800004 1.296786262e-38
0.24544001 -0.055466671 0.72800004 1.370541084e-38
0.25844193 -0.057752378 0.75800002 1.02124348e-38
0.26064003 -0.057600003 0.75600004 1.076560577e-38
0.26317143 -0.057523813 0.75500005 1.122657692e-38
0.26640001 -0.057600003 0.75600004 1.122980971e-38
0.26999238 -0.057752378 0.75800002 1.168971026e-38
0.27396002 -0.057980955 0.76100004 1.223929111e-38
0.2859543 -0.059885714 0.78600001 1.177974789e-38
0.28894857 -0.059885714 0.78600001 1.325271016e-38
0.29268572 -0.060038101 0.78800005 1.408030723e-38
0.29606289 -0.060114287 0.78900003 1.417248884e-38
0.30058476 -0.060419049 0.79300004 1.35300019e-38
0.30437142 -0.060571428 0.79500002 1.408174636e-38
0.30817336 -0.060723811 0.79700005 1.426505722e-38
0.31238094 -0.06095238 0.80000001 1.408066596e-38
0.31621715 -0.061104763 0.80200005 1.380515246e-38
0.32166097 -0.061561905 0.80800003 1.362074719e-38
0.32634667 -0.061866671 0.81200004 1.29775526e-38
0.33065718 -0.062095243 0.81500006 1.224401069e-38
0.19661716 -0.058091432 0.78200006 9.020756569e-39
0.19908573 -0.05794286 0.78000003 8.934697225e-39
0.20128001 -0.057719998 0.77700001 1.004423554e-38
0.2024 -0.0572 0.77000004 9.576449883e-39
0.20346667 -0.056679998 0.76300001 8.558336484e-39
0.20502095 -0.056308571 0.75800002 7.912259419e-39
0.20708573 -0.056085717 0.75500005 7.8193197e-39
0.20912763 -0.055862859 0.75200003 8.736592859e-39
0.21142858 -0.055714291 0.75000006 8.918821915e-39
0.21371429 -0.055565715 0.74800003 8.184854009e-39
0.2151162 -0.055194288 0.74300003 8.370663383e-39
0.21706666 -0.05497143 0.74000001 8.463950625e-39
0.21958858 -0.054897144 0.73900002 8.55470572e-39
0.22180192 -0.054748576 0.73700005 8.921688972e-39
0.22430478 -0.05467429 0.73600006 9.015312525e-39
0.22649144 -0.054525718 0.73400003 9.383391592e-39
0.22928762 -0.054525718 0.73400003 9.750372042e-39
0.23145144 -0.054377146 0.73200005 9.751074093e-39
0.23424001 -0.054377146 0.73200005 9.749989488e-39
0.23605716 -0.054154288 0.72900003 1.030031863e-38
0.23948953 -0.054302856 0.73100001 1.140448297e-38
0.24227428 -0.054302856 0.73100001 1.214169208e-38
0.24438857 -0.054154288 0.72900003 1.186618138e-38
0.24682669 -0.054080002 0.72800004 1.057869358e-38
0.25988573 -0.056308571 0.75800002 1.020993768e-38
0.26277333 -0.056308571 0.75800002 1.067233395e-38
0.26566094 -0.056308571 0.75800002 1.104289892e-38
0.26854858 -0.056308571 0.75800002 1.150496167e-38
0.27215239 -0.056457143 0.76000005 1.223785618e-38
0.28445715 -0.058388572 0.78600001 1.251658706e-38
0.28818285 -0.058537148 0.78800005 1.297827426e-38
0.29118478 -0.058537148 0.78800005 1.380515667e-38
0.29456002 -0.05861143 0.78900003 1.435758916e-38
0.29907429 -0.058908574 0.79300004 1.42653585e-38
0.30285713 -0.059057143 0.79500002 1.398990105e-38
0.3058857 -0.059057143 0.79500002 1.426577048e-38
0.31008002 -0.059280004 0.79800004 1.42650432e-38
0.31390476 -0.059428573 0.80000001 1.398810739e-38
0.32012191 -0.060022857 0.80800003 1.371366449e-38
0.324 -0.060171433 0.81000006 1.334560224e-38
0.32910478 -0.060542859 0.81500006 1.288466753e-38
0.33220956 -0.060542859 0.81500006 1.169192291e-38
0.19760001 -0.056457143 0.78000003 9.666481908e-39
0.2003143 -0.056384765 0.77900004 9.763711002e-39
0.2017162 -0.055950481 0.77300006 9.578954003e-39
0.20333713 -0.055588569 0.76800001 8.652320171e-39
0.20411429 -0.055009525 0.76000005 8.004435431e-39
0.20592001 -0.054719999 0.75600004 7.543102753e-39
0.20797144 -0.054502856 0.75300002 8.278494378e-39
0.21056001 -0.054430481 0.75200003 1.057401744e-38
0.21285716 -0.054285716 0.75000006 9.012807003e-39
0.21513906 -0.054140955 0.74800003 8.830925469e-39
0.21624002 -0.053706668 0.74200004 9.290821816e-39
0.21847619 -0.053561907 0.74000001 9.290824618e-39
0.22099619 -0.053489525 0.73900002 9.104641098e-39
0.22381143 -0.053489525 0.73900002 8.923118296e-39
0.22570668 -0.053272385 0.73600006 8.278840499e-39
0.2285105 -0.053272385 0.73600006 9.379800064e-39
0.23068573 -0.05312762 0.73400003 9.106799098e-39
0.23284574 -0.052982859 0.73200005 9.842549455e-39
0.2356343 -0.052982859 0.73200005 1.002407786e-38
0.23809715 -0.052910477 0.73100001 1.085310986e-38
0.24088189 -0.052910477 0.73100001 1.131228734e-38
0.24366666 -0.052910477 0.73100001 1.213989141e-38
0.24544001 -0.052693337 0.72800004 8.649778215e-39
0.25946477 -0.055081908 0.76100004 9.841851608e-39
0.26201907 -0.055009525 0.76000005 1.021063973e-38
0.26421714 -0.054864764 0.75800002 1.076523583e-38
0.26780954 -0.055009525 0.76000005 1.113365541e-38
0.27070478 -0.055009525 0.76000005 1.205201878e-38
0.27360001 -0.055009525 0.76000005 1.306651403e-38
0.2859543 -0.056891426 0.78600001 1.325377655e-38
0.28968385 -0.057036195 0.78800005 1.371332818e-38
0.29305717 -0.057108574 0.78900003 1.426505722e-38
0.29681331 -0.057253335 0.79100001 1.509227173e-38
0.30134284 -0.057542857 0.79500002 1.426610819e-38
0.30437142 -0.057542857 0.79500002 1.426576347e-38
0.30817336 -0.057687622 0.79700005 1.463202786e-38
0.31238094 -0.057904761 0.80000001 1.417248184e-38
0.31700572 -0.058194283 0.80400002 1.398845351e-38
0.32166097 -0.058483809 0.80800003 1.362147446e-38
0.32634667 -0.058773335 0.81200004 1.343745315e-38
0.33065718 -0.058990479 0.81500006 1.288358012e-38
0.19712001 -0.055253334 0.78400004 1.03075115e-38
0.19908573 -0.05497143 0.78000003 9.945219791e-39
0.20179811 -0.054900955 0.77900004 9.578962411e-39
0.20292571 -0.054407619 0.77200001 8.838153366e-39
0.20400001 -0.05391429 0.76500005 8.190583919e-39
0.20502095 -0.053420953 0.75800002 7.911881069e-39
0.20708573 -0.053209525 0.75500005 8.003343819e-39
0.20912763 -0.052998096 0.75200003 9.014620283e-39
0.21199238 -0.052998096 0.75200003 9.382299981e-39
0.21428573 -0.052857146 0.75000006 9.017111792e-39
0.21627429 -0.052645717 0.74700004 9.292253943e-39
0.21794668 -0.052363813 0.74300003 9.84219913e-39
0.22048001 -0.052293338 0.74200004 9.749997895e-39
0.22270475 -0.052152384 0.74000001 9.382299981e-39
0.22552381 -0.052152384 0.74000001 9.197900313e-39
0.22710858 -0.05187048 0.73600006 9.47234742e-39
0.2299124 -0.05187048 0.73600006 9.840415277e-39
0.23208381 -0.051729526 0.73400003 9.933312958e-39
0.23488 -0.051729526 0.73400003 1.020882085e-38
0.23702858 -0.051588573 0.73200005 1.057581391e-38
0.23981716 -0.051588573 0.73200005 1.076017995e-38
0.24227428 -0.051518098 0.73100001 1.085275533e-38
0.24505906 -0.051518098 0.73100001 9.474865554e-39
0.25869331 -0.053773336 0.76300001 8.831635927e-39
0.2609143 -0.053632382 0.76100004 1.002659459e-38
0.26346669 -0.053561911 0.76000005 1.048685948e-38
0.26636192 -0.053561911 0.76000005 1.103857591e-38
0.26961145 -0.053632382 0.76100004 1.195802108e-38
0.2725105 -0.053632382 0.76100004 1.297394986e-38
0.28445715 -0.055394288 0.78600001 1.362146325e-38
0.28818285 -0.055535242 0.78800005 1.371403864e-38
0.2915543 -0.055605717 0.78900003 1.389738733e-38
0.29530665 -0.055746667 0.79100001 1.435653258e-38
0.29982859 -0.056028571 0.79500002 1.426504741e-38
0.30361906 -0.056169529 0.79700005 1.399060591e-38
0.30665523 -0.056169529 0.79700005 1.426576627e-38
0.31008002 -0.05624 0.79800004 1.42650362e-38
0.31468952 -0.056521907 0.80200005 1.408170292e-38
0.31932953 -0.056803815 0.80600005 1.380587133e-38
0.324 -0.057085719 0.81000006 1.362148147e-38
0.32910478 -0.057438098 0.81500006 1.343637555e-38
0.33220956 -0.057438098 0.81500006 1.251511009e-38
0.19712001 -0.05376 0.78400004 1.058406756e-38
0.19908573 -0.053485718 0.78000003 1.022034793e-38
0.20179811 -0.053417146 0.77900004 9.487107297e-39
0.20292571 -0.052937143 0.77200001 8.559052547e-39
0.20453334 -0.052594289 0.76700002 8.099107155e-39
0.20556192 -0.052114289 0.76000005 8.004794163e-39
0.20736001 -0.051840004 0.75600004 8.092306654e-39
0.20940572 -0.051634289 0.75300002 8.555431592e-39
0.21199238 -0.051565714 0.75200003 8.923838564e-39
0.21428573 -0.051428575 0.75000006 9.202233128e-39
0.21656382 -0.051291432 0.74800003 9.659604335e-39
0.21794668 -0.050948571 0.74300003 1.039393938e-38
0.22077715 -0.050948571 0.74300003 1.039356243e-38
0.22330669 -0.050880004 0.74200004 9.842556461e-39
0.22613335 -0.050880004 0.74200004 9.841473258e-39
0.22803429 -0.050674286 0.73900002 1.011842308e-38
0.23022479 -0.050537147 0.73700005 1.039214011e-38
0.23208381 -0.050331432 0.73400003 1.048360286e-38
0.23488 -0.050331432 0.73400003 1.057616563e-38
0.23702858 -0.050194286 0.73200005 1.085167352e-38
0.23981716 -0.050194286 0.73200005 1.039284917e-38
0.24260573 -0.050194286 0.73200005 9.932243767e-39
0.24539432 -0.050194286 0.73200005 8.647269891e-39
0.25869331 -0.05232 0.76300001 8.462866019e-39
0.2609143 -0.052182861 0.76100004 1.002480373e-38
0.26381335 -0.052182861 0.76100004 1.048757274e-38
0.26671237 -0.052182861 0.76100004 1.122153224e-38
0.27032 -0.05232 0.76300001 1.233218739e-38
0.27322668 -0.05232 0.76300001 1.343601261e-38
0.28518099 -0.054034289 0.78800005 1.408137221e-38
0.28854859 -0.05410286 0.78900003 1.408173935e-38
0.29229331 -0.05424 0.79100001 1.389737051e-38
0.29605335 -0.054377146 0.79300004 1.408102189e-38
0.29982859 -0.054514285 0.79500002 1.380515246e-38
0.30361906 -0.054651432 0.79700005 1.380587413e-38
0.30704004 -0.054719999 0.79800004 1.417500978e-38
0.31085715 -0.054857146 0.80000001 1.426541034e-38
0.31468952 -0.054994289 0.80200005 1.408279873e-38
0.31932953 -0.055268575 0.80600005 1.389808518e-38
0.32320002 -0.055405717 0.80800003 1.371296384e-38
0.32910478 -0.055885717 0.81500006 1.371116737e-38
0.33302477 -0.056022856 0.81700003 1.315940891e-38
0.33613715 -0.056022856 0.81700003 1.242298172e-38
0.19810669 -0.052133337 0.78200006 1.058621435e-38
0.2003143 -0.051933337 0.77900004 9.853707995e-39
0.2017162 -0.051533338 0.77300006 8.93428104e-39
0.20386668 -0.051333334 0.77000004 7.823623087e-39
0.20545715 -0.051000003 0.76500005 8.281720167e-39
0.20700954 -0.050666671 0.76000005 8.18738055e-39
0.20852382 -0.050333336 0.75500005 8.371753593e-39
0.21084 -0.0502 0.75300002 9.014597863e-39
0.21342477 -0.050133336 0.75200003 8.833812144e-39
0.21571429 -0.050000004 0.75000006 9.384833529e-39
0.21769716 -0.049800001 0.74700004 9.935124837e-39
0.21936192 -0.049533334 0.74300003 1.057760617e-38
0.22219238 -0.049533334 0.74300003 9.385529974e-39
0.22472 -0.04946667 0.74200004 9.659247004e-39
0.22754668 -0.04946667 0.74200004 1.002694492e-38
0.22944191 -0.04926667 0.73900002 1.057724043e-38
0.2316286 -0.049133338 0.73700005 1.075946949e-38
0.23443621 -0.049133338 0.73700005 1.085310005e-38
0.2362781 -0.048933335 0.73400003 1.085203086e-38
0.23842287 -0.048800007 0.73200005 1.12211679e-38
0.24121144 -0.048800007 0.73200005 1.039464984e-38
0.244 -0.048800007 0.73200005 1.011735109e-38
0.24678859 -0.048800007 0.73200005 8.649059349e-39
0.26014665 -0.050866667 0.76300001 1.039572884e-38
0.26305333 -0.050866667 0.76300001 1.066944727e-38
0.26595998 -0.050866667 0.76300001 1.141058702e-38
0.26886666 -0.050866667 0.76300001 1.233469431e-38
0.27925333 -0.052266669 0.78400004 1.325378636e-38
0.28368002 -0.052533336 0.78800005 1.380372874e-38
0.28704572 -0.052600004 0.78900003 1.417250145e-38
0.29078665 -0.052733332 0.79100001 1.371332257e-38
0.29454288 -0.052866668 0.79300004 1.398990386e-38
0.2983143 -0.052999999 0.79500002 1.408173515e-38
0.30210099 -0.053133339 0.79700005 1.380587974e-38
0.30552003 -0.053200003 0.79800004 1.408174916e-38
0.30933335 -0.053333335 0.80000001 1.444944988e-38
0.31316191 -0.05346667 0.80200005 1.435797311e-38
0.31700572 -0.053600002 0.80400002 1.41739546e-38
0.32166097 -0.053866666 0.80800003 1.389737332e-38
0.3255429 -0.054000005 0.81000006 1.398775567e-38
0.33065718 -0.054333337 0.81500006 1.389626909e-38
0.33458099 -0.054466669 0.81700003 1.307008734e-38
0.33769333 -0.054466669 0.81700003 1.23297169e-38
0.19908573 -0.050514285 0.78000003 1.02192409e-38
0.20128001 -0.050320003 0.77700001 9.296949694e-39
0.20292571 -0.049996193 0.77200001 8.192411212e-39
0.20480001 -0.049737141 0.76800001 8.004041666e-39
0.20637333 -0.049413335 0.76300001 8.46288844e-39
0.20736001 -0.048960004 0.75600004 8.461799631e-39
0.20940572 -0.048765715 0.75300002 8.829137412e-39
0.21199238 -0.048700955 0.75200003 8.922758162e-39
0.21428573 -0.04857143 0.75000006 9.01676427e-39
0.21714287 -0.04857143 0.75000006 9.658172208e-39
0.21853335 -0.04824762 0.74500006 1.00255212e-38
0.22137144 -0.04824762 0.74500006 9.567040164e-39
0.22360763 -0.048118096 0.74300003 9.294411943e-39
0.22643811 -0.048118096 0.74300003 9.840057946e-39
0.22834286 -0.047923807 0.74000001 1.048577348e-38
0.23084953 -0.04785905 0.73900002 1.094064897e-38
0.23208381 -0.047535241 0.73400003 1.112897648e-38
0.23488 -0.047535241 0.73400003 1.112934642e-38
0.25257143 -0.050514285 0.78000003 1.131479566e-38
0.23981716 -0.04740572 0.73200005 1.122403636e-38
0.24260573 -0.04740572 0.73200005 1.048576227e-38
0.2614857 -0.050514285 0.78000003 1.011950348e-38
0.25937146 -0.049542859 0.76500005 1.057939983e-38
0.26228574 -0.049542859 0.76500005 1.10450429e-38
0.26797333 -0.050060954 0.77300006 1.159533982e-38
0.27337143 -0.050514285 0.78000003 1.251693178e-38
0.27776 -0.050773337 0.78400004 1.325416331e-38
0.28217906 -0.051032383 0.78800005 1.362006196e-38
0.28554288 -0.051097143 0.78900003 1.389737191e-38
0.28928003 -0.051226668 0.79100001 1.38055182e-38
0.29303241 -0.051356193 0.79300004 1.380479793e-38
0.29680002 -0.051485714 0.79500002 1.408245261e-38
0.30058289 -0.051615242 0.79700005 1.40824344e-38
0.30400002 -0.051680002 0.79800004 1.408212471e-38
0.30780953 -0.051809523 0.80000001 1.445016034e-38
0.31163427 -0.051939052 0.80200005 1.463167613e-38
0.3154743 -0.052068572 0.80400002 1.44497974e-38
0.31932953 -0.052198097 0.80600005 1.417359867e-38
0.32320002 -0.052327618 0.80800003 1.408138763e-38
0.32870096 -0.052716192 0.81400001 1.417393778e-38
0.33302477 -0.052910481 0.81700003 1.380586012e-38
0.33613715 -0.052910481 0.81700003 1.3069723e-38
0.34008002 -0.053040005 0.81900007 1.15017555e-38
0.1998 -0.048840001 0.77700001 1.003484544e-38
0.2017162 -0.048588578 0.77300006 9.199722001e-39
0.20386668 -0.048400003 0.77000004 8.095888372e-39
0.20626286 -0.048274286 0.76800001 8.372109523e-39
0.20782667 -0.047960002 0.76300001 8.369966938e-39
0.2088 -0.047520004 0.75600004 8.829859081e-39
0.21084 -0.04733143 0.75300002 9.289028154e-39
0.21285716 -0.04714286 0.75000006 8.464296745e-39
0.21513906 -0.047017142 0.74800003 9.565968171e-39
0.21798857 -0.047017142 0.74800003 1.020846352e-38
0.2199524 -0.046828575 0.74500006 1.057759216e-38
0.22279049 -0.046828575 0.74500006 1.01219992e-38
0.22502287 -0.046702858 0.74300003 1.094961308e-38
0.22785333 -0.046702858 0.74300003 1.094245244e-38
0.22944191 -0.046451431 0.73900002 1.140557738e-38
0.23225716 -0.046451431 0.73900002 1.177507456e-38
0.2481143 -0.049028575 0.78000003 1.177579343e-38
0.25108573 -0.049028575 0.78000003 1.241934816e-38
0.25405714 -0.049028575 0.78000003 1.196158879e-38
0.25702858 -0.049028575 0.78000003 1.214489684e-38
0.26066667 -0.049154289 0.78200006 1.131730398e-38
0.26297146 -0.049028575 0.78000003 1.104144717e-38
0.26560193 -0.048965715 0.77900004 1.140843883e-38
0.26856953 -0.048965715 0.77900004 1.214671433e-38
0.27188572 -0.049028575 0.78000003 1.28846381e-38
0.27626669 -0.049280003 0.78400004 1.325308991e-38
0.28067809 -0.04953143 0.78800005 1.352788734e-38
0.28476 -0.04972 0.79100001 1.389701739e-38
0.28777334 -0.04972 0.79100001 1.435690813e-38
0.29225713 -0.049971428 0.79500002 1.38055168e-38
0.29528573 -0.049971428 0.79500002 1.435616404e-38
0.29906476 -0.050097149 0.79700005 1.40813582e-38
0.30248001 -0.050160002 0.79800004 1.399026119e-38
0.30628571 -0.050285712 0.80000001 1.380625248e-38
0.31010669 -0.050411429 0.80200005 1.500008731e-38
0.31316191 -0.050411429 0.80200005 1.463381732e-38
0.31779429 -0.05066286 0.80600005 1.435760597e-38
0.32086477 -0.05066286 0.80600005 1.417501819e-38
0.3255429 -0.050914288 0.81000006 1.453984764e-38
0.33065718 -0.051228575 0.81500006 1.417357064e-38
0.33458099 -0.051354285 0.81700003 1.380513705e-38
0.33852002 -0.051480003 0.81900007 1.288425134e-38
0.34330857 -0.05173143 0.82300001 1.140705295e-38
0.3464438 -0.05173143 0.82300001 1.308531385e-38
0.2022381 -0.047238097 0.77500004 9.664626589e-39
0.20439619 -0.047055237 0.77200001 8.646537012e-39
0.20680001 -0.046933334 0.77000004 8.188076996e-39
0.20891619 -0.046750478 0.76700002 8.46323316e-39
0.20935239 -0.046201907 0.75800002 9.197922734e-39
0.21140002 -0.046019051 0.75500005 9.566335311e-39
0.21285716 -0.045714289 0.75000006 8.188790257e-39
0.21513906 -0.045592383 0.74800003 9.750353825e-39
0.21798857 -0.045592383 0.74800003 1.05779579e-38
0.2199524 -0.045409527 0.74500006 1.094673061e-38
0.22279049 -0.045409527 0.74500006 1.122546008e-38
0.22502287 -0.04528762 0.74300003 1.242041174e-38
0.22785333 -0.04528762 0.74300003 1.168789558e-38
0.24217144 -0.047542859 0.78000003 1.205416417e-38
0.24577145 -0.047664765 0.78200006 1.251155079e-38
0.2481143 -0.047542859 0.78000003 1.251264521e-38
0.25108573 -0.047542859 0.78000003 1.379869388e-38
0.25405714 -0.047542859 0.78000003 1.242185087e-38
0.25702858 -0.047542859 0.78000003 1.343131686e-38
0.26066667 -0.047664765 0.78200006 1.2603724e-38
0.26364574 -0.047664765 0.78200006 1.196088534e-38
0.26662478 -0.047664765 0.78200006 1.177901361e-38
0.26960382 -0.047664765 0.78200006 1.334273378e-38
0.27327999 -0.047786668 0.78400004 1.362039687e-38
0.27697143 -0.047908571 0.78600001 1.362041648e-38
0.28067809 -0.048030477 0.78800005 1.362006756e-38
0.28476 -0.048213333 0.79100001 1.407996251e-38
0.28850096 -0.048335239 0.79300004 1.463097548e-38
0.29225713 -0.048457142 0.79500002 1.408102609e-38
0.29528573 -0.048457142 0.79500002 1.46313202e-38
0.29906476 -0.048579048 0.79700005 1.408029742e-38
0.30248001 -0.048640002 0.79800004 1.398990806e-38
0.30628571 -0.048761904 0.80000001 1.343890349e-38
0.31010669 -0.048883811 0.80200005 1.527595393e-38
0.31316191 -0.048883811 0.80200005 1.481712817e-38
0.31779429 -0.049127623 0.80600005 1.444942606e-38
0.32086477 -0.049127623 0.80600005 1.445050646e-38
0.3255429 -0.049371433 0.81000006 1.490790989e-38
0.33065718 -0.049676195 0.81500006 1.435725004e-38
0.33458099 -0.049798097 0.81700003 1.408064494e-38
0.33852002 -0.049920004 0.81900007 1.325159613e-38
0.34247431 -0.050041907 0.82100004 1.24218761e-38
0.3464438 -0.050163809 0.82300001 1.252420872e-38
0.2037143 -0.045761906 0.77500004 9.757171142e-39
0.20586666 -0.045584764 0.77200001 9.015305518e-39
0.20826668 -0.045466669 0.77000004 8.739092775e-39
0.21065143 -0.045348573 0.76800001 9.014604869e-39
0.20940572 -0.044462856 0.75300002 9.750027323e-39
0.21227428 -0.044462856 0.75300002 9.474851541e-39
0.21428573 -0.044285718 0.75000006 9.291170739e-39
0.22553906 -0.0459981 0.77900004 1.011985101e-38
0.22850667 -0.0459981 0.77900004 1.076271349e-38
0.23177144 -0.046057142 0.78000003 1.122581741e-38
0.23474286 -0.046057142 0.78000003 1.187118262e-38
0.23771429 -0.046057142 0.78000003 1.214885551e-38
0.24068573 -0.046057142 0.78000003 1.21474388e-38
0.24365716 -0.046057142 0.78000003 1.251477098e-38
0.24726097 -0.046175241 0.78200006 1.260482822e-38
0.24960001 -0.046057142 0.78000003 1.297258359e-38
0.25257143 -0.046057142 0.78000003 1.288176404e-38
0.25554287 -0.046057142 0.78000003 1.25140465e-38
0.25851429 -0.046057142 0.78000003 1.269735316e-38
0.26215622 -0.046175241 0.78200006 1.251441364e-38
0.26513526 -0.046175241 0.78200006 1.288499123e-38
0.26880002 -0.046293333 0.78400004 1.34370804e-38
0.27178666 -0.046293333 0.78400004 1.362076401e-38
0.27547431 -0.046411429 0.78600001 1.343743353e-38
0.27917716 -0.046529528 0.78800005 1.33438324e-38
0.28325334 -0.046706665 0.79100001 1.38044406e-38
0.28699049 -0.046824764 0.79300004 1.4171798e-38
0.29001144 -0.046824764 0.79300004 1.40799527e-38
0.29377142 -0.046942856 0.79500002 1.408067156e-38
0.29754668 -0.047060952 0.79700005 1.408067717e-38
0.30096003 -0.047120001 0.79800004 1.398991086e-38
0.30400002 -0.047120001 0.79800004 1.389808097e-38
0.30780953 -0.047238097 0.80000001 1.435760597e-38
0.31163427 -0.047356192 0.80200005 1.481677224e-38
0.3154743 -0.047474284 0.80400002 1.454161888e-38
0.31932953 -0.047592383 0.80600005 1.44501169e-38
0.32320002 -0.047710475 0.80800003 1.444906873e-38
0.32870096 -0.048064765 0.81400001 1.435728508e-38
0.33302477 -0.048241906 0.81700003 1.417248744e-38
0.33613715 -0.048241906 0.81700003 1.371222395e-38
0.34008002 -0.048360001 0.81900007 1.3066479e-38
0.3440381 -0.0484781 0.82100004 1.2605882e-38
0.34801143 -0.048596192 0.82300001 1.252315494e-38
0.2037143 -0.044285718 0.77500004 1.04032454e-38
0.20586666 -0.044114284 0.77200001 9.750706952e-39
0.20826668 -0.044 0.77000004 9.197914326e-39
0.21065143 -0.043885715 0.76800001 9.290468689e-39
0.20940572 -0.043028571 0.75300002 1.01173581e-38
0.21904001 -0.044399999 0.77700001 1.002479252e-38
0.22257143 -0.044514287 0.77900004 9.659252609e-39
0.22553906 -0.044514287 0.77900004 1.012129154e-38
0.22850667 -0.044514287 0.77900004 1.076378829e-38
0.23177144 -0.044571429 0.78000003 1.131873611e-38
0.23444192 -0.044514287 0.77900004 1.196482719e-38
0.23740953 -0.044514287 0.77900004 1.233253491e-38
0.24068573 -0.044571429 0.78000003 1.251442205e-38
0.24365716 -0.044571429 0.78000003 1.279171099e-38
0.24726097 -0.044685718 0.78200006 1.269736017e-38
0.24960001 -0.044571429 0.78000003 1.288143753e-38
0.25257143 -0.044571429 0.78000003 1.260697361e-38
0.25554287 -0.044571429 0.78000003 1.223854842e-38
0.25917715 -0.044685718 0.78200006 1.233038392e-38
0.26215622 -0.044685718 0.78200006 1.269916924e-38
0.26581332 -0.044800002 0.78400004 1.389984521e-38
0.26948571 -0.044914287 0.78600001 1.43558039e-38
0.27248001 -0.044914287 0.78600001 1.389736491e-38
0.27617523 -0.045028575 0.78800005 1.334417011e-38
0.27953145 -0.045085717 0.78900003 1.315979847e-38
0.28325334 -0.045199998 0.79100001 1.371295263e-38
0.28699049 -0.045314286 0.79300004 1.398847874e-38
0.29074284 -0.04542857 0.79500002 1.389663904e-38
0.29451048 -0.045542859 0.79700005 1.380624267e-38
0.29754668 -0.045542859 0.79700005 1.389736491e-38
0.30058289 -0.045542859 0.79700005 1.399029061e-38
0.30400002 -0.045600001 0.79800004 1.40821121e-38
0.30780953 -0.045714285 0.80000001 1.435724864e-38
0.31163427 -0.045828573 0.80200005 1.454126576e-38
0.3154743 -0.045942858 0.80400002 1.454233635e-38
0.31932953 -0.046057146 0.80600005 1.454197061e-38
0.32320002 -0.04617143 0.80800003 1.426540474e-38
0.32870096 -0.046514284 0.81400001 1.408247784e-38
0.33302477 -0.046685714 0.81700003 1.408101488e-38
0.33613715 -0.046685714 0.81700003 1.380084207e-38
0.34008002 -0.046800002 0.81900007 1.334378756e-38
0.34487617 -0.047028571 0.82300001 1.269665531e-38
0.34801143 -0.047028571 0.82300001 1.205458456e-38
0.20586666 -0.042643812 0.77200001 1.012378866e-38
0.20826668 -0.042533338 0.77000004 9.657813476e-39
0.21663621 -0.043030478 0.77900004 9.657451941e-39
0.21960382 -0.043030478 0.77900004 9.565620649e-39
0.22257143 -0.043030478 0.77900004 9.475246707e-39
0.22553906 -0.043030478 0.77900004 9.845073194e-39
0.22850667 -0.043030478 0.77900004 1.030460941e-38
0.23177144 -0.043085717 0.78000003 1.085813211e-38
0.23444192 -0.043030478 0.77900004 1.168826132e-38
0.23740953 -0.043030478 0.77900004 1.233290205e-38
0.24068573 -0.043085717 0.78000003 1.288284023e-38
0.24428193 -0.043196194 0.78200006 1.297502325e-38
0.24726097 -0.043196194 0.78200006 1.233107336e-38
0.24960001 -0.043085717 0.78000003 1.242223343e-38
0.25257143 -0.043085717 0.78000003 1.260625615e-38
0.25619811 -0.043196194 0.78200006 1.196233428e-38
0.25917715 -0.043196194 0.78200006 1.196162102e-38
0.26282668 -0.043306671 0.78400004 1.2513713e-38
0.26581332 -0.043306671 0.78400004 1.334524631e-38
0.26948571 -0.043417145 0.78600001 1.380372594e-38
0.27317336 -0.043527622 0.78800005 1.389415593e-38
0.27617523 -0.043527622 0.78800005 1.361932627e-38
0.28024 -0.043693334 0.79100001 1.325306469e-38
0.28396955 -0.043803811 0.79300004 1.389661241e-38
0.2877143 -0.043914285 0.79500002 1.398775426e-38
0.29074284 -0.043914285 0.79500002 1.362041508e-38
0.29451048 -0.044024762 0.79700005 1.362185702e-38
0.29754668 -0.044024762 0.79700005 1.389772364e-38
0.30058289 -0.044024762 0.79700005 1.408214853e-38
0.30400002 -0.04408 0.79800004 1.40821149e-38
0.30780953 -0.044190478 0.80000001 1.426577468e-38
0.31163427 -0.044300955 0.80200005 1.445014913e-38
0.31625906 -0.044521909 0.80600005 1.454197762e-38
0.32012191 -0.044632383 0.80800003 1.463346559e-38
0.32320002 -0.044632383 0.80800003 1.435724724e-38
0.32870096 -0.044963811 0.81400001 1.417429652e-38
0.33302477 -0.045129526 0.81700003 1.417357205e-38
0.33613715 -0.045129526 0.81700003 1.3988113e-38
0.34008002 -0.045240004 0.81900007 1.352782709e-38
0.34487617 -0.045460954 0.82300001 1.306688257e-38
0.34885716 -0.045571432 0.82500005 1.233038392e-38
0.2169143 -0.0416 0.78000003 9.289030956e-39
0.21988572 -0.0416 0.78000003 9.198277263e-39
0.22285716 -0.0416 0.78000003 9.291202969e-39
0.22582857 -0.0416 0.78000003 9.568846438e-39
0.2288 -0.0416 0.78000003 9.936544352e-39
0.23177144 -0.0416 0.78000003 1.048971393e-38
0.23474286 -0.0416 0.78000003 1.150350712e-38
0.23771429 -0.0416 0.78000003 1.233326779e-38
0.24130288 -0.04170667 0.78200006 1.324982349e-38
0.24428193 -0.04170667 0.78200006 1.3157995e-38
0.24726097 -0.04170667 0.78200006 1.196518592e-38
0.24960001 -0.0416 0.78000003 1.205524878e-38
0.25321907 -0.04170667 0.78200006 1.260554569e-38
0.25619811 -0.04170667 0.78200006 1.177651229e-38
0.25917715 -0.04170667 0.78200006 1.159211963e-38
0.26282668 -0.041813336 0.78400004 1.232822312e-38
0.26649144 -0.041919999 0.78600001 1.287853124e-38
0.26948571 -0.041919999 0.78600001 1.324912424e-38
0.27317336 -0.042026669 0.78800005 1.389342306e-38
0.27652574 -0.04208 0.78900003 1.389482856e-38
0.28094858 -0.042293333 0.79300004 1.334776444e-38
0.28468573 -0.042399999 0.79500002 1.407957014e-38
0.2877143 -0.042399999 0.79500002 1.407886389e-38
0.29147431 -0.042506669 0.79700005 1.334454706e-38
0.29451048 -0.042506669 0.79700005 1.343710002e-38
0.29754668 -0.042506669 0.79700005 1.389807677e-38
0.30096003 -0.042560004 0.79800004 1.40821121e-38
0.30400002 -0.042560004 0.79800004 1.408246663e-38
0.30780953 -0.042666666 0.80000001 1.426613482e-38
0.31163427 -0.042773336 0.80200005 1.445052047e-38
0.3154743 -0.042880002 0.80400002 1.463346559e-38
0.31932953 -0.042986669 0.80600005 1.472530389e-38
0.32320002 -0.043093335 0.80800003 1.454128958e-38
0.32870096 -0.043413334 0.81400001 1.435796891e-38
0.33220956 -0.043466669 0.81500006 1.426613341e-38
0.33613715 -0.043573335 0.81700003 1.408065895e-38
0.34008002 -0.043680001 0.81900007 1.380441678e-38
0.3440381 -0.043786667 0.82100004 1.343279663e-38
0.34801143 -0.043893334 0.82300001 1.269630639e-38
0.35200003 -0.044000003 0.82500005 1.187054923e-38
0.2184 -0.040114287 0.78000003 9.655656878e-39
0.22137143 -0.040114287 0.78000003 9.473066286e-39
0.22434287 -0.040114287 0.78000003 8.465026822e-39
0.22731429 -0.040114287 0.78000003 9.383734911e-39
0.23028572 -0.040114287 0.78000003 9.568484903e-39
0.23325716 -0.040114287 0.78000003 1.039716517e-38
0.23622857 -0.040114287 0.78000003 1.159750062e-38
0.24042667 -0.040320002 0.78400004 1.242366976e-38
0.24341334 -0.040320002 0.78400004 1.324912003e-38
0.24702857 -0.040422857 0.78600001 1.233363633e-38
0.24938668 -0.040320002 0.78400004 1.169041652e-38
0.25301713 -0.040422857 0.78600001 1.260590722e-38
0.25470859 -0.040217146 0.78200006 1.30661609e-38
0.25834668 -0.040320002 0.78400004 1.17743557e-38
0.26133335 -0.040320002 0.78400004 1.232606372e-38
0.26499429 -0.040422857 0.78600001 1.26955581e-38
0.26798856 -0.040422857 0.78600001 1.297181008e-38
0.2716724 -0.040525716 0.78800005 1.288285705e-38
0.27502286 -0.040577143 0.78900003 1.316014879e-38
0.27943811 -0.040782858 0.79300004 1.297754559e-38
0.28317145 -0.040885713 0.79500002 1.325448841e-38
0.28692001 -0.040988572 0.79700005 1.417212591e-38
0.28995618 -0.040988572 0.79700005 1.343673148e-38
0.29299241 -0.040988572 0.79700005 1.362148287e-38
0.29602858 -0.040988572 0.79700005 1.362256047e-38
0.29944003 -0.041040003 0.79800004 1.408173094e-38
0.30248001 -0.041040003 0.79800004 1.399133038e-38
0.30552003 -0.041040003 0.79800004 1.408246382e-38
0.30933335 -0.041142859 0.80000001 1.435941085e-38
0.31394288 -0.041348573 0.80400002 1.426721662e-38
0.31779429 -0.041451432 0.80600005 1.53674419e-38
0.32086477 -0.041451432 0.80600005 1.490970916e-38
0.3255429 -0.041657142 0.81000006 1.49079183e-38
0.33025143 -0.041862857 0.81400001 1.435761578e-38
0.3337619 -0.041914288 0.81500006 1.417501118e-38
0.33769333 -0.042017143 0.81700003 1.399060871e-38
0.34247431 -0.042222861 0.82100004 1.389591456e-38
0.3464438 -0.042325716 0.82300001 1.343208477e-38
0.35042858 -0.042428575 0.82500005 1.260770509e-38
0.35700002 -0.04284 0.83300006 1.186552137e-38
0.36103812 -0.042942859 0.83500004 1.261570931e-38
0.21896002 -0.038727619 0.78200006 1.021133338e-38
0.22193907 -0.038727619 0.78200006 9.748928705e-39
0.22491811 -0.038727619 0.78200006 7.73069598e-39
0.22789717 -0.038727619 0.78200006 8.832719131e-39
0.23087621 -0.038727619 0.78200006 9.200422651e-39
0.23445334 -0.038826667 0.78400004 9.846513728e-39
0.2368343 -0.038727619 0.78200006 1.122908384e-38
0.24042667 -0.038826667 0.78400004 1.20577585e-38
0.24341334 -0.038826667 0.78400004 1.279064601e-38
0.24702857 -0.038925715 0.78600001 1.214779753e-38
0.25002286 -0.038925715 0.78600001 1.205631937e-38
0.25301713 -0.038925715 0.78600001 1.251515353e-38
0.25536001 -0.038826667 0.78400004 1.361646482e-38
0.2590057 -0.038925715 0.78600001 1.251012427e-38
0.26199999 -0.038925715 0.78600001 1.260229888e-38
0.26499429 -0.038925715 0.78600001 1.278847259e-38
0.26867047 -0.039024763 0.78800005 1.287996757e-38
0.27201715 -0.039074287 0.78900003 1.251550666e-38
0.27572 -0.039173331 0.79100001 1.187337425e-38
0.27943811 -0.039272383 0.79300004 1.270205311e-38
0.28317145 -0.039371427 0.79500002 1.307118876e-38
0.28692001 -0.039470479 0.79700005 1.371330716e-38
0.29032004 -0.039520003 0.79800004 1.343673568e-38
0.29336002 -0.039520003 0.79800004 1.39881116e-38
0.29640001 -0.039520003 0.79800004 1.362220874e-38
0.29944003 -0.039520003 0.79800004 1.398954653e-38
0.30248001 -0.039520003 0.79800004 1.389914175e-38
0.30552003 -0.039520003 0.79800004 1.408210649e-38
0.30933335 -0.039619051 0.80000001 1.435798152e-38
0.31394288 -0.039817143 0.80400002 1.40821149e-38
0.31779429 -0.039916191 0.80600005 1.591845348e-38
0.32166097 -0.040015239 0.80800003 1.509265428e-38
0.3255429 -0.040114287 0.81000006 1.536779223e-38
0.32944003 -0.040213335 0.81200004 1.454091964e-38
0.3337619 -0.040361907 0.81500006 1.417430212e-38
0.33769333 -0.040460952 0.81700003 1.408208828e-38
0.34164003 -0.040560003 0.81900007 1.417213572e-38
0.3464438 -0.040758096 0.82300001 1.371225058e-38
0.35042858 -0.040857144 0.82500005 1.297469535e-38
0.35614288 -0.041154288 0.83100003 1.232576384e-38
0.36017337 -0.041253336 0.83300006 1.13220726e-38
0.21896002 -0.037238099 0.78200006 1.058334028e-38
0.22250669 -0.037333332 0.78400004 1.011842168e-38
0.22549334 -0.037333332 0.78400004 8.651556463e-39
0.22848001 -0.037333332 0.78400004 8.924551825e-39
0.23087621 -0.037238099 0.78200006 8.280271224e-39
0.23445334 -0.037333332 0.78400004 9.196852142e-39
0.2368343 -0.037238099 0.78200006 1.048686929e-38
0.24104001 -0.037428569 0.78600001 1.158925118e-38
0.24403428 -0.037428569 0.78600001 1.205666689e-38
0.24702857 -0.037428569 0.78600001 1.159389928e-38
0.25002286 -0.037428569 0.78600001 1.168789558e-38
0.25301713 -0.037428569 0.78600001 1.214602349e-38
0.25601143 -0.037428569 0.78600001 1.28810732e-38
0.2590057 -0.037428569 0.78600001 1.223498492e-38
0.26199999 -0.037428569 0.78600001 1.260302896e-38
0.26499429 -0.037428569 0.78600001 1.278991173e-38
0.26867047 -0.03752381 0.78800005 1.269628957e-38
0.27270669 -0.037666667 0.79100001 1.214528781e-38
0.27641714 -0.037761904 0.79300004 1.187229805e-38
0.28014284 -0.037857141 0.79500002 1.233472654e-38
0.28388384 -0.037952382 0.79700005 1.279318376e-38
0.28728002 -0.038000003 0.79800004 1.334596517e-38
0.29032004 -0.038000003 0.79800004 1.325306749e-38
0.29409525 -0.038095236 0.80000001 1.371189325e-38
0.29640001 -0.038000003 0.79800004 1.353002152e-38
0.29944003 -0.038000003 0.79800004 1.417251126e-38
0.30323809 -0.038095236 0.80000001 1.389807116e-38
0.30628571 -0.038095236 0.80000001 1.408174916e-38
0.31010669 -0.038190477 0.80200005 1.435691093e-38
0.31394288 -0.038285714 0.80400002 1.435726686e-38
0.31858286 -0.038476191 0.80800003 1.53685167e-38
0.32166097 -0.038476191 0.80800003 1.472494656e-38
0.3255429 -0.038571432 0.81000006 1.472599893e-38
0.32944003 -0.038666669 0.81200004 1.45405539e-38
0.3337619 -0.038809527 0.81500006 1.417466786e-38
0.33769333 -0.038904764 0.81700003 1.380694472e-38
0.34164003 -0.039000005 0.81900007 1.417285038e-38
0.34560192 -0.039095242 0.82100004 1.380480074e-38
0.35042858 -0.039285716 0.82500005 1.324984871e-38
0.35614288 -0.039571431 0.83100003 1.251049982e-38
0.35930857 -0.039571431 0.83100003 1.177331173e-38
0.22101334 -0.035840005 0.78400004 1.077061822e-38
0.22400001 -0.035840005 0.78400004 1.003267203e-38
0.22698668 -0.035840005 0.78400004 9.295500751e-39
0.22997335 -0.035840005 0.78400004 8.187355327e-39
0.23236573 -0.035748575 0.78200006 8.004054278e-39
0.23534477 -0.035748575 0.78200006 9.105011041e-39
0.23893334 -0.035840005 0.78400004 1.048541474e-38
0.24253714 -0.035931427 0.78600001 1.122584684e-38
0.2461562 -0.036022857 0.78800005 1.121974559e-38
0.24915811 -0.036022857 0.78800005 1.122763349e-38
0.25152001 -0.035931427 0.78600001 1.159678876e-38
0.25451428 -0.035931427 0.78600001 1.196449648e-38
0.25816384 -0.036022857 0.78800005 1.21463598e-38
0.26116574 -0.036022857 0.78800005 1.232931473e-38
0.26416764 -0.036022857 0.78800005 1.278846839e-38
0.26716954 -0.036022857 0.78800005 1.269483783e-38
0.27051428 -0.036068574 0.78900003 1.223388911e-38
0.27560002 -0.036342856 0.79500002 1.187158199e-38
0.27932954 -0.036434289 0.79700005 1.187408751e-38
0.28236571 -0.036434289 0.79700005 1.224324978e-38
0.28576002 -0.036480002 0.79800004 1.27020405e-38
0.28952381 -0.036571428 0.80000001 1.307081602e-38
0.29257143 -0.036571428 0.80000001 1.32530703e-38
0.29561904 -0.036571428 0.80000001 1.343780627e-38
0.29866666 -0.036571428 0.80000001 1.389664044e-38
0.3017143 -0.036571428 0.80000001 1.408245401e-38
0.30476189 -0.036571428 0.80000001 1.398670189e-38
0.30780953 -0.036571428 0.80000001 1.426650196e-38
0.31241143 -0.036754288 0.80400002 1.454129659e-38
0.31625906 -0.036845718 0.80600005 1.47253123e-38
0.32012191 -0.036937144 0.80800003 1.463311246e-38
0.324 -0.037028577 0.81000006 1.426720961e-38
0.32789335 -0.03712 0.81200004 1.435937441e-38
0.33180189 -0.037211426 0.81400001 1.435870179e-38
0.3353143 -0.037257146 0.81500006 1.389949628e-38
0.33924952 -0.037348576 0.81700003 1.389698235e-38
0.3432 -0.037440002 0.81900007 1.408173515e-38
0.34801143 -0.037622858 0.82300001 1.380014002e-38
0.35285333 -0.037805714 0.82700002 1.315621535e-38
0.35686478 -0.037897147 0.82900006 1.251050122e-38
0.36002287 -0.037897147 0.82900006 1.177295019e-38
0.22400001 -0.03434667 0.78400004 1.021957441e-38
0.22756571 -0.034434289 0.78600001 9.665369277e-39
0.22997335 -0.03434667 0.78400004 8.927067155e-39
0.23236573 -0.034259051 0.78200006 8.741964036e-39
0.23594669 -0.03434667 0.78400004 9.198984918e-39
0.23893334 -0.03434667 0.78400004 9.291888204e-39
0.24253714 -0.034434289 0.78600001 9.844009608e-39
0.2461562 -0.034521904 0.78800005 1.002840087e-38
0.24915811 -0.034521904 0.78800005 1.021313685e-38
0.25216001 -0.034521904 0.78800005 1.094892224e-38
0.25516191 -0.034521904 0.78800005 1.131982492e-38
0.25816384 -0.034521904 0.78800005 1.150564831e-38
0.26116574 -0.034521904 0.78800005 1.131623339e-38
0.26416764 -0.034521904 0.78800005 1.140841921e-38
0.26750857 -0.034565717 0.78900003 1.140590248e-38
0.2712 -0.034653336 0.79100001 1.122190499e-38
0.27664 -0.034959998 0.79800004 1.140953885e-38
0.27967998 -0.034959998 0.79800004 1.159714049e-38
0.28342858 -0.035047617 0.80000001 1.196556988e-38
0.28647619 -0.035047617 0.80000001 1.242617388e-38
0.28952381 -0.035047617 0.80000001 1.288606883e-38
0.29257143 -0.035047617 0.80000001 1.306974542e-38
0.29561904 -0.035047617 0.80000001 1.334560644e-38
0.29866666 -0.035047617 0.80000001 1.371366589e-38
0.3017143 -0.035047617 0.80000001 1.371403583e-38
0.30476189 -0.035047617 0.80000001 1.380663784e-38
0.30857906 -0.035135239 0.80200005 1.426614743e-38
0.31241143 -0.035222858 0.80400002 1.454235877e-38
0.31625906 -0.035310481 0.80600005 1.463383553e-38
0.32012191 -0.0353981 0.80800003 1.463311386e-38
0.324 -0.035485715 0.81000006 1.463384114e-38
0.32708573 -0.035485715 0.81000006 1.454199303e-38
0.33180189 -0.035660952 0.81400001 1.435796611e-38
0.3353143 -0.035704762 0.81500006 1.408208968e-38
0.33924952 -0.035792381 0.81700003 1.417248744e-38
0.3432 -0.035880003 0.81900007 1.426469288e-38
0.34801143 -0.036055241 0.82300001 1.380371893e-38
0.35200003 -0.036142856 0.82500005 1.33416786e-38
0.35686478 -0.036318097 0.82900006 1.2879997e-38
0.36089143 -0.036405716 0.83100003 1.223642406e-38
0.36493334 -0.036493339 0.83300006 1.113542525e-38
0.22606857 -0.032937143 0.78600001 1.012738999e-38
0.22906286 -0.032937143 0.78600001 9.941926739e-39
0.23146667 -0.032853335 0.78400004 9.572066622e-39
0.23445334 -0.032853335 0.78400004 9.56919396e-39
0.23744 -0.032853335 0.78400004 9.200412842e-39
0.24165334 -0.033020955 0.78800005 7.272593295e-39
0.24465524 -0.033020955 0.78800005 9.569209374e-39
0.24765715 -0.033020955 0.78800005 8.374984988e-39
0.25065905 -0.033020955 0.78800005 1.002874559e-38
0.25398287 -0.03306286 0.78900003 1.05779635e-38
0.25698858 -0.03306286 0.78900003 1.094637327e-38
0.26065335 -0.033146668 0.79100001 1.085418185e-38
0.26366666 -0.033146668 0.79100001 9.658528138e-39
0.26735431 -0.033230476 0.79300004 1.03932079e-38
0.27105716 -0.033314284 0.79500002 9.842920799e-39
0.27511999 -0.033440001 0.79800004 1.076237438e-38
0.27885717 -0.033523809 0.80000001 1.113473862e-38
0.28190476 -0.033523809 0.80000001 1.141203456e-38
0.2849524 -0.033523809 0.80000001 1.196449508e-38
0.28799999 -0.033523809 0.80000001 1.242618509e-38
0.29104763 -0.033523809 0.80000001 1.297790712e-38
0.2948305 -0.033607621 0.80200005 1.297790152e-38
0.29788575 -0.033607621 0.80200005 1.362182619e-38
0.30094096 -0.033607621 0.80200005 1.352964037e-38
0.30399621 -0.033607621 0.80200005 1.325521989e-38
0.30705145 -0.033607621 0.80200005 1.39902696e-38
0.31088001 -0.033691429 0.80400002 1.481786105e-38
0.31394288 -0.033691429 0.80400002 1.454235457e-38
0.31858286 -0.033859048 0.80800003 1.463311807e-38
0.32166097 -0.033859048 0.80800003 1.463383413e-38
0.3255429 -0.03394286 0.81000006 1.536779783e-38
0.32944003 -0.034026667 0.81200004 1.435796331e-38
0.3337619 -0.034152381 0.81500006 1.444907573e-38
0.33686668 -0.034152381 0.81500006 1.417248324e-38
0.34080571 -0.034236193 0.81700003 1.481570165e-38
0.34476 -0.034320004 0.81900007 1.426469708e-38
0.34957907 -0.03448762 0.82300001 1.361968921e-38
0.35442859 -0.034655239 0.82700002 1.352570412e-38
0.35844383 -0.034739047 0.82900006 1.306509171e-38
0.36247429 -0.034822859 0.83100003 1.251442065e-38
0.36740002 -0.034990478 0.83500004 1.141060244e-38
0.22756571 -0.031440001 0.78600001 9.759320734e-39
0.23055999 -0.031440001 0.78600001 1.012487606e-38
0.23355429 -0.031440001 0.78600001 1.012522359e-38
0.23654857 -0.031440001 0.78600001 9.757165537e-39
0.23893334 -0.03136 0.78400004 9.022480166e-39
0.24315429 -0.031520002 0.78800005 9.205081968e-39
0.2461562 -0.031520002 0.78800005 9.480232527e-39
0.24947429 -0.03156 0.78900003 9.479147922e-39
0.25248 -0.03156 0.78900003 1.002909451e-38
0.25613335 -0.031640001 0.79100001 1.021203683e-38
0.25914666 -0.031640001 0.79100001 1.030459259e-38
0.26216 -0.031640001 0.79100001 9.658169406e-39
0.26651427 -0.031799998 0.79500002 8.923851175e-39
0.27022097 -0.031880002 0.79700005 9.016394327e-39
0.2742857 -0.032000002 0.80000001 9.65854075e-39
0.27733335 -0.032000002 0.80000001 1.030320671e-38
0.28038093 -0.032000002 0.80000001 1.095105501e-38
0.28342858 -0.032000002 0.80000001 1.159570556e-38
0.28647619 -0.032000002 0.80000001 1.2057432e-38
0.29024762 -0.032080002 0.80200005 1.251802339e-38
0.29330286 -0.032080002 0.80200005 1.288570449e-38
0.29635811 -0.032080002 0.80200005 1.32533982e-38
0.29941335 -0.032080002 0.80200005 1.362147026e-38
0.30246857 -0.032080002 0.80200005 1.362148147e-38
0.30552381 -0.032080002 0.80200005 1.371435953e-38
0.30934858 -0.032160003 0.80400002 1.426613201e-38
0.31318858 -0.03224 0.80600005 1.454233635e-38
0.31625906 -0.03224 0.80600005 1.454092944e-38
0.32012191 -0.03232 0.80800003 1.444944567e-38
0.324 -0.032400005 0.81000006 1.463419146e-38
0.32708573 -0.032400005 0.81000006 1.463274953e-38
0.33180189 -0.032559998 0.81400001 1.472530669e-38
0.3353143 -0.032600004 0.81500006 1.472385635e-38
0.33924952 -0.032680001 0.81700003 1.444833585e-38
0.3432 -0.032760002 0.81900007 1.435691373e-38
0.34716573 -0.032840002 0.82100004 1.362148287e-38
0.35114667 -0.032920003 0.82300001 1.352784671e-38
0.35600382 -0.03308 0.82700002 1.352677471e-38
0.35915428 -0.03308 0.82700002 1.297396807e-38
0.36318097 -0.033160001 0.82900006 1.233038672e-38
0.36810669 -0.033320002 0.83300006 1.168248236e-38
0.37128001 -0.033320002 0.83300006 1.122124638e-38
0.23055999 -0.029942857 0.78600001 1.058620033e-38
0.23355429 -0.029942857 0.78600001 1.067588343e-38
0.23654857 -0.029942857 0.78600001 1.012665992e-38
0.23893334 -0.029866667 0.78400004 9.852233829e-39
0.24315429 -0.03001905 0.78800005 1.003303636e-38
0.2461562 -0.03001905 0.78800005 9.939772944e-39
0.24947429 -0.030057143 0.78900003 9.850082836e-39
0.25248 -0.030057143 0.78900003 9.756462085e-39
0.25613335 -0.030133333 0.79100001 9.664258047e-39
0.25980192 -0.030209525 0.79300004 9.753583818e-39
0.26282287 -0.030209525 0.79300004 9.105009639e-39
0.26752001 -0.030400002 0.79800004 7.913657915e-39
0.2732724 -0.030704763 0.80600005 7.914720099e-39
0.27565715 -0.030628571 0.80400002 9.015689474e-39
0.27802667 -0.030552382 0.80200005 9.75182659e-39
0.28108191 -0.030552382 0.80200005 1.076595189e-38
0.28413716 -0.030552382 0.80200005 1.150386445e-38
0.28719237 -0.030552382 0.80200005 1.205598025e-38
0.29024762 -0.030552382 0.80200005 1.242582075e-38
0.29330286 -0.030552382 0.80200005 1.288605762e-38
0.29635811 -0.030552382 0.80200005 1.33452379e-38
0.29941335 -0.030552382 0.80200005 1.380406506e-38
0.30246857 -0.030552382 0.80200005 1.389842429e-38
0.30552381 -0.030552382 0.80200005 1.389805154e-38
0.30934858 -0.030628571 0.80400002 1.417501538e-38
0.31318858 -0.030704763 0.80600005 1.445050646e-38
0.31625906 -0.030704763 0.80600005 1.444910516e-38
0.32012191 -0.030780952 0.80800003 1.43579549e-38
0.324 -0.030857144 0.81000006 1.435869058e-38
0.32789335 -0.030933335 0.81200004 1.444980301e-38
0.33180189 -0.031009525 0.81400001 1.509265008e-38
0.3353143 -0.031047622 0.81500006 1.509048227e-38
0.33924952 -0.03112381 0.81700003 1.454053848e-38
0.3423619 -0.03112381 0.81700003 1.417358746e-38
0.34716573 -0.031276189 0.82100004 1.334561765e-38
0.35114667 -0.031352382 0.82300001 1.352890188e-38
0.35514289 -0.031428572 0.82500005 1.380372174e-38
0.35915428 -0.031504765 0.82700002 1.325018782e-38
0.36318097 -0.031580955 0.82900006 1.269736857e-38
0.36722288 -0.031657144 0.83100003 1.214490385e-38
0.37128001 -0.031733338 0.83300006 1.159179593e-38
0.24797145 -0.028554287 0.78900003 9.942645606e-39
0.25161332 -0.028626667 0.79100001 1.067732957e-38
0.25462666 -0.028626667 0.79100001 9.942644204e-39
0.25829145 -0.028699048 0.79300004 1.012595226e-38
0.2613124 -0.028699048 0.79300004 9.755031359e-39
0.26666665 -0.028952381 0.80000001 9.104652308e-39
0.27173716 -0.029169526 0.80600005 7.820735011e-39
0.27480763 -0.029169526 0.80600005 8.650127138e-39
0.27787814 -0.029169526 0.80600005 9.200082135e-39
0.28025144 -0.029097142 0.80400002 1.00287596e-38
0.28260955 -0.029024763 0.80200005 1.085814612e-38
0.2856648 -0.029024763 0.80200005 1.159498529e-38
0.28872001 -0.029024763 0.80200005 1.20566795e-38
0.29177526 -0.029024763 0.80200005 1.205738716e-38
0.2948305 -0.029024763 0.80200005 1.361966679e-38
0.29788575 -0.029024763 0.80200005 1.334452744e-38
0.30169141 -0.029097142 0.80400002 1.37136729e-38
0.3055124 -0.029169526 0.80600005 1.362184721e-38
0.30781716 -0.029097142 0.80400002 1.408282256e-38
0.31165335 -0.029169526 0.80600005 1.445051907e-38
0.31472382 -0.029169526 0.80600005 1.463456281e-38
0.31858286 -0.029241905 0.80800003 1.435761158e-38
0.32245716 -0.029314287 0.81000006 1.43579605e-38
0.3255429 -0.029314287 0.81000006 1.399063533e-38
0.32944003 -0.029386668 0.81200004 1.435761298e-38
0.33335239 -0.029459048 0.81400001 1.509120954e-38
0.33686668 -0.029495239 0.81500006 1.463238239e-38
0.34080571 -0.02956762 0.81700003 1.472386476e-38
0.34391811 -0.02956762 0.81700003 1.398918499e-38
0.34872952 -0.029712383 0.82100004 1.307152227e-38
0.3527143 -0.029784761 0.82300001 1.380405805e-38
0.35671431 -0.029857146 0.82500005 1.343673428e-38
0.36072955 -0.029929524 0.82700002 1.306686576e-38
0.36564001 -0.030074287 0.83100003 1.260732534e-38
0.36969337 -0.03014667 0.83300006 1.214672414e-38
0.37376192 -0.030219048 0.83500004 1.168754385e-38
0.38145715 -0.030580953 0.84500003 1.122550492e-38
0.24947429 -0.02705143 0.78900003 1.076987973e-38
0.25248 -0.02705143 0.78900003 1.095355493e-38
0.25678098 -0.027188573 0.79300004 1.049545505e-38
0.25980192 -0.027188573 0.79300004 1.012667533e-38
0.26348573 -0.027257143 0.79500002 9.752890175e-39
0.27087238 -0.027702859 0.80800003 9.105364168e-39
0.27462858 -0.02777143 0.81000006 8.555776312e-39
0.27771431 -0.02777143 0.81000006 8.833090475e-39
0.27941337 -0.027634287 0.80600005 9.475234095e-39
0.28248385 -0.027634287 0.80600005 1.012130696e-38
0.28484571 -0.027565714 0.80400002 1.085992998e-38
0.28790858 -0.027565714 0.80400002 1.159390769e-38
0.29097146 -0.027565714 0.80400002 1.168789418e-38
0.29330286 -0.027497144 0.80200005 1.279313892e-38
0.29709715 -0.027565714 0.80400002 1.371115336e-38
0.30015999 -0.027565714 0.80400002 1.334453585e-38
0.30397716 -0.027634287 0.80600005 1.343709722e-38
0.30704764 -0.027634287 0.80600005 1.389664324e-38
0.31011811 -0.027634287 0.80600005 1.435762419e-38
0.31318858 -0.027634287 0.80600005 1.463344317e-38
0.31625906 -0.027634287 0.80600005 1.454273011e-38
0.32012191 -0.027702859 0.80800003 1.435723463e-38
0.324 -0.02777143 0.81000006 1.398991367e-38
0.32789335 -0.027840002 0.81200004 1.399170873e-38
0.33098668 -0.027840002 0.81200004 1.444873522e-38
0.3353143 -0.027942859 0.81500006 1.463238659e-38
0.33924952 -0.028011428 0.81700003 1.481641912e-38
0.3423619 -0.028011428 0.81700003 1.453912317e-38
0.34632 -0.028080003 0.81900007 1.37136799e-38
