# .PCD v0.7 - Point Cloud Data file format
VERSION 0.7
FIELDS x y z rgb
SIZE 4 4 4 4
TYPE F F F F
COUNT 1 1 1 1
WIDTH 974
HEIGHT 1
VIEWPOINT 0 0 0 1 0 0 0
POINTS 974
DATA ascii
0.23113143 0.086308569 0.76800001 1.453805258e-38
0.23405714 0.086308569 0.76800001 1.463060974e-38
0.23698285 0.086308569 0.76800001 1.463242863e-38
0.23990858 0.086308569 0.76800001 1.481606459e-38
0.24283428 0.086308569 0.76800001 1.472497599e-38
0.24576001 0.086308569 0.76800001 1.444800934e-38
0.2486857 0.086308569 0.76800001 1.426507123e-38
0.25161144 0.086308569 0.76800001 1.426469008e-38
0.25453714 0.086308569 0.76800001 1.4264393e-38
0.25813335 0.086533338 0.77000004 1.426219016e-38
0.26106668 0.086533338 0.77000004 1.453881489e-38
0.264 0.086533338 0.77000004 1.47231543e-38
0.26693335 0.086533338 0.77000004 1.463168454e-38
0.26986668 0.086533338 0.77000004 1.444801915e-38
0.27209145 0.086308569 0.76800001 1.435692634e-38
0.27501714 0.086308569 0.76800001 1.463168874e-38
0.27794284 0.086308569 0.76800001 1.481466329e-38
0.28086856 0.086308569 0.76800001 1.490646656e-38
0.28379428 0.086308569 0.76800001 1.490681828e-38
0.28746668 0.086533338 0.77000004 1.518160591e-38
0.2904 0.086533338 0.77000004 1.508978022e-38
0.29333335 0.086533338 0.77000004 1.508977742e-38
0.29626667 0.086533338 0.77000004 1.499938806e-38
0.2992 0.086533338 0.77000004 1.463345578e-38
0.30291808 0.086758092 0.77200001 1.454021899e-38
0.30625525 0.086870477 0.77300006 1.49046785e-38
0.31 0.087095238 0.77500004 1.490613725e-38
0.31375998 0.08732 0.77700001 1.435507663e-38
0.31672001 0.08732 0.77700001 1.389661802e-38
0.32050288 0.087544769 0.77900004 1.426176977e-38
0.32347047 0.087544769 0.77900004 1.444336824e-38
0.32685715 0.087657146 0.78000003 1.380013161e-38
0.33067432 0.087881915 0.78200006 1.352390345e-38
0.33450669 0.088106669 0.78400004 1.342990715e-38
0.33835429 0.088331431 0.78600001 1.351961128e-38
0.34134859 0.088331431 0.78600001 1.333518919e-38
0.34521905 0.0885562 0.78800005 1.269341131e-38
0.34954667 0.088893332 0.79100001 1.223566455e-38
0.35256001 0.088893332 0.79100001 1.195943359e-38
0.3564724 0.089118101 0.79300004 1.168178872e-38
0.36040002 0.089342862 0.79500002 1.12211623e-38
0.36434287 0.089567624 0.79700005 1.057544817e-38
0.36784002 0.089680001 0.79800004 1.002374856e-38
0.37273908 0.090129524 0.80200005 9.473066286e-39
0.37766859 0.090579055 0.80600005 9.014652513e-39
0.3816838 0.090803809 0.80800003 8.463957631e-39
0.38761905 0.091478094 0.81400001 7.542018148e-39
0.39408001 0.092264764 0.82100004 7.354018545e-39
0.39817524 0.092489518 0.82300001 8.268791787e-39
0.40521145 0.09338858 0.83100003 9.556273988e-39
0.40837717 0.09338858 0.83100003 1.095076074e-38
0.4095619 0.092939049 0.82700002 1.253534484e-38
0.4137105 0.093163818 0.82900006 1.429783359e-38
0.1367238 0.084571429 0.74000001 1.122334692e-38
0.13954286 0.084571429 0.74000001 1.444119063e-38
0.14236189 0.084571429 0.74000001 1.407528357e-38
0.14557333 0.084800005 0.74200004 1.371331276e-38
0.1486 0.084914289 0.74300003 1.352461111e-38
0.15183809 0.085142866 0.74500006 1.306327563e-38
0.15509143 0.085371435 0.74700004 1.278668874e-38
0.15814857 0.085485712 0.74800003 1.260302615e-38
0.16099809 0.085485712 0.74800003 1.251299413e-38
0.16428573 0.085714296 0.75000006 1.352857398e-38
0.16758858 0.085942864 0.75200003 1.417214973e-38
0.17068 0.086057141 0.75300002 1.398954933e-38
0.17354856 0.086057141 0.75300002 1.352856277e-38
0.17688572 0.086285718 0.75500005 1.3436e-38
0.17976192 0.086285718 0.75500005 1.324981087e-38
0.18288001 0.086400002 0.75600004 1.278883693e-38
0.18674287 0.086857148 0.76000005 1.150422599e-38
0.18963811 0.086857148 0.76000005 1.30683161e-38
0.19253334 0.086857148 0.76000005 1.371224217e-38
0.19542858 0.086857148 0.76000005 1.407921842e-38
0.19858477 0.086971432 0.76100004 1.417069098e-38
0.20148382 0.086971432 0.76100004 1.407849675e-38
0.20491999 0.087199993 0.76300001 1.43547193e-38
0.20782667 0.087199993 0.76300001 1.398665845e-38
0.21073334 0.087199993 0.76300001 1.407598702e-38
0.21364 0.087199993 0.76300001 1.425966502e-38
0.2171143 0.08742857 0.76500005 1.426183423e-38
0.22002858 0.08742857 0.76500005 1.435294666e-38
0.22381714 0.087771431 0.76800001 1.435112357e-38
0.22674286 0.087771431 0.76800001 1.416781551e-38
0.22966857 0.087771431 0.76800001 1.426075383e-38
0.23259428 0.087771431 0.76800001 1.435437738e-38
0.23552001 0.087771431 0.76800001 1.426361808e-38
0.23844571 0.087771431 0.76800001 1.454091964e-38
0.24137142 0.087771431 0.76800001 1.518412404e-38
0.24429713 0.087771431 0.76800001 1.45405553e-38
0.24722287 0.087771431 0.76800001 1.444835827e-38
0.25014856 0.087771431 0.76800001 1.454054969e-38
0.25307429 0.087771431 0.76800001 1.426469428e-38
0.25599998 0.087771431 0.76800001 1.41717952e-38
0.25892571 0.087771431 0.76800001 1.417035747e-38
0.26185143 0.087771431 0.76800001 1.518089825e-38
0.26546669 0.088 0.77000004 1.45383973e-38
0.26770288 0.087771431 0.76800001 1.527453161e-38
0.27062857 0.087771431 0.76800001 1.362258009e-38
0.27355427 0.087771431 0.76800001 1.435689972e-38
0.27648002 0.087771431 0.76800001 1.45394791e-38
0.27940571 0.087771431 0.76800001 1.500080477e-38
0.28233144 0.087771431 0.76800001 1.380515246e-38
0.28525713 0.087771431 0.76800001 1.509156547e-38
0.28818285 0.087771431 0.76800001 1.555074716e-38
0.29186669 0.088 0.77000004 1.499973558e-38
0.29480001 0.088 0.77000004 1.545890045e-38
0.29773337 0.088 0.77000004 1.472385495e-38
0.30066669 0.088 0.77000004 1.426612781e-38
0.30438858 0.088228568 0.77200001 1.472136764e-38
0.30772763 0.088342868 0.77300006 1.545676767e-38
0.3114762 0.088571437 0.77500004 1.453839309e-38
0.31524 0.088799998 0.77700001 1.407991907e-38
0.31820002 0.088799998 0.77700001 1.39884423e-38
0.32198671 0.089028575 0.77900004 1.416962038e-38
0.3249543 0.089028575 0.77900004 1.398344948e-38
0.32834285 0.089142859 0.78000003 1.352389224e-38
0.33216384 0.089371435 0.78200006 1.343133368e-38
0.33600003 0.089600004 0.78400004 1.324515716e-38
0.33985141 0.089828573 0.78600001 1.324299916e-38
0.34284571 0.089828573 0.78600001 1.26923295e-38
0.34672004 0.09005715 0.78800005 1.223422542e-38
0.35105336 0.090399995 0.79100001 1.195872033e-38
0.35406664 0.090399995 0.79100001 1.168179573e-38
0.35888574 0.090857141 0.79500002 1.149704854e-38
0.36328003 0.091200002 0.79800004 1.04861266e-38
0.3672381 0.09142857 0.80000001 9.748219648e-39
0.37121147 0.091657147 0.80200005 9.289040765e-39
0.37613335 0.092114292 0.80600005 8.922419048e-39
0.38202667 0.092799999 0.81200004 8.921698781e-39
0.38844001 0.093600005 0.81900007 7.446222582e-39
0.39251623 0.093828574 0.82100004 6.338479331e-39
0.39660764 0.094057143 0.82300001 6.621191296e-39
0.40071431 0.094285719 0.82500005 1.067847303e-38
0.40777335 0.095200002 0.83300006 1.336004962e-38
0.13531429 0.085980952 0.74000001 1.14877299e-38
0.13794668 0.085864767 0.73900002 1.241793144e-38
0.14076191 0.085864767 0.73900002 1.361322782e-38
0.14377144 0.085980952 0.74000001 1.33405954e-38
0.14698668 0.086213335 0.74200004 1.324838856e-38
0.15041906 0.086561911 0.74500006 1.29710842e-38
0.15366857 0.086794287 0.74700004 1.260371699e-38
0.15672383 0.086910479 0.74800003 1.241897681e-38
0.15957333 0.086910479 0.74800003 1.24197167e-38
0.16242287 0.086910479 0.74800003 1.278921668e-38
0.16615619 0.087375239 0.75200003 1.334417712e-38
0.16902097 0.087375239 0.75200003 1.362148848e-38
0.17211428 0.08749143 0.75300002 1.334559383e-38
0.17544763 0.087723814 0.75500005 1.306866362e-38
0.17832382 0.087723814 0.75500005 1.297573091e-38
0.18144001 0.087839998 0.75600004 1.269841955e-38
0.18480763 0.088072382 0.75800002 1.223887493e-38
0.18769524 0.088072382 0.75800002 1.242365995e-38
0.19108573 0.088304773 0.76000005 1.306794896e-38
0.19398096 0.088304773 0.76000005 1.343385041e-38
0.19713524 0.088420957 0.76100004 1.352673968e-38
0.20003429 0.088420957 0.76100004 1.352673688e-38
0.20346667 0.088653333 0.76300001 1.334271977e-38
0.20637333 0.088653333 0.76300001 1.325125561e-38
0.20928 0.088653333 0.76300001 1.343349168e-38
0.21218666 0.088653333 0.76300001 1.37990442e-38
0.21509334 0.088653333 0.76300001 1.398452427e-38
0.21800001 0.088653333 0.76300001 1.416819807e-38
0.22206476 0.089118101 0.76700002 1.425857901e-38
0.22498667 0.089118101 0.76700002 1.407559606e-38
0.22820571 0.089234285 0.76800001 1.398416834e-38
0.23113143 0.089234285 0.76800001 1.407710946e-38
0.23405714 0.089234285 0.76800001 1.389515786e-38
0.23698285 0.089234285 0.76800001 1.407922963e-38
0.23990858 0.089234285 0.76800001 1.453838469e-38
0.24283428 0.089234285 0.76800001 1.463095306e-38
0.24576001 0.089234285 0.76800001 1.44479659e-38
0.2486857 0.089234285 0.76800001 1.435652417e-38
0.25161144 0.089234285 0.76800001 1.417316987e-38
0.25453714 0.089234285 0.76800001 1.398918639e-38
0.25746286 0.089234285 0.76800001 1.389626489e-38
0.26038855 0.089234285 0.76800001 1.398667246e-38
0.26331431 0.089234285 0.76800001 1.426250405e-38
0.26624 0.089234285 0.76800001 1.46313146e-38
0.26916569 0.089234285 0.76800001 1.454057071e-38
0.27209145 0.089234285 0.76800001 1.426577608e-38
0.27501714 0.089234285 0.76800001 1.453983503e-38
0.27794284 0.089234285 0.76800001 1.490892864e-38
0.28050286 0.089118101 0.76700002 1.472385775e-38
0.28379428 0.089234285 0.76800001 1.453948611e-38
0.28634667 0.089118101 0.76700002 1.50000803e-38
0.2904 0.089466669 0.77000004 1.4999751e-38
0.29333335 0.089466669 0.77000004 1.50000803e-38
0.29626667 0.089466669 0.77000004 1.490749371e-38
0.2992 0.089466669 0.77000004 1.472385915e-38
0.30213335 0.089466669 0.77000004 1.472351723e-38
0.30585906 0.089699045 0.77200001 1.490646656e-38
0.30920002 0.089815244 0.77300006 1.472242562e-38
0.31295237 0.09004762 0.77500004 1.426177117e-38
0.31672001 0.090279996 0.77700001 1.398629551e-38
0.32050288 0.09051238 0.77900004 1.389482435e-38
0.32347047 0.09051238 0.77900004 1.380086309e-38
0.32685715 0.090628572 0.78000003 1.352353071e-38
0.33067432 0.090860955 0.78200006 1.3248006e-38
0.33450669 0.091093332 0.78400004 1.306290989e-38
0.33835429 0.091325715 0.78600001 1.297035693e-38
0.34134859 0.091325715 0.78600001 1.26923281e-38
0.34521905 0.091558106 0.78800005 1.223349955e-38
0.34866285 0.091674291 0.78900003 1.186580443e-38
0.35256001 0.091906667 0.79100001 1.158923436e-38
0.3564724 0.09213905 0.79300004 1.131341678e-38
0.36176002 0.092720002 0.79800004 1.076199883e-38
0.36571428 0.092952378 0.80000001 9.841490073e-39
0.36968383 0.093184769 0.80200005 9.196117862e-39
0.37552762 0.093881905 0.80800003 8.36924667e-39
0.37860572 0.093881905 0.80800003 7.908616043e-39
0.38499048 0.094695248 0.81500006 8.554335777e-39
0.39095241 0.095392384 0.82100004 9.471254407e-39
0.39503998 0.09562476 0.82300001 1.068639177e-38
0.39914289 0.095857151 0.82500005 1.300168155e-38
0.40228572 0.095857151 0.82500005 1.485027869e-38
0.13531429 0.087390475 0.74000001 1.139408393e-38
0.13794668 0.087272383 0.73900002 1.214276267e-38
0.14076191 0.087272383 0.73900002 1.30618449e-38
0.14377144 0.087390475 0.74000001 1.288032911e-38
0.14698668 0.087626666 0.74200004 1.287709071e-38
0.15001525 0.087744765 0.74300003 1.26955679e-38
0.15366857 0.088217147 0.74700004 1.24200446e-38
0.15672383 0.088335246 0.74800003 1.223530582e-38
0.15957333 0.088335246 0.74800003 1.223567576e-38
0.16285716 0.088571437 0.75000006 1.251190392e-38
0.16615619 0.08880762 0.75200003 1.288427376e-38
0.16924572 0.088925712 0.75300002 1.315691039e-38
0.17211428 0.088925712 0.75300002 1.288282482e-38
0.17544763 0.08916191 0.75500005 1.270202929e-38
0.17832382 0.08916191 0.75500005 1.260730992e-38
0.18144001 0.089280002 0.75600004 1.242364033e-38
0.18480763 0.089516193 0.75800002 1.242291026e-38
0.18769524 0.089516193 0.75800002 1.25137158e-38
0.19108573 0.089752384 0.76000005 1.288609825e-38
0.19398096 0.089752384 0.76000005 1.297145134e-38
0.19713524 0.089870483 0.76100004 1.287994235e-38
0.20003429 0.089870483 0.76100004 1.297500504e-38
0.20293334 0.089870483 0.76100004 1.260730992e-38
0.20637333 0.090106666 0.76300001 1.242544661e-38
0.20928 0.090106666 0.76300001 1.297430859e-38
0.21218666 0.090106666 0.76300001 1.343097915e-38
0.21509334 0.090106666 0.76300001 1.380049174e-38
0.21800001 0.090106666 0.76300001 1.407636257e-38
0.22148572 0.090342864 0.76500005 1.416675613e-38
0.22440001 0.090342864 0.76500005 1.398305851e-38
0.22790857 0.090579048 0.76700002 1.380085608e-38
0.23113143 0.090697147 0.76800001 1.398417955e-38
0.23405714 0.090697147 0.76800001 1.361895493e-38
0.23698285 0.090697147 0.76800001 1.371010519e-38
0.23990858 0.090697147 0.76800001 1.426216914e-38
0.24283428 0.090697147 0.76800001 1.435544377e-38
0.24576001 0.090697147 0.76800001 1.435616264e-38
0.2486857 0.090697147 0.76800001 1.426469288e-38
0.25128379 0.090579048 0.76700002 1.408242599e-38
0.25453714 0.090697147 0.76800001 1.380515246e-38
0.25746286 0.090697147 0.76800001 1.362254786e-38
0.26004952 0.090579048 0.76700002 1.343529655e-38
0.26297143 0.090579048 0.76700002 1.371186943e-38
0.26624 0.090697147 0.76800001 1.444728627e-38
0.26916569 0.090697147 0.76800001 1.463313068e-38
0.27209145 0.090697147 0.76800001 1.454199303e-38
0.27501714 0.090697147 0.76800001 1.472313888e-38
0.27794284 0.090697147 0.76800001 1.508866478e-38
0.28086856 0.090697147 0.76800001 1.499829084e-38
0.28379428 0.090697147 0.76800001 1.472245645e-38
0.28672001 0.090697147 0.76800001 1.481677365e-38
0.2904 0.090933338 0.77000004 1.481607019e-38
0.29333335 0.090933338 0.77000004 1.472313468e-38
0.29626667 0.090933338 0.77000004 1.481495756e-38
0.2992 0.090933338 0.77000004 1.499828664e-38
0.30213335 0.090933338 0.77000004 1.499830906e-38
0.30625525 0.09128762 0.77300006 1.472316411e-38
0.31 0.091523811 0.77500004 1.444727366e-38
0.31375998 0.091760002 0.77700001 1.426142365e-38
0.31672001 0.091760002 0.77700001 1.389518028e-38
0.32050288 0.0919962 0.77900004 1.371151069e-38
0.32347047 0.0919962 0.77900004 1.361717808e-38
0.32685715 0.092114285 0.78000003 1.333913524e-38
0.33067432 0.092350483 0.78200006 1.297213518e-38
0.33450669 0.092586666 0.78400004 1.287923469e-38
0.33835429 0.092822857 0.78600001 1.278775653e-38
0.34134859 0.092822857 0.78600001 1.251045077e-38
0.34521905 0.093059056 0.78800005 1.204982995e-38
0.34866285 0.093177147 0.78900003 1.168106005e-38
0.35256001 0.093413331 0.79100001 1.140413264e-38
0.3564724 0.093649529 0.79300004 1.112901431e-38
0.36176002 0.094240002 0.79800004 1.057976557e-38
0.36571428 0.094476193 0.80000001 9.566698247e-39
0.37060574 0.094948567 0.80400002 8.921323233e-39
0.37645715 0.095657155 0.81000006 7.633117962e-39
0.38048002 0.095893338 0.81200004 6.888084003e-39
0.38499048 0.096247621 0.81500006 9.015009844e-39
0.39095241 0.096956201 0.82100004 1.216507414e-38
0.39503998 0.097192384 0.82300001 1.503214902e-38
0.39817524 0.097192384 0.82300001 1.732805324e-38
0.40228572 0.097428575 0.82500005 1.76972071e-38
0.13813335 0.088799998 0.74000001 1.16828467e-38
0.14095238 0.088799998 0.74000001 1.241755169e-38
0.14377144 0.088799998 0.74000001 1.241611816e-38
0.14698668 0.089040004 0.74200004 1.241682722e-38
0.15001525 0.089160003 0.74300003 1.214311159e-38
0.15387429 0.089759998 0.74800003 1.18643667e-38
0.15672383 0.089759998 0.74800003 1.177397594e-38
0.16000001 0.090000004 0.75000006 1.18676051e-38
0.16285716 0.090000004 0.75000006 1.205199776e-38
0.16615619 0.090240002 0.75200003 1.22360359e-38
0.16924572 0.090360008 0.75300002 1.205414876e-38
0.17211428 0.090360008 0.75300002 1.187047776e-38
0.17544763 0.090600006 0.75500005 1.214598565e-38
0.17832382 0.090600006 0.75500005 1.196266639e-38
0.18144001 0.090720005 0.75600004 1.177649688e-38
0.18480763 0.090960003 0.75800002 1.205306275e-38
0.18769524 0.090960003 0.75800002 1.214459416e-38
0.19108573 0.091200009 0.76000005 1.205099583e-38
0.1942362 0.091320001 0.76100004 1.195947563e-38
0.19713524 0.091320001 0.76100004 1.223494008e-38
0.20003429 0.091320001 0.76100004 1.251044657e-38
0.20346667 0.091559999 0.76300001 1.214310178e-38
0.20637333 0.091559999 0.76300001 1.20512831e-38
0.20928 0.091559999 0.76300001 1.260409114e-38
0.21218666 0.091559999 0.76300001 1.315654325e-38
0.21452953 0.091320001 0.76100004 1.361574175e-38
0.21800001 0.091559999 0.76300001 1.398345088e-38
0.22148572 0.091800004 0.76500005 1.416892254e-38
0.22440001 0.091800004 0.76500005 1.407813802e-38
0.22731429 0.091800004 0.76500005 1.389376778e-38
0.23083048 0.092040002 0.76700002 1.416890852e-38
0.23375238 0.092040002 0.76700002 1.389340764e-38
0.23667429 0.092040002 0.76700002 1.407781712e-38
0.23990858 0.092159994 0.76800001 1.435365571e-38
0.2425181 0.092040002 0.76700002 1.407957715e-38
0.24544001 0.092040002 0.76700002 1.417073161e-38
0.2483619 0.092040002 0.76700002 1.40788737e-38
0.25128379 0.092040002 0.76700002 1.371438195e-38
0.25420573 0.092040002 0.76700002 1.352856697e-38
0.25712761 0.092040002 0.76700002 1.361931506e-38
0.26004952 0.092040002 0.76700002 1.371080023e-38
0.26297143 0.092040002 0.76700002 1.38952027e-38
0.26624 0.092159994 0.76800001 1.426433415e-38
0.26916569 0.092159994 0.76800001 1.435691373e-38
0.27209145 0.092159994 0.76800001 1.45405525e-38
0.27501714 0.092159994 0.76800001 1.472241441e-38
0.27794284 0.092159994 0.76800001 1.49050064e-38
0.28050286 0.092040002 0.76700002 1.481426392e-38
0.28379428 0.092159994 0.76800001 1.453916241e-38
0.28672001 0.092159994 0.76800001 1.462952094e-38
0.2896457 0.092159994 0.76800001 1.46291608e-38
0.29333335 0.092399999 0.77000004 1.453910215e-38
0.29626667 0.092399999 0.77000004 1.463094465e-38
0.2992 0.092399999 0.77000004 1.472241862e-38
0.30291808 0.092640005 0.77200001 1.472244804e-38
0.30625525 0.092760012 0.77300006 1.453842673e-38
0.31 0.093000002 0.77500004 1.444511846e-38
0.31375998 0.09324 0.77700001 1.444403106e-38
0.31672001 0.09324 0.77700001 1.407670168e-38
0.32050288 0.093480006 0.77900004 1.380119379e-38
0.32347047 0.093480006 0.77900004 1.36175242e-38
0.32685715 0.093600005 0.78000003 1.315545865e-38
0.33067432 0.093840003 0.78200006 1.278774252e-38
0.33365336 0.093840003 0.78200006 1.260157301e-38
0.33835429 0.094319999 0.78600001 1.241682302e-38
0.34134859 0.094319999 0.78600001 1.204876217e-38
0.34565714 0.094680004 0.78900003 1.168105444e-38
0.34954667 0.094920002 0.79100001 1.1314081e-38
0.35345146 0.095160007 0.79300004 1.103535993e-38
0.3582705 0.095640004 0.79700005 1.057619506e-38
0.36176002 0.095760003 0.79800004 1.002516807e-38
0.36571428 0.096000001 0.80000001 9.106084435e-39
0.37152764 0.096720003 0.80600005 8.365282397e-39
0.37645715 0.097200006 0.81000006 8.364564932e-39
0.37954286 0.097200006 0.81000006 1.003853366e-38
0.38688001 0.098280005 0.81900007 1.291054671e-38
0.39095241 0.098520003 0.82100004 1.47584502e-38
0.39503998 0.098759994 0.82300001 1.594950205e-38
0.39974287 0.098759994 0.82300001 1.76979596e-38
0.13794668 0.090087622 0.73900002 1.122330629e-38
0.14095238 0.090209521 0.74000001 1.186724357e-38
0.14377144 0.090209521 0.74000001 1.195621201e-38
0.14698668 0.090453334 0.74200004 1.195692246e-38
0.15001525 0.090575241 0.74300003 1.168249217e-38
0.15387429 0.091184765 0.74800003 1.140554375e-38
0.15714286 0.091428578 0.75000006 1.131371666e-38
0.16000001 0.091428578 0.75000006 1.140805908e-38
0.16285716 0.091428578 0.75000006 1.159245594e-38
0.16637714 0.09179429 0.75300002 1.159174128e-38
0.16924572 0.09179429 0.75300002 1.095175286e-38
0.17257144 0.092038102 0.75500005 1.085634405e-38
0.17544763 0.092038102 0.75500005 1.158206111e-38
0.17832382 0.092038102 0.75500005 1.122368744e-38
0.18144001 0.092160001 0.75600004 1.122511816e-38
0.18480763 0.092403814 0.75800002 1.159136854e-38
0.18769524 0.092403814 0.75800002 1.168324747e-38
0.19108573 0.092647627 0.76000005 1.122337215e-38
0.1942362 0.092769526 0.76100004 1.085419866e-38
0.19713524 0.092769526 0.76100004 1.159137414e-38
0.20003429 0.092769526 0.76100004 1.204947262e-38
0.20346667 0.093013331 0.76300001 1.177433187e-38
0.20637333 0.093013331 0.76300001 1.168071112e-38
0.20928 0.093013331 0.76300001 1.232715253e-38
0.21218666 0.093013331 0.76300001 1.288104237e-38
0.21452953 0.092769526 0.76100004 1.343170642e-38
0.21800001 0.093013331 0.76300001 1.38952013e-38
0.22148572 0.093257144 0.76500005 1.426256291e-38
0.22440001 0.093257144 0.76500005 1.417105952e-38
0.22731429 0.093257144 0.76500005 1.398810739e-38
0.23022859 0.093257144 0.76500005 1.435042852e-38
0.23375238 0.093500957 0.76700002 1.426073701e-38
0.23698285 0.093622856 0.76800001 1.435473892e-38
0.23959619 0.093500957 0.76700002 1.43536431e-38
0.2425181 0.093500957 0.76700002 1.38966012e-38
0.24544001 0.093500957 0.76700002 1.39870424e-38
0.2483619 0.093500957 0.76700002 1.389339923e-38
0.25128379 0.093500957 0.76700002 1.34381608e-38
0.25420573 0.093500957 0.76700002 1.325269895e-38
0.25712761 0.093500957 0.76700002 1.361822065e-38
0.26004952 0.093500957 0.76700002 1.398486619e-38
0.26297143 0.093500957 0.76700002 1.407853178e-38
0.26624 0.093622856 0.76800001 1.408066316e-38
0.26881525 0.093500957 0.76700002 1.417286859e-38
0.27209145 0.093622856 0.76800001 1.444728487e-38
0.27501714 0.093622856 0.76800001 1.472134382e-38
0.27758098 0.093500957 0.76700002 1.481353384e-38
0.28086856 0.093622856 0.76800001 1.4630237e-38
0.28342476 0.093500957 0.76700002 1.444767163e-38
0.28634667 0.093500957 0.76700002 1.444441922e-38
0.2896457 0.093622856 0.76800001 1.444406609e-38
0.29333335 0.093866669 0.77000004 1.444726385e-38
0.29626667 0.093866669 0.77000004 1.444798132e-38
0.2992 0.093866669 0.77000004 1.4447638e-38
0.30291808 0.094110474 0.77200001 1.444478636e-38
0.30625525 0.094232388 0.77300006 1.444622549e-38
0.31 0.094476193 0.77500004 1.444441081e-38
0.31295237 0.094476193 0.77500004 1.453479876e-38
0.31672001 0.094719999 0.77700001 1.426038529e-38
0.32050288 0.094963811 0.77900004 1.398376897e-38
0.32347047 0.094963811 0.77900004 1.370970722e-38
0.32685715 0.095085718 0.78000003 1.297285825e-38
0.32982856 0.095085718 0.78000003 1.260371419e-38
0.33365336 0.095329531 0.78200006 1.232498191e-38
0.33835429 0.095817141 0.78600001 1.204840483e-38
0.34134859 0.095817141 0.78600001 1.168105724e-38
0.34565714 0.09618286 0.78900003 1.131263766e-38
0.34954667 0.096426666 0.79100001 1.103893604e-38
0.35434285 0.096914284 0.79500002 1.066693755e-38
0.3582705 0.097158097 0.79700005 1.002589254e-38
0.36266667 0.097523808 0.80000001 9.472346019e-39
0.36662859 0.097767621 0.80200005 8.732275458e-39
0.37152764 0.098255247 0.80600005 7.898270257e-39
0.37645715 0.098742865 0.81000006 9.120500994e-39
0.37954286 0.098742865 0.81000006 1.3281895e-38
0.38688001 0.099840008 0.81900007 1.67788129e-38
0.39095241 0.10008381 0.82100004 1.742205654e-38
0.13794668 0.091495238 0.73900002 1.13198025e-38
0.14095238 0.091619052 0.74000001 1.1594237e-38
0.14416 0.091866672 0.74200004 1.168464177e-38
0.14718476 0.091990478 0.74300003 1.16839187e-38
0.15001525 0.091990478 0.74300003 1.15931622e-38
0.15387429 0.092609525 0.74800003 1.122760827e-38
0.15672383 0.092609525 0.74800003 1.104394429e-38
0.15957333 0.092609525 0.74800003 1.131800884e-38
0.16285716 0.092857152 0.75000006 1.140949681e-38
0.16571429 0.092857152 0.75000006 1.113183653e-38
0.16902097 0.093104765 0.75200003 1.021311302e-38
0.17257144 0.093476199 0.75500005 1.048828741e-38
0.17544763 0.093476199 0.75500005 1.149847926e-38
0.17832382 0.093476199 0.75500005 1.131660894e-38
0.18144001 0.093600005 0.75600004 1.122475243e-38
0.18480763 0.093847618 0.75800002 1.094815573e-38
0.18819048 0.094095238 0.76000005 1.113150162e-38
0.19133715 0.094219051 0.76100004 1.122334412e-38
0.19474667 0.094466671 0.76300001 1.066907032e-38
0.19765334 0.094466671 0.76300001 1.030101508e-38
0.20108573 0.094714291 0.76500005 1.02106089e-38
0.20400001 0.094714291 0.76500005 1.05790425e-38
0.20637333 0.094466671 0.76300001 1.14069983e-38
0.20928 0.094466671 0.76300001 1.232823153e-38
0.21218666 0.094466671 0.76300001 1.297360093e-38
0.21452953 0.094219051 0.76100004 1.343421335e-38
0.21742858 0.094219051 0.76100004 1.380336441e-38
0.22090666 0.094466671 0.76300001 1.39867089e-38
0.22381333 0.094466671 0.76300001 1.39870396e-38
0.22731429 0.094714291 0.76500005 1.380407066e-38
0.23022859 0.094714291 0.76500005 1.407743596e-38
0.23375238 0.094961904 0.76700002 1.389446002e-38
0.23667429 0.094961904 0.76700002 1.380406506e-38
0.23959619 0.094961904 0.76700002 1.380261892e-38
0.2425181 0.094961904 0.76700002 1.352672567e-38
0.2448 0.094714291 0.76500005 1.371080023e-38
0.2483619 0.094961904 0.76700002 1.37104359e-38
0.25128379 0.094961904 0.76700002 1.316086486e-38
0.25354287 0.094714291 0.76500005 1.316050192e-38
0.25712761 0.094961904 0.76700002 1.371039806e-38
0.25937146 0.094714291 0.76500005 1.407669608e-38
0.26297143 0.094961904 0.76700002 1.417002676e-38
0.26624 0.095085718 0.76800001 1.38951985e-38
0.26881525 0.094961904 0.76700002 1.398667246e-38
0.27209145 0.095085718 0.76800001 1.435401865e-38
0.27501714 0.095085718 0.76800001 1.45373211e-38
0.27794284 0.095085718 0.76800001 1.453695676e-38
0.28050286 0.094961904 0.76700002 1.453661204e-38
0.28342476 0.094961904 0.76700002 1.435259493e-38
0.28634667 0.094961904 0.76700002 1.426075383e-38
0.2896457 0.095085718 0.76800001 1.417036447e-38
0.29257143 0.095085718 0.76800001 1.41710371e-38
0.29626667 0.095333338 0.77000004 1.417246502e-38
0.2992 0.095333338 0.77000004 1.426290062e-38
0.30291808 0.09558095 0.77200001 1.426111396e-38
0.30625525 0.095704764 0.77300006 1.416999453e-38
0.31 0.095952384 0.77500004 1.416891553e-38
0.31295237 0.095952384 0.77500004 1.425894335e-38
0.31672001 0.096200004 0.77700001 1.398525155e-38
0.32050288 0.096447624 0.77900004 1.370824286e-38
0.32347047 0.096447624 0.77900004 1.343132106e-38
0.32685715 0.096571431 0.78000003 1.287886475e-38
0.33067432 0.096819058 0.78200006 1.25097291e-38
0.33365336 0.096819058 0.78200006 1.205054462e-38
0.33835429 0.097314283 0.78600001 1.168142158e-38
0.34134859 0.097314283 0.78600001 1.122187556e-38
0.34653336 0.097933337 0.79100001 1.085274552e-38
0.34954667 0.097933337 0.79100001 1.057617404e-38
0.35434285 0.09842857 0.79500002 1.002516107e-38
0.35872 0.098800004 0.79800004 9.199007339e-39
0.36266667 0.099047616 0.80000001 8.181611405e-39
0.36662859 0.099295244 0.80200005 8.635766632e-39
0.37152764 0.099790484 0.80600005 1.039833525e-38
0.37645715 0.10028572 0.81000006 1.25436139e-38
0.14133334 0.09328001 0.74200004 1.141235826e-38
0.14435428 0.093405716 0.74300003 1.1413796e-38
0.14698668 0.09328001 0.74200004 1.15013239e-38
0.15001525 0.093405716 0.74300003 1.141200093e-38
0.15325716 0.093657151 0.74500006 1.104681274e-38
0.15714286 0.094285719 0.75000006 1.08635187e-38
0.15957333 0.094034284 0.74800003 1.113792797e-38
0.16329144 0.094537146 0.75200003 1.113793778e-38
0.16571429 0.094285719 0.75000006 1.067122552e-38
0.16969524 0.094914287 0.75500005 9.475566203e-39
0.17257144 0.094914287 0.75500005 1.0125239e-38
0.17568 0.095040008 0.75600004 1.140985835e-38
0.17856 0.095040008 0.75600004 1.150243513e-38
0.18192001 0.095291428 0.75800002 1.131873891e-38
0.18480763 0.095291428 0.75800002 1.040002102e-38
0.1884381 0.095668577 0.76100004 1.058550249e-38
0.19184001 0.095920004 0.76300001 1.131553414e-38
0.19525716 0.096171431 0.76500005 1.048109034e-38
0.19817144 0.096171431 0.76500005 9.011016144e-39
0.20108573 0.096171431 0.76500005 8.463936612e-39
0.20400001 0.096171431 0.76500005 9.475955764e-39
0.20637333 0.095920004 0.76300001 1.113330509e-38
0.20928 0.095920004 0.76300001 1.242114882e-38
0.21218666 0.095920004 0.76300001 1.297467713e-38
0.21452953 0.095668577 0.76100004 1.343565108e-38
0.21742858 0.095668577 0.76100004 1.371331557e-38
0.22090666 0.095920004 0.76300001 1.38030295e-38
0.22381333 0.095920004 0.76300001 1.380337141e-38
0.22731429 0.096171431 0.76500005 1.371187223e-38
0.23022859 0.096171431 0.76500005 1.380371053e-38
0.23314287 0.096171431 0.76500005 1.352819423e-38
0.23667429 0.096422859 0.76700002 1.32533968e-38
0.23959619 0.096422859 0.76700002 1.325196327e-38
0.2425181 0.096422859 0.76700002 1.315974662e-38
0.24544001 0.096422859 0.76700002 1.352496424e-38
0.2483619 0.096422859 0.76700002 1.352424677e-38
0.25128379 0.096422859 0.76700002 1.297649181e-38
0.25354287 0.096171431 0.76500005 1.316050472e-38
0.25645718 0.096171431 0.76500005 1.38036853e-38
0.25937146 0.096171431 0.76500005 1.426037548e-38
0.26297143 0.096422859 0.76700002 1.435367813e-38
0.26589334 0.096422859 0.76700002 1.371116177e-38
0.26881525 0.096422859 0.76700002 1.38012022e-38
0.27209145 0.096548572 0.76800001 1.435400183e-38
0.27501714 0.096548572 0.76800001 1.435328297e-38
0.27794284 0.096548572 0.76800001 1.43525599e-38
0.28086856 0.096548572 0.76800001 1.444370035e-38
0.28379428 0.096548572 0.76800001 1.426003917e-38
0.28672001 0.096548572 0.76800001 1.407636677e-38
0.2896457 0.096548572 0.76800001 1.398667947e-38
0.29257143 0.096548572 0.76800001 1.389516767e-38
0.29626667 0.096800007 0.77000004 1.398700177e-38
0.2992 0.096800007 0.77000004 1.407853038e-38
0.30291808 0.097051427 0.77200001 1.407744157e-38
0.30625525 0.097177155 0.77300006 1.398560748e-38
0.31 0.097428575 0.77500004 1.398562149e-38
0.31295237 0.097428575 0.77500004 1.407527656e-38
0.31672001 0.097680002 0.77700001 1.380192247e-38
0.31968001 0.097680002 0.77700001 1.343274759e-38
0.32264 0.097680002 0.77700001 1.3154758e-38
0.3264381 0.09793143 0.77900004 1.278703486e-38
0.32982856 0.098057151 0.78000003 1.241860967e-38
0.33365336 0.098308578 0.78200006 1.177648006e-38
0.33835429 0.098811425 0.78600001 1.122296157e-38
0.34134859 0.098811425 0.78600001 1.085453778e-38
0.34653336 0.099440001 0.79100001 1.048468467e-38
0.35043049 0.099691428 0.79300004 1.011842448e-38
0.35523432 0.1001943 0.79700005 9.475587222e-39
0.35872 0.10032 0.79800004 8.280278231e-39
0.36266667 0.10057142 0.80000001 6.796237296e-39
0.36662859 0.10082286 0.80200005 8.660231902e-39
0.37152764 0.10132572 0.80600005 1.281121707e-38
0.1486 0.094820954 0.74300003 1.168786475e-38
0.15183809 0.095076196 0.74500006 1.187225741e-38
0.15529905 0.095459051 0.74800003 1.095571573e-38
0.15814857 0.095459051 0.74800003 1.113759026e-38
0.16329144 0.095969528 0.75200003 1.113937411e-38
0.16571429 0.095714293 0.75000006 1.068127283e-38
0.17136 0.096480004 0.75600004 8.010147123e-39
0.17400953 0.096352383 0.75500005 1.141235686e-38
0.17758857 0.096735239 0.75800002 1.150421058e-38
0.18047619 0.096735239 0.75800002 1.177864647e-38
0.18408953 0.097118102 0.76100004 1.14138044e-38
0.18698858 0.097118102 0.76100004 1.003483983e-38
0.19038667 0.097373337 0.76300001 1.436223727e-38
0.1938 0.097628579 0.76500005 1.158348763e-38
0.19722858 0.097883806 0.76700002 9.739237324e-39
0.19962859 0.097628579 0.76500005 9.384092242e-39
0.20254287 0.097628579 0.76500005 1.07605653e-38
0.20545715 0.097628579 0.76500005 1.158891066e-38
0.20782667 0.097373337 0.76300001 1.269990072e-38
0.21073334 0.097373337 0.76300001 1.325161995e-38
0.21364 0.097373337 0.76300001 1.417069378e-38
0.21597905 0.097118102 0.76100004 1.352856277e-38
0.21945333 0.097373337 0.76300001 1.371332257e-38
0.22236 0.097373337 0.76300001 1.37079542e-38
0.22526667 0.097373337 0.76300001 1.371116597e-38
0.22877143 0.097628579 0.76500005 1.343528394e-38
0.23168573 0.097628579 0.76500005 1.371007016e-38
0.23460001 0.097628579 0.76500005 1.279242285e-38
0.23813525 0.097883806 0.76700002 1.325195486e-38
0.24042858 0.097628579 0.76500005 1.279385358e-38
0.24334286 0.097628579 0.76500005 1.343526432e-38
0.24625714 0.097628579 0.76500005 1.41688791e-38
0.24982285 0.097883806 0.76700002 1.343494202e-38
0.25274476 0.097883806 0.76700002 1.316195787e-38
0.25500003 0.097628579 0.76500005 1.35278439e-38
0.25858858 0.097883806 0.76700002 1.343565108e-38
0.26082858 0.097628579 0.76500005 1.416854979e-38
0.2644324 0.097883806 0.76700002 1.398630953e-38
0.26735431 0.097883806 0.76700002 1.36196794e-38
0.27062857 0.098011427 0.76800001 1.407848834e-38
0.2731981 0.097883806 0.76700002 1.435327176e-38
0.27612001 0.097883806 0.76700002 1.398341865e-38
0.27940571 0.098011427 0.76800001 1.416853718e-38
0.28233144 0.098011427 0.76800001 1.435115159e-38
0.28525713 0.098011427 0.76800001 1.407421578e-38
0.28893334 0.098266676 0.77000004 1.416855259e-38
0.29110858 0.098011427 0.76800001 1.371365748e-38
0.29480001 0.098266676 0.77000004 1.380189585e-38
0.29773337 0.098266676 0.77000004 1.389484397e-38
0.30066669 0.098266676 0.77000004 1.398490402e-38
0.30438858 0.098521911 0.77200001 1.379978409e-38
0.30772763 0.098649532 0.77300006 1.325094032e-38
0.3106724 0.098649532 0.77300006 1.370831854e-38
0.31361717 0.098649532 0.77300006 1.343098756e-38
0.31820002 0.099160001 0.77700001 1.315797538e-38
0.32116002 0.099160001 0.77700001 1.306328264e-38
0.3249543 0.099415243 0.77900004 1.278598248e-38
0.3291848 0.099798106 0.78200006 1.250937458e-38
0.33216384 0.099798106 0.78200006 1.18676009e-38
0.33600003 0.10005334 0.78400004 1.113112747e-38
0.33985141 0.10030857 0.78600001 1.066979619e-38
0.34502667 0.10094667 0.79100001 1.011877901e-38
0.34804001 0.10094667 0.79100001 9.749640564e-39
0.35282856 0.10145714 0.79500002 9.475580216e-39
0.35720003 0.10184 0.79800004 7.358694678e-39
0.36114287 0.10209524 0.80000001 8.924237934e-39
0.36419046 0.10209524 0.80000001 1.023547635e-38
0.17568 0.097920008 0.75600004 1.150562589e-38
0.17903239 0.09817905 0.75800002 1.177935833e-38
0.18264 0.09856762 0.76100004 1.187225601e-38
0.18529525 0.098438099 0.76000005 1.103895426e-38
0.19017144 0.099474281 0.76800001 1.382741069e-38
0.19309714 0.099474281 0.76800001 1.46421088e-38
0.19576761 0.099344768 0.76700002 1.085166372e-38
0.19868954 0.099344768 0.76700002 1.003233852e-38
0.20161143 0.099344768 0.76700002 1.168427883e-38
0.20400001 0.099085718 0.76500005 1.28857213e-38
0.20691429 0.099085718 0.76500005 1.315980127e-38
0.20928 0.098826669 0.76300001 1.352785371e-38
0.21218666 0.098826669 0.76300001 1.444584294e-38
0.21509334 0.098826669 0.76300001 1.426145728e-38
0.21800001 0.098826669 0.76300001 1.352855016e-38
0.22090666 0.098826669 0.76300001 1.361826829e-38
0.22381333 0.098826669 0.76300001 1.361718509e-38
0.22671999 0.098826669 0.76300001 1.343456927e-38
0.22962667 0.098826669 0.76300001 1.334164777e-38
0.23314287 0.099085718 0.76500005 1.297538899e-38
0.23605716 0.099085718 0.76500005 1.270130062e-38
0.23897144 0.099085718 0.76500005 1.279315853e-38
0.24188572 0.099085718 0.76500005 1.306792233e-38
0.2448 0.099085718 0.76500005 1.407811139e-38
0.2477143 0.099085718 0.76500005 1.407703239e-38
0.25128379 0.099344768 0.76700002 1.362041368e-38
0.25354287 0.099085718 0.76500005 1.352785231e-38
0.25712761 0.099344768 0.76700002 1.325234162e-38
0.26004952 0.099344768 0.76700002 1.334348347e-38
0.26297143 0.099344768 0.76700002 1.389483977e-38
0.26589334 0.099344768 0.76700002 1.389516767e-38
0.26916569 0.099474281 0.76800001 1.389590335e-38
0.27173716 0.099344768 0.76700002 1.407884287e-38
0.27465904 0.099344768 0.76700002 1.39873605e-38
0.27758098 0.099344768 0.76700002 1.380297905e-38
0.28086856 0.099474281 0.76800001 1.407672551e-38
0.28379428 0.099474281 0.76800001 1.416891553e-38
0.28746668 0.099733338 0.77000004 1.416783233e-38
0.2904 0.099733338 0.77000004 1.380333077e-38
0.29333335 0.099733338 0.77000004 1.352746415e-38
0.29626667 0.099733338 0.77000004 1.371042188e-38
0.2992 0.099733338 0.77000004 1.380194769e-38
0.30291808 0.099992387 0.77200001 1.370722692e-38
0.30625525 0.10012191 0.77300006 1.306689098e-38
0.30920002 0.10012191 0.77300006 1.288288367e-38
0.31214479 0.10012191 0.77300006 1.306293651e-38
0.31508955 0.10012191 0.77300006 1.288103536e-38
0.31968001 0.10064001 0.77700001 1.278810825e-38
0.32264 0.10064001 0.77700001 1.269558472e-38
0.32685715 0.10102857 0.78000003 1.241862509e-38
0.32982856 0.10102857 0.78000003 1.195871893e-38
0.33450669 0.10154667 0.78400004 1.12233259e-38
0.33835429 0.10180572 0.78600001 1.048613081e-38
0.34265146 0.10219429 0.78900003 9.935466754e-39
0.34653336 0.10245334 0.79100001 9.474488604e-39
0.35043049 0.10271239 0.79300004 9.106786486e-39
0.35523432 0.10323048 0.79700005 7.352961966e-39
0.35961905 0.10361905 0.80000001 7.919457889e-39
0.36266667 0.10361905 0.80000001 1.23545367e-38
0.18529525 0.099885717 0.76000005 1.242655223e-38
0.18992381 0.10080571 0.76700002 1.417471551e-38
0.19309714 0.10093714 0.76800001 1.435876345e-38
0.19576761 0.10080571 0.76700002 1.205952414e-38
0.19894856 0.10093714 0.76800001 1.187156797e-38
0.20161143 0.10080571 0.76700002 1.279456123e-38
0.20453334 0.10080571 0.76700002 1.362111994e-38
0.20691429 0.10054287 0.76500005 1.380264694e-38
0.20928 0.10027999 0.76300001 1.371081565e-38
0.21218666 0.10027999 0.76300001 1.40756353e-38
0.21452953 0.10001715 0.76100004 1.380156514e-38
0.21742858 0.10001715 0.76100004 1.352566909e-38
0.22148572 0.10054287 0.76500005 1.370830592e-38
0.22381333 0.10027999 0.76300001 1.379977428e-38
0.22671999 0.10027999 0.76300001 1.343457068e-38
0.23022859 0.10054287 0.76500005 1.324945074e-38
0.23314287 0.10054287 0.76500005 1.324910322e-38
0.23605716 0.10054287 0.76500005 1.297645538e-38
0.23897144 0.10054287 0.76500005 1.297648481e-38
0.24188572 0.10054287 0.76500005 1.343526992e-38
0.2448 0.10054287 0.76500005 1.407666945e-38
0.2477143 0.10054287 0.76500005 1.398446682e-38
0.25128379 0.10080571 0.76700002 1.370864364e-38
0.25354287 0.10054287 0.76500005 1.370793878e-38
0.25712761 0.10080571 0.76700002 1.352606426e-38
0.26004952 0.10080571 0.76700002 1.343462252e-38
0.26331431 0.10093714 0.76800001 1.371081144e-38
0.26589334 0.10080571 0.76700002 1.380223916e-38
0.26916569 0.10093714 0.76800001 1.38022756e-38
0.27173716 0.10080571 0.76700002 1.389445862e-38
0.27465904 0.10080571 0.76700002 1.417066575e-38
0.27685714 0.10054287 0.76500005 1.398629551e-38
0.28086856 0.10093714 0.76800001 1.398561588e-38
0.28379428 0.10093714 0.76800001 1.398524174e-38
0.28672001 0.10093714 0.76800001 1.389195449e-38
0.2896457 0.10093714 0.76800001 1.370896173e-38
0.29257143 0.10093714 0.76800001 1.371005895e-38
0.29549715 0.10093714 0.76800001 1.371042329e-38
0.2992 0.1012 0.77000004 1.380085328e-38
0.30213335 0.1012 0.77000004 1.379941835e-38
0.30585906 0.10146286 0.77200001 1.306365818e-38
0.30880001 0.10146286 0.77200001 1.287785021e-38
0.31214479 0.10159429 0.77300006 1.287782779e-38
0.31508955 0.10159429 0.77300006 1.269592524e-38
0.31968001 0.10212 0.77700001 1.251115843e-38
0.32347047 0.10238286 0.77900004 1.223352197e-38
0.32685715 0.10251429 0.78000003 1.195729941e-38
0.33067432 0.10277715 0.78200006 1.149775339e-38
0.33450669 0.10304001 0.78400004 1.067124233e-38
0.33835429 0.10330286 0.78600001 9.934764703e-39
0.34265146 0.10369714 0.78900003 9.200422651e-39
0.34740955 0.10422286 0.79300004 8.646528604e-39
0.35043049 0.10422286 0.79300004 8.371380848e-39
0.35568002 0.10488001 0.79800004 8.830212208e-39
0.35961905 0.10514285 0.80000001 1.105952252e-38
0.36266667 0.10514285 0.80000001 1.355275058e-38
0.18893334 0.10173333 0.76300001 1.455101599e-38
0.19284572 0.10226667 0.76700002 1.407892274e-38
0.19576761 0.10226667 0.76700002 1.334702455e-38
0.19868954 0.10226667 0.76700002 1.362181918e-38
0.20161143 0.10226667 0.76700002 1.398915276e-38
0.20453334 0.10226667 0.76700002 1.444872821e-38
0.20691429 0.10200001 0.76500005 1.453768824e-38
0.20928 0.10173333 0.76300001 1.380192948e-38
0.21218666 0.10173333 0.76300001 1.370792897e-38
0.21509334 0.10173333 0.76300001 1.334166459e-38
0.21800001 0.10173333 0.76300001 1.352424957e-38
0.22148572 0.10200001 0.76500005 1.389091053e-38
0.22381333 0.10173333 0.76300001 1.398129148e-38
0.22731429 0.10200001 0.76500005 1.352639776e-38
0.23022859 0.10200001 0.76500005 1.315726352e-38
0.23314287 0.10200001 0.76500005 1.352425938e-38
0.23605716 0.10200001 0.76500005 1.334379877e-38
0.23897144 0.10200001 0.76500005 1.325054796e-38
0.24188572 0.10200001 0.76500005 1.380296924e-38
0.2448 0.10200001 0.76500005 1.416743996e-38
0.2477143 0.10200001 0.76500005 1.389049154e-38
0.25128379 0.10226667 0.76700002 1.370827229e-38
0.25354287 0.10200001 0.76500005 1.389051396e-38
0.25645718 0.10200001 0.76500005 1.38001246e-38
0.26004952 0.10226667 0.76700002 1.352607827e-38
0.26331431 0.1024 0.76800001 1.352678312e-38
0.26624 0.1024 0.76800001 1.370791076e-38
0.26916569 0.1024 0.76800001 1.361934029e-38
0.27173716 0.10226667 0.76700002 1.371079043e-38
0.27394286 0.10200001 0.76500005 1.435182141e-38
0.27758098 0.10226667 0.76700002 1.42617992e-38
0.28050286 0.10226667 0.76700002 1.389340624e-38
0.28379428 0.1024 0.76800001 1.380155393e-38
0.28746668 0.10266667 0.77000004 1.37082765e-38
0.2896457 0.1024 0.76800001 1.361749898e-38
0.29257143 0.1024 0.76800001 1.380155953e-38
0.29549715 0.1024 0.76800001 1.370863803e-38
0.2992 0.10266667 0.77000004 1.389198252e-38
0.30213335 0.10266667 0.77000004 1.389124404e-38
0.30585906 0.10293333 0.77200001 1.315476781e-38
0.30880001 0.10293333 0.77200001 1.287675299e-38
0.31214479 0.10306668 0.77300006 1.278454195e-38
0.31508955 0.10306668 0.77300006 1.260300513e-38
0.31968001 0.1036 0.77700001 1.223314081e-38
0.32347047 0.10386667 0.77900004 1.186439192e-38
0.32685715 0.104 0.78000003 1.149740167e-38
0.33067432 0.10426667 0.78200006 1.10396437e-38
0.33535999 0.1048 0.78600001 1.021133758e-38
0.33835429 0.1048 0.78600001 9.383746121e-39
0.34352002 0.10546666 0.79100001 8.465393962e-39
0.34740955 0.10573334 0.79300004 7.819294476e-39
0.35131428 0.106 0.79500002 7.636052281e-39
0.35568002 0.10640001 0.79800004 1.041447261e-38
0.35961905 0.10666667 0.80000001 1.410591455e-38
0.17805715 0.10278096 0.76000005 1.418403414e-38
0.1809524 0.10278096 0.76000005 1.417829722e-38
0.18336381 0.10251047 0.75800002 1.408249465e-38
0.18698858 0.1029162 0.76100004 1.50029964e-38
0.19038667 0.10318667 0.76300001 1.463063357e-38
0.19430667 0.10372762 0.76700002 1.407994709e-38
0.1967143 0.10345715 0.76500005 1.380620764e-38
0.19962859 0.10345715 0.76500005 1.426610259e-38
0.20201333 0.10318667 0.76300001 1.38065902e-38
0.20491999 0.10318667 0.76300001 1.472388017e-38
0.20782667 0.10318667 0.76300001 1.408030302e-38
0.21073334 0.10318667 0.76300001 1.417105391e-38
0.21364 0.10318667 0.76300001 1.352712364e-38
0.21597905 0.1029162 0.76100004 1.30672343e-38
0.21945333 0.10318667 0.76300001 1.35242804e-38
0.22236 0.10318667 0.76300001 1.343029251e-38
0.22526667 0.10318667 0.76300001 1.389195169e-38
0.22877143 0.10345715 0.76500005 1.297430859e-38
0.23168573 0.10345715 0.76500005 1.416675053e-38
0.23460001 0.10345715 0.76500005 1.343277842e-38
0.2375143 0.10345715 0.76500005 1.270059857e-38
0.24042858 0.10345715 0.76500005 1.297322959e-38
0.24334286 0.10345715 0.76500005 1.315797258e-38
0.24625714 0.10345715 0.76500005 1.352280624e-38
0.24917144 0.10345715 0.76500005 1.35224419e-38
0.25274476 0.10372762 0.76700002 1.361606545e-38
0.25500003 0.10345715 0.76500005 1.389480894e-38
0.25858858 0.10372762 0.76700002 1.36175256e-38
0.26151046 0.10372762 0.76700002 1.361753962e-38
0.2644324 0.10372762 0.76700002 1.334310652e-38
0.26735431 0.10372762 0.76700002 1.426290622e-38
0.27062857 0.10386286 0.76800001 1.371117438e-38
0.2731981 0.10372762 0.76700002 1.389624247e-38
0.27540001 0.10345715 0.76500005 1.408026799e-38
0.27940571 0.10386286 0.76800001 1.361931366e-38
0.28233144 0.10386286 0.76800001 1.370935269e-38
0.28525713 0.10386286 0.76800001 1.352567469e-38
0.28893334 0.10413334 0.77000004 1.324837735e-38
0.29110858 0.10386286 0.76800001 1.306652104e-38
0.29403427 0.10386286 0.76800001 1.334095833e-38
0.29773337 0.10413334 0.77000004 1.306473999e-38
0.30066669 0.10413334 0.77000004 1.361359636e-38
0.30360001 0.10413334 0.77000004 1.306041137e-38
0.30732954 0.10440381 0.77200001 1.260589461e-38
0.3106724 0.10453905 0.77300006 1.250795086e-38
0.31361717 0.10453905 0.77300006 1.223314922e-38
0.31820002 0.10508 0.77700001 1.20469601e-38
0.32116002 0.10508 0.77700001 1.16782e-38
0.32537144 0.10548571 0.78000003 1.140521304e-38
0.3291848 0.10575619 0.78200006 1.085418045e-38
0.33301336 0.10602667 0.78400004 1.002837144e-38
0.33685714 0.10629714 0.78600001 9.108588556e-39
0.34114859 0.10670286 0.78900003 8.83274015e-39
0.34589908 0.10724381 0.79300004 8.005497615e-39
0.34979999 0.10751428 0.79500002 9.849075302e-39
0.35371622 0.10778476 0.79700005 1.078618664e-38
0.17660955 0.10422858 0.76000005 1.666320298e-38
0.17903239 0.10395429 0.75800002 1.601605952e-38
0.18192001 0.10395429 0.75800002 1.545822923e-38
0.18480763 0.10395429 0.75800002 1.536709018e-38
0.1884381 0.10436572 0.76100004 1.509052291e-38
0.19184001 0.10464 0.76300001 1.463204748e-38
0.19525716 0.10491429 0.76500005 1.444941485e-38
0.19817144 0.10491429 0.76500005 1.435866676e-38
0.20055999 0.10464 0.76300001 1.4081361e-38
0.20346667 0.10464 0.76300001 1.408246382e-38
0.20637333 0.10464 0.76300001 1.426397682e-38
0.20873144 0.10436572 0.76100004 1.435582633e-38
0.21163048 0.10436572 0.76100004 1.398629411e-38
0.21452953 0.10436572 0.76100004 1.325303807e-38
0.21800001 0.10464 0.76300001 1.306687276e-38
0.22148572 0.10491429 0.76500005 1.315442449e-38
0.22381333 0.10464 0.76300001 1.334165898e-38
0.22731429 0.10491429 0.76500005 1.33420023e-38
0.23022859 0.10491429 0.76500005 1.398342145e-38
0.23314287 0.10491429 0.76500005 1.398127886e-38
0.23605716 0.10491429 0.76500005 1.278991032e-38
0.23897144 0.10491429 0.76500005 1.242114322e-38
0.24188572 0.10491429 0.76500005 1.223817147e-38
0.2448 0.10491429 0.76500005 1.25126438e-38
0.2477143 0.10491429 0.76500005 1.324730395e-38
0.25161144 0.10532571 0.76800001 1.343346505e-38
0.25420573 0.10518858 0.76700002 1.361714025e-38
0.25712761 0.10518858 0.76700002 1.371150369e-38
0.26004952 0.10518858 0.76700002 1.370971283e-38
0.26331431 0.10532571 0.76800001 1.343495463e-38
0.26624 0.10532571 0.76800001 1.398666125e-38
0.26916569 0.10532571 0.76800001 1.435616544e-38
0.27173716 0.10518858 0.76700002 1.389553201e-38
0.27394286 0.10491429 0.76500005 1.362325131e-38
0.27685714 0.10491429 0.76500005 1.343960134e-38
0.27977145 0.10491429 0.76500005 1.34349252e-38
0.28379428 0.10532571 0.76800001 1.343311753e-38
0.28746668 0.10560001 0.77000004 1.315834812e-38
0.2904 0.10560001 0.77000004 1.279063059e-38
0.29333335 0.10560001 0.77000004 1.260662749e-38
0.29549715 0.10532571 0.76800001 1.269951957e-38
0.2992 0.10560001 0.77000004 1.278635663e-38
0.30213335 0.10560001 0.77000004 1.287996057e-38
0.30506667 0.10560001 0.77000004 1.260337508e-38
0.30880001 0.10587429 0.77200001 1.223566735e-38
0.31295237 0.10628572 0.77500004 1.195871893e-38
0.31672001 0.10656 0.77700001 1.1772527e-38
0.32050288 0.10683429 0.77900004 1.149594712e-38
0.32388574 0.10697144 0.78000003 1.122013375e-38
0.32853335 0.10752 0.78400004 1.076163589e-38
0.33236572 0.10779429 0.78600001 9.843261315e-39
0.33621335 0.10806858 0.78800005 8.924910557e-39
0.34050667 0.10848 0.79100001 8.556516197e-39
0.3443886 0.10875429 0.79300004 8.371076766e-39
0.34916192 0.10930286 0.79700005 1.004028388e-38
0.35219809 0.10930286 0.79700005 1.300208513e-38
0.17136 0.10512 0.75600004 1.538075704e-38
0.17424001 0.10512 0.75600004 1.546860865e-38
0.17712002 0.10512 0.75600004 1.51880743e-38
0.18000001 0.10512 0.75600004 1.518269892e-38
0.18263811 0.10498096 0.75500005 1.509014456e-38
0.18674287 0.1056762 0.76000005 1.508942709e-38
0.18988763 0.10581524 0.76100004 1.463275934e-38
0.19329333 0.10609333 0.76300001 1.481640931e-38
0.19620001 0.10609333 0.76300001 1.445014352e-38
0.19910666 0.10609333 0.76300001 1.408208968e-38
0.20148382 0.10581524 0.76100004 1.371295123e-38
0.20438287 0.10581524 0.76100004 1.398739133e-38
0.20728192 0.10581524 0.76100004 1.398525855e-38
0.21018097 0.10581524 0.76100004 1.416712047e-38
0.21364 0.10609333 0.76300001 1.325303246e-38
0.21597905 0.10581524 0.76100004 1.288174722e-38
0.21945333 0.10609333 0.76300001 1.260482122e-38
0.22236 0.10609333 0.76300001 1.278669575e-38
0.22585715 0.10637144 0.76500005 1.288067383e-38
0.22877143 0.10637144 0.76500005 1.251189411e-38
0.23168573 0.10637144 0.76500005 1.343024907e-38
0.23460001 0.10637144 0.76500005 1.324585781e-38
0.2375143 0.10637144 0.76500005 1.251368497e-38
0.24042858 0.10637144 0.76500005 1.278918725e-38
0.24334286 0.10637144 0.76500005 1.251406752e-38
0.24690095 0.10664953 0.76700002 1.315513775e-38
0.24982285 0.10664953 0.76700002 1.306685034e-38
0.25274476 0.10664953 0.76700002 1.352709281e-38
