# .PCD v0.7 - Point Cloud Data file format
VERSION 0.7
FIELDS x y z rgb
SIZE 4 4 4 4
TYPE F F F F
COUNT 1 1 1 1
WIDTH 949
HEIGHT 1
VIEWPOINT 0 0 0 1 0 0 0
POINTS 949
DATA ascii
0.20025715 -0.11642858 0.81500006 1.213954809e-38
0.20336191 -0.11642858 0.81500006 1.333306482e-38
0.20646667 -0.11642858 0.81500006 1.361323483e-38
0.20931429 -0.11628571 0.81400001 1.388943636e-38
0.21241523 -0.11628571 0.81400001 1.416674072e-38
0.21551619 -0.11628571 0.81400001 1.444263396e-38
0.21888573 -0.11642858 0.81500006 1.47195978e-38
0.22199048 -0.11642858 0.81500006 1.453811143e-38
0.22509526 -0.11642858 0.81500006 1.418049726e-38
0.22876 -0.11671428 0.81700003 1.529619849e-38
0.19608 -0.1151581 0.81700003 1.18622059e-38
0.19870478 -0.1148762 0.81500006 1.002048914e-38
0.20180953 -0.1148762 0.81500006 1.223030318e-38
0.20466284 -0.11473524 0.81400001 1.306078132e-38
0.20776382 -0.11473524 0.81400001 1.342884637e-38
0.21086477 -0.11473524 0.81400001 1.388944197e-38
0.21396571 -0.11473524 0.81400001 1.425609171e-38
0.21706666 -0.11473524 0.81400001 1.462773848e-38
0.22016762 -0.11473524 0.81400001 1.481179343e-38
0.22354287 -0.1148762 0.81500006 1.434903984e-38
0.22720382 -0.1151581 0.81700003 1.472249569e-38
0.23031621 -0.1151581 0.81700003 1.501493266e-38
0.19608 -0.11360191 0.81700003 1.306970058e-38
0.19919239 -0.11360191 0.81700003 1.029095796e-38
0.20180953 -0.11332382 0.81500006 1.085203786e-38
0.2049143 -0.11332382 0.81500006 1.213954669e-38
0.20776382 -0.11318476 0.81400001 1.296716197e-38
0.21086477 -0.11318476 0.81400001 1.37025662e-38
0.21396571 -0.11318476 0.81400001 1.416354295e-38
0.21706666 -0.11318476 0.81400001 1.462450429e-38
0.22016762 -0.11318476 0.81400001 1.481070042e-38
0.22354287 -0.11332382 0.81500006 1.462523016e-38
0.22720382 -0.11360191 0.81700003 1.490537354e-38
0.22975239 -0.11332382 0.81500006 1.50920265e-38
0.23285715 -0.11332382 0.81500006 1.491916092e-38
0.19763619 -0.11204571 0.81700003 1.296786682e-38
0.20074858 -0.11204571 0.81700003 8.369234059e-39
0.20336191 -0.11177143 0.81500006 1.076091282e-38
0.20646667 -0.11177143 0.81500006 1.186331573e-38
0.20931429 -0.11163428 0.81400001 1.315154482e-38
0.21241523 -0.11163428 0.81400001 1.388659593e-38
0.21551619 -0.11163428 0.81400001 1.443904243e-38
0.21861714 -0.11163428 0.81400001 1.480782215e-38
0.22199048 -0.11177143 0.81500006 1.490252891e-38
0.22509526 -0.11177143 0.81500006 1.508870262e-38
0.22876 -0.11204571 0.81700003 1.508872644e-38
0.23187238 -0.11204571 0.81700003 1.545826847e-38
0.23440954 -0.11177143 0.81500006 1.464218587e-38
0.19763619 -0.11048953 0.81700003 1.418078733e-38
0.20074858 -0.11048953 0.81700003 1.148948293e-38
0.20336191 -0.11021905 0.81500006 1.048503219e-38
0.20646667 -0.11021905 0.81500006 1.048540774e-38
0.20957145 -0.11021905 0.81500006 1.250868934e-38
0.21241523 -0.11008381 0.81400001 1.324518098e-38
0.21551619 -0.11008381 0.81400001 1.388731199e-38
0.21861714 -0.11008381 0.81400001 1.453195693e-38
0.22199048 -0.11021905 0.81500006 1.462737835e-38
0.22509526 -0.11021905 0.81500006 1.48128416e-38
0.22876 -0.11048953 0.81700003 1.49057589e-38
0.23187238 -0.11048953 0.81700003 1.600744434e-38
0.23498477 -0.11048953 0.81700003 1.4265472e-38
0.23809716 -0.11048953 0.81700003 1.454533373e-38
0.20074858 -0.10893334 0.81700003 1.472963951e-38
0.20336191 -0.10866667 0.81500006 1.021780878e-38
0.20646667 -0.10866667 0.81500006 9.101052373e-39
0.20957145 -0.10866667 0.81500006 1.195478969e-38
0.2126762 -0.10866667 0.81500006 1.269342952e-38
0.21551619 -0.10853333 0.81400001 1.333771853e-38
0.21888573 -0.10866667 0.81500006 1.434935233e-38
0.22199048 -0.10866667 0.81500006 1.444334442e-38
0.22509526 -0.10866667 0.81500006 1.462845315e-38
0.22820002 -0.10866667 0.81500006 1.481356187e-38
0.23187238 -0.10893334 0.81700003 1.664920541e-38
0.23556001 -0.10920001 0.81900007 1.389738453e-38
0.23868001 -0.10920001 0.81900007 1.481863877e-38
0.20074858 -0.10737714 0.81700003 1.493384373e-38
0.20336191 -0.10711429 0.81500006 1.307335096e-38
0.20646667 -0.10711429 0.81500006 1.09334519e-38
0.20957145 -0.10711429 0.81500006 1.094278875e-38
0.2126762 -0.10711429 0.81500006 1.204984397e-38
0.21578097 -0.10711429 0.81500006 1.251046759e-38
0.21888573 -0.10711429 0.81500006 1.324803403e-38
0.22199048 -0.10711429 0.81500006 1.407277104e-38
0.22509526 -0.10711429 0.81500006 1.453590159e-38
0.22820002 -0.10711429 0.81500006 1.490324217e-38
0.23187238 -0.10737714 0.81700003 1.609782389e-38
0.23556001 -0.10764001 0.81900007 1.463168314e-38
0.23926286 -0.10790286 0.82100004 1.545892567e-38
0.24298096 -0.10816572 0.82300001 1.491550493e-38
0.20336191 -0.10556191 0.81500006 1.59357385e-38
0.20646667 -0.10556191 0.81500006 1.279784307e-38
0.20957145 -0.10556191 0.81500006 1.002587713e-38
0.2126762 -0.10556191 0.81500006 1.149559119e-38
0.21578097 -0.10556191 0.81500006 1.177505635e-38
0.21888573 -0.10556191 0.81500006 1.214385568e-38
0.22199048 -0.10556191 0.81500006 1.379762609e-38
0.22509526 -0.10556191 0.81500006 1.444370455e-38
0.22820002 -0.10556191 0.81500006 1.499542939e-38
0.23187238 -0.10582096 0.81700003 1.554644517e-38
0.23556001 -0.10608001 0.81900007 1.536564964e-38
0.23926286 -0.10633905 0.82100004 1.610034202e-38
0.24357145 -0.10685714 0.82500005 1.509197045e-38
0.2049143 -0.10400953 0.81500006 1.492954734e-38
0.20801906 -0.10400953 0.81500006 1.353826816e-38
0.21112382 -0.10400953 0.81500006 1.167853491e-38
0.21422859 -0.10400953 0.81500006 1.066942065e-38
0.21733335 -0.10400953 0.81500006 1.13162432e-38
0.22043811 -0.10400953 0.81500006 1.260341011e-38
0.22354287 -0.10400953 0.81500006 1.361575436e-38
0.22720382 -0.10426477 0.81700003 1.435221938e-38
0.23031621 -0.10426477 0.81700003 1.490322676e-38
0.23342857 -0.10426477 0.81700003 1.518017938e-38
0.23654096 -0.10426477 0.81700003 1.545713201e-38
0.24082668 -0.10477524 0.82100004 1.545821802e-38
0.24514288 -0.10528572 0.82500005 1.518412124e-38
0.20646667 -0.10245715 0.81500006 1.575785206e-38
0.20957145 -0.10245715 0.81500006 1.574630116e-38
0.2126762 -0.10245715 0.81500006 9.759703288e-39
0.21631049 -0.10270857 0.81700003 9.843275328e-39
0.21942286 -0.10270857 0.81700003 1.168216847e-38
0.22253524 -0.10270857 0.81700003 1.278457138e-38
0.22564763 -0.10270857 0.81700003 1.370974085e-38
0.22876 -0.10270857 0.81700003 1.435222219e-38
0.23187238 -0.10270857 0.81700003 1.481139546e-38
0.23498477 -0.10270857 0.81700003 1.508870402e-38
0.23868001 -0.10296001 0.81900007 1.536565945e-38
0.24298096 -0.10346286 0.82300001 1.545749355e-38
0.24611619 -0.10346286 0.82300001 1.527636871e-38
0.24925141 -0.10346286 0.82300001 1.409405536e-38
0.21112382 -0.10090476 0.81500006 1.41890578e-38
0.21475428 -0.10115238 0.81700003 1.20559214e-38
0.21786667 -0.10115238 0.81700003 1.112863316e-38
0.22097906 -0.10115238 0.81700003 1.168110489e-38
0.22409143 -0.10115238 0.81700003 1.278458119e-38
0.22720382 -0.10115238 0.81700003 1.370615633e-38
0.23031621 -0.10115238 0.81700003 1.435150612e-38
0.23342857 -0.10115238 0.81700003 1.472027042e-38
0.23654096 -0.10115238 0.81700003 1.490360931e-38
0.24082668 -0.10164762 0.82100004 1.517984167e-38
0.24395429 -0.10164762 0.82100004 1.554897872e-38
0.24708191 -0.10164762 0.82100004 1.518307727e-38
0.25020951 -0.10164762 0.82100004 1.464365864e-38
0.21372002 -0.099840008 0.81900007 1.602865439e-38
0.21684001 -0.099840008 0.81900007 1.261021902e-38
0.21996002 -0.099840008 0.81900007 1.039609878e-38
0.22308002 -0.099840008 0.81900007 1.186333955e-38
0.22620001 -0.099840008 0.81900007 1.297111363e-38
0.22932002 -0.099840008 0.81900007 1.398273341e-38
0.23244002 -0.099840008 0.81900007 1.444369615e-38
0.23613524 -0.10008381 0.82100004 1.462701401e-38
0.23868001 -0.099840008 0.81900007 1.471850058e-38
0.24239048 -0.10008381 0.82100004 1.518126679e-38
0.2455181 -0.10008381 0.82100004 1.637477652e-38
0.24864571 -0.10008381 0.82100004 1.527349045e-38
0.25177333 -0.10008381 0.82100004 1.500807891e-38
0.21580572 -0.098520003 0.82100004 1.492705023e-38
0.21893333 -0.098520003 0.82100004 1.288746312e-38
0.22152002 -0.098280005 0.81900007 1.122011273e-38
0.22518858 -0.098520003 0.82100004 1.168254402e-38
0.22776002 -0.098280005 0.81900007 1.288035013e-38
0.23088002 -0.098280005 0.81900007 1.379941835e-38
0.23457144 -0.098520003 0.82100004 1.42571567e-38
0.23712002 -0.098280005 0.81900007 1.453339326e-38
0.24082668 -0.098520003 0.82100004 1.490323656e-38
0.24395429 -0.098520003 0.82100004 1.554788571e-38
0.24708191 -0.098520003 0.82100004 1.573121058e-38
0.25081906 -0.098759994 0.82300001 1.536526288e-38
0.25395429 -0.098759994 0.82300001 1.473294097e-38
0.21893333 -0.096956201 0.82100004 1.437702517e-38
0.22206096 -0.096956201 0.82100004 1.14045236e-38
0.22518858 -0.096956201 0.82100004 1.094137064e-38
0.2283162 -0.096956201 0.82100004 1.242223343e-38
0.23144381 -0.096956201 0.82100004 1.352354752e-38
0.23457144 -0.096956201 0.82100004 1.398164881e-38
0.23769906 -0.096956201 0.82100004 1.434863626e-38
0.24082668 -0.096956201 0.82100004 1.499507486e-38
0.24395429 -0.096956201 0.82100004 1.536385598e-38
0.24708191 -0.096956201 0.82100004 1.563972961e-38
0.25020951 -0.096956201 0.82100004 1.554822482e-38
0.25395429 -0.097192384 0.82300001 1.47249928e-38
0.25708953 -0.097192384 0.82300001 1.446245673e-38
0.22049716 -0.095392384 0.82100004 1.410084325e-38
0.22362478 -0.095392384 0.82100004 1.22371219e-38
0.22675239 -0.095392384 0.82100004 1.085561818e-38
0.22988001 -0.095392384 0.82100004 1.187085471e-38
0.23300762 -0.095392384 0.82100004 1.26023185e-38
0.23613524 -0.095392384 0.82100004 1.361322782e-38
0.23926286 -0.095392384 0.82100004 1.453158839e-38
0.24239048 -0.095392384 0.82100004 1.508440344e-38
0.2455181 -0.095392384 0.82100004 1.545569428e-38
0.24864571 -0.095392384 0.82100004 1.564043586e-38
0.25238669 -0.09562476 0.82300001 1.555038422e-38
0.25552189 -0.09562476 0.82300001 1.481537095e-38
0.22206096 -0.093828574 0.82100004 1.502242961e-38
0.22518858 -0.093828574 0.82100004 1.214851079e-38
0.2283162 -0.093828574 0.82100004 1.030101788e-38
0.23144381 -0.093828574 0.82100004 1.094999423e-38
0.23457144 -0.093828574 0.82100004 1.223748764e-38
0.23769906 -0.093828574 0.82100004 1.379940434e-38
0.24082668 -0.093828574 0.82100004 1.462486022e-38
0.24395429 -0.093828574 0.82100004 1.508583837e-38
0.24708191 -0.093828574 0.82100004 1.545605722e-38
0.25020951 -0.093828574 0.82100004 1.564153728e-38
0.25395429 -0.094057143 0.82300001 1.564151627e-38
0.2577143 -0.094285719 0.82500005 1.555080181e-38
0.26085716 -0.094285719 0.82500005 1.491303584e-38
0.2283162 -0.092264764 0.82100004 1.132016123e-38
0.23200762 -0.092489518 0.82300001 1.03042759e-38
0.23514286 -0.092489518 0.82300001 1.187014425e-38
0.23769906 -0.092264764 0.82100004 1.36175228e-38
0.24082668 -0.092264764 0.82100004 1.444369334e-38
0.24395429 -0.092264764 0.82100004 1.499507767e-38
0.24708191 -0.092264764 0.82100004 1.536422452e-38
0.25020951 -0.092264764 0.82100004 1.564121218e-38
0.25395429 -0.092489518 0.82300001 1.582556281e-38
0.25833905 -0.092939049 0.82700002 1.591706479e-38
0.26148951 -0.092939049 0.82700002 1.564551417e-38
0.26464 -0.092939049 0.82700002 1.519286674e-38
0.23357524 -0.090921909 0.82300001 1.012310762e-38
0.23671047 -0.090921909 0.82300001 1.29753932e-38
0.23984571 -0.090921909 0.82300001 1.389123423e-38
0.24239048 -0.090700962 0.82100004 1.471919143e-38
0.2455181 -0.090700962 0.82100004 1.527165475e-38
0.24864571 -0.090700962 0.82100004 1.545714182e-38
0.25238669 -0.090921909 0.82300001 1.600780167e-38
0.25614285 -0.091142863 0.82500005 1.591488717e-38
0.25991428 -0.09136381 0.82700002 1.692724264e-38
0.26306477 -0.09136381 0.82700002 1.582667544e-38
0.26557145 -0.091142863 0.82500005 1.61083112e-38
0.26741144 -0.090700962 0.82100004 1.483233226e-38
0.23357524 -0.089354284 0.82300001 9.755755831e-39
0.23671047 -0.089354284 0.82300001 1.233146572e-38
0.23984571 -0.089354284 0.82300001 1.343169101e-38
0.24239048 -0.089137144 0.82100004 1.453873501e-38
0.2455181 -0.089137144 0.82100004 1.518231917e-38
0.24925141 -0.089354284 0.82300001 1.527345401e-38
0.25238669 -0.089354284 0.82300001 1.563972681e-38
0.25614285 -0.089571431 0.82500005 1.58233992e-38
0.25991428 -0.089788571 0.82700002 1.637729044e-38
0.26370096 -0.090005718 0.82900006 1.573265391e-38
0.26621523 -0.089788571 0.82700002 1.58252279e-38
0.26936573 -0.089788571 0.82700002 1.482226814e-38
0.27119809 -0.089354284 0.82300001 1.399575708e-38
0.27433336 -0.089354284 0.82300001 1.251990814e-38
0.23671047 -0.087786667 0.82300001 1.168754526e-38
0.23984571 -0.087786667 0.82300001 1.297431139e-38
0.24298096 -0.087786667 0.82300001 1.435722622e-38
0.24611619 -0.087786667 0.82300001 1.509121375e-38
0.24925141 -0.087786667 0.82300001 1.518234439e-38
0.25238669 -0.087786667 0.82300001 1.536493638e-38
0.25614285 -0.088000007 0.82500005 1.57315595e-38
0.26054287 -0.088426672 0.82900006 1.582519567e-38
0.26370096 -0.088426672 0.82900006 1.573265111e-38
0.26621523 -0.088213332 0.82700002 1.55497144e-38
0.26936573 -0.088213332 0.82700002 1.481540598e-38
0.27119809 -0.087786667 0.82300001 1.39931871e-38
0.27433336 -0.087786667 0.82300001 1.223429969e-38
0.23728572 -0.086428575 0.82500005 1.150280227e-38
0.23984571 -0.086219043 0.82300001 1.242509768e-38
0.24298096 -0.086219043 0.82300001 1.398989405e-38
0.24611619 -0.086219043 0.82300001 1.463599493e-38
0.24925141 -0.086219043 0.82300001 1.500011814e-38
0.25238669 -0.086219043 0.82300001 1.518270032e-38
0.25614285 -0.086428575 0.82500005 1.545605021e-38
0.25991428 -0.086638093 0.82700002 1.56408016e-38
0.26370096 -0.086847618 0.82900006 1.564081281e-38
0.26621523 -0.086638093 0.82700002 1.54578719e-38
0.26936573 -0.086638093 0.82700002 1.481536114e-38
0.27317524 -0.086847618 0.82900006 1.426648234e-38
0.27633336 -0.086847618 0.82900006 1.334057158e-38
0.23786096 -0.085062861 0.82700002 1.13194802e-38
0.24042858 -0.084857151 0.82500005 1.187372317e-38
0.24298096 -0.084651433 0.82300001 1.362290799e-38
0.24611619 -0.084651433 0.82300001 1.417608738e-38
0.24925141 -0.084651433 0.82300001 1.490934342e-38
0.25238669 -0.084651433 0.82300001 1.499938105e-38
0.25614285 -0.084857151 0.82500005 1.518090105e-38
0.25991428 -0.085062861 0.82700002 1.545676767e-38
0.26370096 -0.085268572 0.82900006 1.554896891e-38
0.26621523 -0.085062861 0.82700002 1.545786209e-38
0.27001715 -0.085268572 0.82900006 1.490719803e-38
0.27317524 -0.085268572 0.82900006 1.454200564e-38
0.27633336 -0.085268572 0.82900006 1.444585134e-38
0.27949145 -0.085268572 0.82900006 1.159677335e-38
0.23943619 -0.083487622 0.82700002 1.131947319e-38
0.24200001 -0.083285719 0.82500005 1.168933752e-38
0.24454857 -0.083083808 0.82300001 1.298113291e-38
0.24768379 -0.083083808 0.82300001 1.445230572e-38
0.25081906 -0.083083808 0.82300001 1.481713378e-38
0.25457144 -0.083285719 0.82500005 1.472351723e-38
0.2577143 -0.083285719 0.82500005 1.490575189e-38
0.26212192 -0.083689533 0.82900006 1.54571236e-38
0.26464 -0.083487622 0.82700002 1.554932204e-38
0.26779047 -0.083487622 0.82700002 1.527455123e-38
0.27159622 -0.083689533 0.82900006 1.481643173e-38
0.27409145 -0.083487622 0.82700002 1.454168895e-38
0.27791238 -0.083689533 0.82900006 1.371511063e-38
0.23843621 -0.082110479 0.82900006 1.104467997e-38
0.24101144 -0.081912383 0.82700002 1.113507913e-38
0.24357145 -0.081714287 0.82500005 1.022176324e-38
0.24671429 -0.081714287 0.82500005 1.390057108e-38
0.24985714 -0.081714287 0.82500005 1.481892464e-38
0.25300002 -0.081714287 0.82500005 1.472422489e-38
0.25614285 -0.081714287 0.82500005 1.407922542e-38
0.25928575 -0.081714287 0.82500005 1.518232757e-38
0.26306477 -0.081912383 0.82700002 1.564115473e-38
0.26621523 -0.081912383 0.82700002 1.582520267e-38
0.26936573 -0.081912383 0.82700002 1.518306185e-38
0.27251619 -0.081912383 0.82700002 1.481535974e-38
0.27566668 -0.081912383 0.82700002 1.444838629e-38
0.27949145 -0.082110479 0.82900006 1.444944007e-38
0.23943619 -0.080337144 0.82700002 1.113684897e-38
0.24258667 -0.080337144 0.82700002 1.086136911e-38
0.24514288 -0.080142856 0.82500005 1.168935433e-38
0.24828573 -0.080142856 0.82500005 1.316337178e-38
0.25142857 -0.080142856 0.82500005 1.426575647e-38
0.25518855 -0.080337144 0.82700002 1.490646656e-38
0.2577143 -0.080142856 0.82500005 1.509011513e-38
0.26148951 -0.080337144 0.82700002 1.53663615e-38
0.26464 -0.080337144 0.82700002 1.573406923e-38
0.26779047 -0.080337144 0.82700002 1.564228137e-38
0.27159622 -0.080531433 0.82900006 1.53666866e-38
0.27409145 -0.080337144 0.82700002 1.50905187e-38
0.27791238 -0.080531433 0.82900006 1.453950012e-38
0.2810705 -0.080531433 0.82900006 1.435688991e-38
0.24258667 -0.078761905 0.82700002 1.104683096e-38
0.24573715 -0.078761905 0.82700002 1.132127386e-38
0.24888761 -0.078761905 0.82700002 1.205776411e-38
0.25203812 -0.078761905 0.82700002 1.371438896e-38
0.25518855 -0.078761905 0.82700002 1.536492938e-38
0.2577143 -0.078571431 0.82500005 1.554966535e-38
0.26148951 -0.078761905 0.82700002 1.536672164e-38
0.26464 -0.078761905 0.82700002 1.582590472e-38
0.26779047 -0.078761905 0.82700002 1.582593275e-38
0.27159622 -0.078952387 0.82900006 1.573405101e-38
0.27409145 -0.078761905 0.82700002 1.555005772e-38
0.27791238 -0.078952387 0.82900006 1.472281378e-38
0.2810705 -0.078952387 0.82900006 1.435583333e-38
0.28422859 -0.078952387 0.82900006 1.371547356e-38
0.24573715 -0.077186674 0.82700002 1.122977748e-38
0.24948955 -0.077373333 0.82900006 1.178190589e-38
0.25264764 -0.077373333 0.82900006 1.343709301e-38
0.25580573 -0.077373333 0.82900006 1.509014315e-38
0.2577143 -0.077000007 0.82500005 1.536636851e-38
0.26148951 -0.077186674 0.82700002 1.518269331e-38
0.26464 -0.077186674 0.82700002 1.536565104e-38
0.26779047 -0.077186674 0.82700002 1.536637692e-38
0.27159622 -0.077373333 0.82900006 1.536637271e-38
0.27409145 -0.077186674 0.82700002 1.52741953e-38
0.27791238 -0.077373333 0.82900006 1.453842813e-38
0.2810705 -0.077373333 0.82900006 1.417218196e-38
0.28491428 -0.07756 0.83100003 1.435725004e-38
0.28808001 -0.07756 0.83100003 1.38058419e-38
0.29124573 -0.07756 0.83100003 1.261161331e-38
0.29441145 -0.07756 0.83100003 1.159964461e-38
0.23276572 -0.076525718 0.83700001 1.021637525e-38
0.23539048 -0.076342858 0.83500004 1.058442349e-38
0.24948955 -0.075794294 0.82900006 1.150603507e-38
0.25264764 -0.075794294 0.82900006 1.306868044e-38
0.25580573 -0.075794294 0.82900006 1.472674583e-38
0.25833905 -0.075611427 0.82700002 1.509122075e-38
0.26148951 -0.075611427 0.82700002 1.509119273e-38
0.26464 -0.075611427 0.82700002 1.490539597e-38
0.26779047 -0.075611427 0.82700002 1.490827143e-38
0.27094096 -0.075611427 0.82700002 1.499866919e-38
0.27409145 -0.075611427 0.82700002 1.500085382e-38
0.27724192 -0.075611427 0.82700002 1.435260194e-38
0.28039241 -0.075611427 0.82700002 1.408069258e-38
0.28422859 -0.075794294 0.82900006 1.499938245e-38
0.28738669 -0.075794294 0.82900006 1.518375269e-38
0.29124573 -0.075977147 0.83100003 1.408100227e-38
0.29441145 -0.075977147 0.83100003 1.288606742e-38
0.23172382 -0.07511048 0.83900005 1.030822195e-38
0.23380001 -0.074752383 0.83500004 1.058335289e-38
0.25167426 -0.074394293 0.83100003 1.21517576e-38
0.25483999 -0.074394293 0.83100003 1.398668087e-38
0.25738478 -0.074215241 0.82900006 1.463634526e-38
0.25991428 -0.074036188 0.82700002 1.509191159e-38
0.26370096 -0.074215241 0.82900006 1.499756497e-38
0.26621523 -0.074036188 0.82700002 1.462989088e-38
0.26936573 -0.074036188 0.82700002 1.444729608e-38
0.27251619 -0.074036188 0.82700002 1.463063076e-38
0.27566668 -0.074036188 0.82700002 1.472390539e-38
0.27881715 -0.074036188 0.82700002 1.379835757e-38
0.28196764 -0.074036188 0.82700002 1.408067577e-38
0.28580764 -0.074215241 0.82900006 1.527345682e-38
0.28966284 -0.074394293 0.83100003 1.444693315e-38
0.29282856 -0.074394293 0.83100003 1.380515246e-38
0.29599428 -0.074394293 0.83100003 1.288930723e-38
0.29844004 -0.074215241 0.82900006 1.205382225e-38
0.23380001 -0.073161907 0.83500004 1.067553731e-38
0.25167426 -0.072811432 0.83100003 1.261417769e-38
0.25483999 -0.072811432 0.83100003 1.343530356e-38
0.25676382 -0.072460949 0.82700002 1.435869338e-38
0.25991428 -0.072460949 0.82700002 1.500082019e-38
0.26306477 -0.072460949 0.82700002 1.499938105e-38
0.26621523 -0.072460949 0.82700002 1.444585835e-38
0.26936573 -0.072460949 0.82700002 1.407815623e-38
0.27251619 -0.072460949 0.82700002 1.41707218e-38
0.27500004 -0.072285712 0.82500005 1.453842953e-38
0.27881715 -0.072460949 0.82700002 1.380302109e-38
0.28196764 -0.072460949 0.82700002 1.398920601e-38
0.28580764 -0.072636195 0.82900006 1.481428774e-38
0.28896573 -0.072636195 0.82900006 1.435509765e-38
0.29212382 -0.072636195 0.82900006 1.398882346e-38
0.29599428 -0.072811432 0.83100003 1.353144945e-38
0.29844004 -0.072636195 0.82900006 1.270241745e-38
0.23380001 -0.071571432 0.83500004 1.049293411e-38
0.25483999 -0.071228571 0.83100003 1.32466033e-38
0.25676382 -0.07088571 0.82700002 1.42647139e-38
0.25991428 -0.07088571 0.82700002 1.481860935e-38
0.26370096 -0.071057148 0.82900006 1.546073475e-38
0.26621523 -0.07088571 0.82700002 1.444549822e-38
0.26936573 -0.07088571 0.82700002 1.380192808e-38
0.27251619 -0.07088571 0.82700002 1.371081425e-38
0.27566668 -0.07088571 0.82700002 1.371082266e-38
0.27881715 -0.07088571 0.82700002 1.185295032e-38
0.28196764 -0.07088571 0.82700002 1.398993188e-38
0.28511807 -0.07088571 0.82700002 1.43554788e-38
0.28826857 -0.07088571 0.82700002 1.408102469e-38
0.29212382 -0.071057148 0.82900006 1.389698936e-38
0.29528192 -0.071057148 0.82900006 1.398992067e-38
0.29844004 -0.071057148 0.82900006 1.307227757e-38
0.25483999 -0.069645718 0.83100003 1.307299503e-38
0.25676382 -0.069310479 0.82700002 1.426506142e-38
0.25991428 -0.069310479 0.82700002 1.463421388e-38
0.26306477 -0.069310479 0.82700002 1.601209945e-38
0.26621523 -0.069310479 0.82700002 1.444513808e-38
0.26936573 -0.069310479 0.82700002 1.352462092e-38
0.27251619 -0.069310479 0.82700002 1.324911023e-38
0.27566668 -0.069310479 0.82700002 1.288070045e-38
0.27814287 -0.069142863 0.82500005 1.001981511e-38
0.2812857 -0.069142863 0.82500005 1.408031703e-38
0.28511807 -0.069310479 0.82700002 1.398848574e-38
0.28826857 -0.069310479 0.82700002 1.389698796e-38
0.29212382 -0.069478095 0.82900006 1.389769982e-38
0.29528192 -0.069478095 0.82900006 1.454056651e-38
0.29844004 -0.069478095 0.82900006 1.353037465e-38
0.30232573 -0.069645718 0.83100003 1.417284757e-38
0.25142857 -0.067571431 0.82500005 1.556051841e-38
0.25457144 -0.067571431 0.82500005 1.445300357e-38
0.2577143 -0.067571431 0.82500005 1.444981982e-38
0.26085716 -0.067571431 0.82500005 1.48193142e-38
0.264 -0.067571431 0.82500005 1.48160716e-38
0.26779047 -0.06773524 0.82700002 1.352462372e-38
0.27094096 -0.06773524 0.82700002 1.260517575e-38
0.27409145 -0.06773524 0.82700002 1.195945041e-38
0.27724192 -0.06773524 0.82700002 1.038894095e-38
0.28039241 -0.06773524 0.82700002 1.159570976e-38
0.28285718 -0.067571431 0.82500005 1.371333378e-38
0.28600001 -0.067571431 0.82500005 1.362149128e-38
0.2898438 -0.06773524 0.82700002 1.362181778e-38
0.29370287 -0.067899056 0.82900006 1.38044364e-38
0.29686096 -0.067899056 0.82900006 1.362005775e-38
0.30001906 -0.067899056 0.82900006 1.343781188e-38
0.30390859 -0.068062857 0.83100003 1.261129522e-38
0.24948955 -0.066320002 0.82900006 1.67709292e-38
0.25081906 -0.065840006 0.82300001 1.630056095e-38
0.25395429 -0.065840006 0.82300001 1.528492224e-38
0.25708953 -0.065840006 0.82300001 1.445053869e-38
0.26085716 -0.066 0.82500005 1.445197362e-38
0.264 -0.066 0.82500005 1.444943727e-38
0.26779047 -0.066160001 0.82700002 1.315117768e-38
0.27094096 -0.066160001 0.82700002 1.187263997e-38
0.27409145 -0.066160001 0.82700002 1.085670278e-38
0.27724192 -0.066160001 0.82700002 9.379463753e-39
0.28039241 -0.066160001 0.82700002 1.122335673e-38
0.28285718 -0.066 0.82500005 1.343854476e-38
0.28600001 -0.066 0.82500005 1.344069435e-38
0.2898438 -0.066160001 0.82700002 1.334561064e-38
0.29370287 -0.066320002 0.82900006 1.343601822e-38
0.29686096 -0.066320002 0.82900006 1.3343831e-38
0.30001906 -0.066320002 0.82900006 1.297825325e-38
0.30390859 -0.066480003 0.83100003 1.242690676e-38
0.24828573 -0.064428575 0.82500005 1.648896132e-38
0.25020951 -0.064116195 0.82100004 1.537967244e-38
0.25333714 -0.064116195 0.82100004 1.43633569e-38
0.25646478 -0.064116195 0.82100004 1.408284077e-38
0.26022476 -0.064272381 0.82300001 1.399064654e-38
0.264 -0.064428575 0.82500005 1.389877461e-38
0.26779047 -0.064584762 0.82700002 1.214134175e-38
0.27094096 -0.064584762 0.82700002 1.085957685e-38
0.27475429 -0.064740956 0.82900006 9.842920799e-39
0.27791238 -0.064740956 0.82900006 9.013193761e-39
0.28039241 -0.064584762 0.82700002 1.094571046e-38
0.28285718 -0.064428575 0.82500005 1.270027487e-38
0.28600001 -0.064428575 0.82500005 1.297649882e-38
0.2898438 -0.064584762 0.82700002 1.288537518e-38
0.29370287 -0.064740956 0.82900006 1.288464791e-38
0.29686096 -0.064740956 0.82900006 1.270062099e-38
0.30001906 -0.064740956 0.82900006 1.260945391e-38
0.29184002 -0.062320005 0.79800004 1.251766746e-38
0.24611619 -0.062704764 0.82300001 1.648716626e-38
0.24864571 -0.062552378 0.82100004 1.593178964e-38
0.25116003 -0.062400002 0.81900007 1.31677116e-38
0.25428 -0.062400002 0.81900007 1.371585051e-38
0.2580286 -0.062552378 0.82100004 1.371334359e-38
0.26179239 -0.062704764 0.82300001 1.343817762e-38
0.26557145 -0.062857144 0.82500005 1.334272537e-38
0.26936573 -0.06300953 0.82700002 9.203305122e-39
0.27317524 -0.06316191 0.82900006 1.040038956e-38
0.27633336 -0.06316191 0.82900006 7.544527873e-39
0.27949145 -0.06316191 0.82900006 9.841518099e-39
0.28264955 -0.06316191 0.82900006 1.150461135e-38
0.2844286 -0.062857144 0.82500005 1.242440124e-38
0.28826857 -0.06300953 0.82700002 1.260950576e-38
0.29212382 -0.06316191 0.82900006 1.23332776e-38
0.29528192 -0.06316191 0.82900006 1.25158752e-38
0.29844004 -0.06316191 0.82900006 1.187373438e-38
0.29032004 -0.060800005 0.79800004 1.251873245e-38
0.29409525 -0.06095238 0.80000001 1.261166376e-38
0.29640001 -0.060800005 0.79800004 1.270458526e-38
0.24708191 -0.060988571 0.82100004 1.482834137e-38
0.24899048 -0.060691431 0.81700003 1.362509822e-38
0.25210285 -0.060691431 0.81700003 1.325702896e-38
0.25521526 -0.060691431 0.81700003 1.343747557e-38
0.25896001 -0.060840003 0.81900007 1.325237245e-38
0.26336002 -0.061137144 0.82300001 1.297790432e-38
0.26779047 -0.061434288 0.82700002 1.159387406e-38
0.27159622 -0.06158286 0.82900006 1.021206345e-38
0.27475429 -0.06158286 0.82900006 9.661741315e-39
0.27791238 -0.06158286 0.82900006 9.662144889e-39
0.2810705 -0.06158286 0.82900006 1.085781542e-38
0.28422859 -0.06158286 0.82900006 1.178154576e-38
0.28669333 -0.061434288 0.82700002 1.23322014e-38
0.29054478 -0.06158286 0.82900006 1.260841975e-38
0.29370287 -0.06158286 0.82900006 1.269954199e-38
0.28540194 -0.059205718 0.79700005 1.251481301e-38
0.28843811 -0.059205718 0.79700005 1.251694999e-38
0.29184002 -0.059280004 0.79800004 1.279533195e-38
0.29488003 -0.059280004 0.79800004 1.307084264e-38
0.24217144 -0.058990479 0.81500006 1.557059795e-38
0.24648002 -0.059280004 0.81900007 1.345148715e-38
0.24838097 -0.058990479 0.81500006 1.27027958e-38
0.25148574 -0.058990479 0.81500006 1.316122779e-38
0.25459048 -0.058990479 0.81500006 1.32530787e-38
0.25832763 -0.05913524 0.81700003 1.297685615e-38
0.26272002 -0.059424765 0.82100004 1.26998839e-38
0.26779047 -0.059859049 0.82700002 1.187225881e-38
0.27094096 -0.059859049 0.82700002 1.075769544e-38
0.27475429 -0.060003813 0.82900006 1.040220844e-38
0.27791238 -0.060003813 0.82900006 1.06773604e-38
0.2810705 -0.060003813 0.82900006 1.104399193e-38
0.2712 -0.057253335 0.79100001 1.15971531e-38
0.27421334 -0.057253335 0.79100001 1.22403575e-38
0.27792761 -0.057398096 0.79300004 1.279100894e-38
0.28236571 -0.057687622 0.79700005 1.297504707e-38
0.28540194 -0.057687622 0.79700005 1.288180608e-38
0.28843811 -0.057687622 0.79700005 1.279245788e-38
0.29184002 -0.05776 0.79800004 1.307083283e-38
0.29488003 -0.05776 0.79800004 1.362220874e-38
0.24217144 -0.057438098 0.81500006 1.510780232e-38
0.2452762 -0.057438098 0.81500006 1.335243777e-38
0.2480762 -0.057367619 0.81400001 1.270315453e-38
0.25117713 -0.057367619 0.81400001 1.325304507e-38
0.25427809 -0.057367619 0.81400001 1.325342903e-38
0.25737906 -0.057367619 0.81400001 1.279353548e-38
0.26208001 -0.057720006 0.81900007 1.270167476e-38
0.26649523 -0.058001906 0.82300001 1.233216357e-38
0.27094096 -0.05828381 0.82700002 1.214778492e-38
0.27475429 -0.058424767 0.82900006 1.178265559e-38
0.27858287 -0.058565717 0.83100003 1.113725955e-38
0.26818666 -0.055746667 0.79100001 1.113618055e-38
0.2712 -0.055746667 0.79100001 1.159571396e-38
0.27421334 -0.055746667 0.79100001 1.223963303e-38
0.27792761 -0.055887621 0.79300004 1.306758602e-38
0.28094858 -0.055887621 0.79300004 1.343565808e-38
0.28540194 -0.056169529 0.79700005 1.334422196e-38
0.28843811 -0.056169529 0.79700005 1.334598339e-38
0.29184002 -0.05624 0.79800004 1.362220034e-38
0.29488003 -0.05624 0.79800004 1.399026399e-38
0.3017143 -0.056380954 0.80000001 1.481606459e-38
0.30361906 -0.056169529 0.79700005 1.343641619e-38
0.24187429 -0.055817142 0.81400001 1.473688002e-38
0.24437334 -0.055680003 0.81200004 1.325521849e-38
0.24746668 -0.055680003 0.81200004 1.279533755e-38
0.25056002 -0.055680003 0.81200004 1.334703296e-38
0.2530286 -0.05554286 0.81000006 1.334669525e-38
0.25674668 -0.055680003 0.81200004 1.261272594e-38
0.26047999 -0.055817142 0.81400001 1.279460047e-38
0.26358095 -0.055817142 0.81400001 1.279529692e-38
0.27159622 -0.056845717 0.82900006 1.353935277e-38
0.27541715 -0.056982856 0.83100003 1.325989041e-38
0.26584381 -0.054377146 0.79300004 1.159750763e-38
0.26818666 -0.05424 0.79100001 1.122799783e-38
0.2712 -0.05424 0.79100001 1.150351553e-38
0.27421334 -0.05424 0.79100001 1.223891837e-38
0.27722669 -0.05424 0.79100001 1.334452884e-38
0.28024 -0.05424 0.79100001 1.389447683e-38
0.28468573 -0.054514285 0.79500002 1.389593839e-38
0.28843811 -0.054651432 0.79700005 1.38973551e-38
0.29147431 -0.054651432 0.79700005 1.407994709e-38
0.29488003 -0.054719999 0.79800004 1.445052047e-38
0.29792002 -0.054719999 0.79800004 1.472603537e-38
0.3017143 -0.054857146 0.80000001 1.527560501e-38
0.30400002 -0.054719999 0.79800004 1.481535413e-38
0.30704004 -0.054719999 0.79800004 1.14142304e-38
0.2422286 -0.054000005 0.81000006 1.178231367e-38
0.2453143 -0.054000005 0.81000006 1.215211633e-38
0.2484 -0.054000005 0.81000006 1.252052611e-38
0.25148574 -0.054000005 0.81000006 1.28846353e-38
0.25457144 -0.054000005 0.81000006 1.206027383e-38
0.25765714 -0.054000005 0.81000006 1.187912097e-38
0.26074287 -0.054000005 0.81000006 1.316266272e-38
0.25959429 -0.053133339 0.79700005 1.234011594e-38
0.26263049 -0.053133339 0.79700005 1.326169949e-38
0.26433334 -0.052866668 0.79300004 1.159570696e-38
0.26735431 -0.052866668 0.79300004 1.085849925e-38
0.26969334 -0.052733332 0.79100001 1.131911026e-38
0.27201715 -0.052600004 0.78900003 1.195946442e-38
0.27502286 -0.052600004 0.78900003 1.306902656e-38
0.27802858 -0.052600004 0.78900003 1.417069658e-38
0.28174669 -0.052733332 0.79100001 1.417034766e-38
0.28548002 -0.052866668 0.79300004 1.408066876e-38
0.28922856 -0.052999999 0.79500002 1.435689271e-38
0.29299241 -0.053133339 0.79700005 1.463311807e-38
0.29640001 -0.053200003 0.79800004 1.490827283e-38
0.30019048 -0.053333335 0.80000001 1.49089903e-38
0.30323809 -0.053333335 0.80000001 1.52745176e-38
0.30552003 -0.053200003 0.79800004 1.399133178e-38
0.24128 -0.052586671 0.81200004 1.123380341e-38
0.24377145 -0.052457146 0.81000006 1.06705543e-38
0.24685715 -0.052457146 0.81000006 1.186834639e-38
0.24994288 -0.052457146 0.81000006 1.20545159e-38
0.25240383 -0.052327618 0.80800003 1.159822369e-38
0.2554819 -0.052327618 0.80800003 1.141313458e-38
0.25792 -0.052198097 0.80600005 1.2244347e-38
0.26099047 -0.052198097 0.80600005 1.2614514e-38
0.26111239 -0.051615242 0.79700005 1.205386429e-38
0.26348573 -0.051485714 0.79500002 1.159066789e-38
0.26584381 -0.051356193 0.79300004 1.085815593e-38
0.26886478 -0.051356193 0.79300004 1.095071029e-38
0.2712 -0.051226668 0.79100001 1.177938355e-38
0.27352002 -0.051097143 0.78900003 1.279101315e-38
0.27652574 -0.051097143 0.78900003 1.389555023e-38
0.27953145 -0.051097143 0.78900003 1.444657301e-38
0.28325334 -0.051226668 0.79100001 1.435617104e-38
0.28699049 -0.051356193 0.79300004 1.454128257e-38
0.29074284 -0.051485714 0.79500002 1.490935884e-38
0.29451048 -0.051615242 0.79700005 1.509122496e-38
0.29792002 -0.051680002 0.79800004 1.509158789e-38
0.3017143 -0.051809523 0.80000001 1.490863156e-38
0.30476189 -0.051809523 0.80000001 1.444837508e-38
0.30780953 -0.051809523 0.80000001 1.417286439e-38
0.24068573 -0.050914288 0.81000006 1.141239049e-38
0.24316953 -0.050788574 0.80800003 1.076275553e-38
0.24685715 -0.050914288 0.81000006 1.094710756e-38
0.24932574 -0.050788574 0.80800003 1.104180871e-38
0.25240383 -0.050788574 0.80800003 1.104326045e-38
0.2554819 -0.050788574 0.80800003 1.15017597e-38
0.25664002 -0.050411429 0.80200005 1.27953866e-38
0.25904763 -0.050285712 0.80000001 1.261380354e-38
0.26045716 -0.049971428 0.79500002 1.131736284e-38
0.26348573 -0.049971428 0.79500002 1.113147639e-38
0.26584381 -0.049845714 0.79300004 1.104218566e-38
0.26818666 -0.04972 0.79100001 1.122624761e-38
0.27051428 -0.049594287 0.78900003 1.187122746e-38
0.27317336 -0.04953143 0.78800005 1.279065581e-38
0.27652574 -0.049594287 0.78900003 1.371152751e-38
0.27953145 -0.049594287 0.78900003 1.417286719e-38
0.28325334 -0.04972 0.79100001 1.417357064e-38
0.28699049 -0.049845714 0.79300004 1.435761578e-38
0.29001144 -0.049845714 0.79300004 1.47249886e-38
0.29451048 -0.050097149 0.79700005 1.518342479e-38
0.29792002 -0.050160002 0.79800004 1.527525608e-38
0.3017143 -0.050285712 0.80000001 1.481680167e-38
0.30476189 -0.050285712 0.80000001 1.444876745e-38
0.30780953 -0.050285712 0.80000001 1.426505722e-38
0.24068573 -0.049371433 0.81000006 1.159102522e-38
0.24316953 -0.049249526 0.80800003 1.076452817e-38
0.24624762 -0.049249526 0.80800003 1.002767359e-38
0.24932574 -0.049249526 0.80800003 1.002945605e-38
0.25240383 -0.049249526 0.80800003 1.057835867e-38
0.25484952 -0.049127623 0.80600005 1.160148031e-38
0.25600001 -0.048761904 0.80000001 1.334637715e-38
0.25839999 -0.048640002 0.79800004 1.251443186e-38
0.26045716 -0.048457142 0.79500002 1.06727137e-38
0.26282287 -0.048335239 0.79300004 1.067230732e-38
0.26584381 -0.048335239 0.79300004 1.12265643e-38
0.26818666 -0.048213333 0.79100001 1.140990319e-38
0.27051428 -0.04809143 0.78900003 1.205274185e-38
0.27317336 -0.048030477 0.78800005 1.279065441e-38
0.27617523 -0.048030477 0.78800005 1.343565808e-38
0.27953145 -0.04809143 0.78900003 1.38973523e-38
0.28325334 -0.048213333 0.79100001 1.408137081e-38
0.28699049 -0.048335239 0.79300004 1.417429792e-38
0.29001144 -0.048335239 0.79300004 1.454058473e-38
0.29451048 -0.048579048 0.79700005 1.536709018e-38
0.29792002 -0.048640002 0.79800004 1.555112411e-38
0.3017143 -0.048761904 0.80000001 1.481680027e-38
0.30476189 -0.048761904 0.80000001 1.444911357e-38
0.30857906 -0.048883811 0.80200005 1.435760738e-38
0.23818667 -0.047946669 0.81200004 1.325777305e-38
0.24068573 -0.047828577 0.81000006 1.076341694e-38
0.24377145 -0.047828577 0.81000006 1.012166008e-38
0.24685715 -0.047828577 0.81000006 9.383746121e-39
0.24932574 -0.047710475 0.80800003 9.841829188e-39
0.25177905 -0.047592383 0.80600005 1.1410992e-38
0.25421715 -0.047474284 0.80400002 1.242907036e-38
0.25600001 -0.047238097 0.80000001 1.316196628e-38
0.25807619 -0.047060952 0.79700005 1.260626596e-38
0.26045716 -0.046942856 0.79500002 1.131627263e-38
0.26282287 -0.046824764 0.79300004 1.104073391e-38
0.26584381 -0.046824764 0.79300004 1.140843183e-38
0.26818666 -0.046706665 0.79100001 1.168395933e-38
0.27051428 -0.046588574 0.78900003 1.214421581e-38
0.27352002 -0.046588574 0.78900003 1.288248851e-38
0.27652574 -0.046588574 0.78900003 1.352784811e-38
0.27953145 -0.046588574 0.78900003 1.389626909e-38
0.28325334 -0.046706665 0.79100001 1.398881224e-38
0.28699049 -0.046824764 0.79300004 1.389699216e-38
0.29001144 -0.046824764 0.79300004 1.417322873e-38
0.29451048 -0.047060952 0.79700005 1.490826582e-38
0.29792002 -0.047120001 0.79800004 1.509266829e-38
0.3017143 -0.047238097 0.80000001 1.472496337e-38
0.30476189 -0.047238097 0.80000001 1.444910096e-38
0.30934858 -0.047474284 0.80400002 1.426469288e-38
0.31318858 -0.047592383 0.80600005 1.353000891e-38
0.23973335 -0.046399999 0.81200004 1.012634462e-38
0.24282669 -0.046399999 0.81200004 9.662468589e-39
0.2453143 -0.046285715 0.81000006 9.291188956e-39
0.2484 -0.046285715 0.81000006 8.373564071e-39
0.25086477 -0.04617143 0.80800003 1.104650586e-38
0.25268573 -0.045942858 0.80400002 1.353146066e-38
0.25447619 -0.045714285 0.80000001 1.307156851e-38
0.25591427 -0.04542857 0.79500002 1.306689518e-38
0.25829145 -0.045314286 0.79300004 1.24218831e-38
0.2613124 -0.045314286 0.79300004 1.150136874e-38
0.26433334 -0.045314286 0.79300004 1.159067209e-38
0.26735431 -0.045314286 0.79300004 1.177613534e-38
0.26969334 -0.045199998 0.79100001 1.205130132e-38
0.27201715 -0.045085717 0.78900003 1.260518976e-38
0.27502286 -0.045085717 0.78900003 1.343421755e-38
0.27802858 -0.045085717 0.78900003 1.371187503e-38
0.28174669 -0.045199998 0.79100001 1.426396561e-38
0.28476 -0.045199998 0.79100001 1.362076401e-38
0.28850096 -0.045314286 0.79300004 1.362041088e-38
0.29225713 -0.04542857 0.79500002 1.408246242e-38
0.29602858 -0.045542859 0.79700005 1.472604518e-38
0.29944003 -0.045600001 0.79800004 1.472533051e-38
0.30323809 -0.045714285 0.80000001 1.472460044e-38
0.30705145 -0.045828573 0.80200005 1.435616684e-38
0.31165335 -0.046057146 0.80600005 1.408101068e-38
0.31550476 -0.04617143 0.80800003 1.334597919e-38
0.2403238 -0.044963811 0.81400001 1.085528187e-38
0.24282669 -0.044853333 0.81200004 8.653348724e-39
0.2453143 -0.04474286 0.81000006 8.554348388e-39
0.2484 -0.04474286 0.81000006 6.704759131e-39
0.25086477 -0.044632383 0.80800003 1.317237512e-38
0.25205714 -0.044300955 0.80200005 1.32563185e-38
0.25384 -0.04408 0.79800004 1.325524651e-38
0.25591427 -0.043914285 0.79500002 1.334384221e-38
0.25829145 -0.043803811 0.79300004 1.297899593e-38
0.2613124 -0.043803811 0.79300004 1.297648341e-38
0.26366666 -0.043693334 0.79100001 1.168107546e-38
0.26735431 -0.043803811 0.79300004 1.196195313e-38
0.26969334 -0.043693334 0.79100001 1.205130132e-38
0.27201715 -0.043582857 0.78900003 1.260519256e-38
0.27502286 -0.043582857 0.78900003 1.325126262e-38
0.27802858 -0.043582857 0.78900003 1.315978165e-38
0.28174669 -0.043693334 0.79100001 1.352784811e-38
0.28548002 -0.043803811 0.79300004 1.306473298e-38
0.28850096 -0.043803811 0.79300004 1.297719947e-38
0.29225713 -0.043914285 0.79500002 1.362471567e-38
0.29640001 -0.04408 0.79800004 1.426544257e-38
0.29944003 -0.04408 0.79800004 1.444875343e-38
0.30323809 -0.044190478 0.80000001 1.454092384e-38
0.30705145 -0.044300955 0.80200005 1.42639614e-38
0.31165335 -0.044521909 0.80600005 1.389768861e-38
0.31706667 -0.044853333 0.81200004 1.334562045e-38
0.2403238 -0.043413334 0.81400001 1.168431106e-38
0.24342477 -0.043413334 0.81400001 7.628814575e-39
0.2453143 -0.043200005 0.81000006 7.909706253e-39
0.2484 -0.043200005 0.81000006 5.052803404e-39
0.25024381 -0.042986669 0.80600005 1.528567193e-38
0.25142857 -0.042666666 0.80000001 1.298152668e-38
0.25352192 -0.042506669 0.79700005 1.352967961e-38
0.25527051 -0.042293333 0.79300004 1.371226319e-38
0.25829145 -0.042293333 0.79300004 1.362185281e-38
0.26065335 -0.042186666 0.79100001 1.444513808e-38
0.26366666 -0.042186666 0.79100001 1.177794442e-38
0.26668 -0.042186666 0.79100001 1.223603449e-38
0.26969334 -0.042186666 0.79100001 1.214349274e-38
0.27270669 -0.042186666 0.79100001 1.269630779e-38
0.27572 -0.042186666 0.79100001 1.306543783e-38
0.27873334 -0.042186666 0.79100001 1.260697221e-38
0.28174669 -0.042186666 0.79100001 1.279028867e-38
0.28548002 -0.042293333 0.79300004 1.260591143e-38
0.28922856 -0.042399999 0.79500002 1.2333279e-38
0.29299241 -0.042506669 0.79700005 1.325379056e-38
0.29640001 -0.042560004 0.79800004 1.389772784e-38
0.29944003 -0.042560004 0.79800004 1.426290763e-38
0.30323809 -0.042666666 0.80000001 1.444728207e-38
0.30705145 -0.042773336 0.80200005 1.426432574e-38
0.31165335 -0.042986669 0.80600005 1.380550559e-38
0.31784761 -0.043413334 0.81400001 1.343710563e-38
0.32094857 -0.043413334 0.81400001 1.316160334e-38
0.24239048 -0.042222861 0.82100004 1.14113157e-38
0.24342477 -0.041862857 0.81400001 7.629896377e-39
0.24592 -0.041760001 0.81200004 7.724243e-39
0.2484 -0.041657142 0.81000006 5.421229994e-39
0.25024381 -0.041451432 0.80600005 1.345040114e-38
0.25080001 -0.041040003 0.79800004 1.242082512e-38
0.2528857 -0.040885713 0.79500002 1.334386042e-38
0.25527051 -0.040782858 0.79300004 1.444695136e-38
0.25764 -0.040679999 0.79100001 1.389736771e-38
0.26065335 -0.040679999 0.79100001 1.427044101e-38
0.26366666 -0.040679999 0.79100001 1.251407453e-38
0.26668 -0.040679999 0.79100001 1.260195136e-38
0.26969334 -0.040679999 0.79100001 1.241935656e-38
0.27270669 -0.040679999 0.79100001 1.315333148e-38
0.27572 -0.040679999 0.79100001 1.287853825e-38
0.27873334 -0.040679999 0.79100001 1.232823293e-38
0.28174669 -0.040679999 0.79100001 1.122585104e-38
0.28620002 -0.040885713 0.79500002 1.104183533e-38
0.28922856 -0.040885713 0.79500002 1.168541388e-38
0.29299241 -0.040988572 0.79700005 1.251085995e-38
0.29640001 -0.041040003 0.79800004 1.325235563e-38
0.30019048 -0.041142859 0.80000001 1.370900097e-38
0.30323809 -0.041142859 0.80000001 1.398773324e-38
0.30705145 -0.041245718 0.80200005 1.398990105e-38
0.31242666 -0.041554287 0.80800003 1.334598059e-38
0.31784761 -0.041862857 0.81400001 1.389736911e-38
0.32134289 -0.041914288 0.81500006 1.34378371e-38
0.24082668 -0.040659048 0.82100004 1.271102843e-38
0.24336001 -0.040560003 0.81900007 9.374037925e-39
0.24497524 -0.04031238 0.81400001 7.538065085e-39
0.24746668 -0.040213335 0.81200004 6.615399729e-39
0.24932574 -0.040015239 0.80800003 8.660226297e-39
0.24990475 -0.039619051 0.80000001 1.168325028e-38
0.25137141 -0.039371427 0.79500002 1.251553889e-38
0.25376001 -0.039272383 0.79300004 1.417072461e-38
0.25613335 -0.039173331 0.79100001 1.472388858e-38
0.25914666 -0.039173331 0.79100001 1.417576648e-38
0.26216 -0.039173331 0.79100001 1.371224497e-38
0.26517335 -0.039173331 0.79100001 1.315476781e-38
0.26818666 -0.039173331 0.79100001 1.287996197e-38
0.2712 -0.039173331 0.79100001 1.31536832e-38
0.27421334 -0.039173331 0.79100001 1.315439786e-38
0.27792761 -0.039272383 0.79300004 1.241898242e-38
0.28094858 -0.039272383 0.79300004 1.084989528e-38
0.28396955 -0.039272383 0.79300004 9.572100253e-39
0.28880003 -0.039520003 0.79800004 1.030464864e-38
0.29184002 -0.039520003 0.79800004 1.149958629e-38
0.29488003 -0.039520003 0.79800004 1.223427026e-38
0.29866666 -0.039619051 0.80000001 1.297648621e-38
0.3017143 -0.039619051 0.80000001 1.334273658e-38
0.30552381 -0.039718099 0.80200005 1.362112694e-38
0.30934858 -0.039817143 0.80400002 1.334634492e-38
0.31552002 -0.040213335 0.81200004 1.362184861e-38
0.31979051 -0.040361907 0.81500006 1.407996811e-38
0.32289526 -0.040361907 0.81500006 1.251767447e-38
0.23742858 -0.039571431 0.83100003 1.465043812e-38
0.2405943 -0.039571431 0.83100003 1.418803485e-38
0.24141334 -0.039190479 0.82300001 1.252340157e-38
0.24395429 -0.039095242 0.82100004 9.654566667e-39
0.2452762 -0.038809527 0.81500006 8.090145851e-39
0.24838097 -0.038809527 0.81500006 6.710116295e-39
0.2474743 -0.038190477 0.80200005 7.825755864e-39
0.24896763 -0.037952382 0.79700005 1.048544557e-38
0.25137141 -0.037857141 0.79500002 1.177725218e-38
0.25376001 -0.037761904 0.79300004 1.352715447e-38
0.25613335 -0.037666667 0.79100001 1.435546899e-38
0.25914666 -0.037666667 0.79100001 1.398960958e-38
0.26216 -0.037666667 0.79100001 1.352570412e-38
0.26517335 -0.037666667 0.79100001 1.315584821e-38
0.26818666 -0.037666667 0.79100001 1.287996197e-38
0.27188572 -0.037761904 0.79300004 1.269414278e-38
0.27490667 -0.037761904 0.79300004 1.177505915e-38
0.27792761 -0.037761904 0.79300004 1.030137381e-38
0.28094858 -0.037761904 0.79300004 9.379809874e-39
0.28540194 -0.037952382 0.79700005 9.197945155e-39
0.28952381 -0.038095236 0.80000001 1.002662963e-38
0.29257143 -0.038095236 0.80000001 1.113080517e-38
0.29561904 -0.038095236 0.80000001 1.186656254e-38
0.29866666 -0.038095236 0.80000001 1.26077107e-38
0.30246857 -0.038190477 0.80200005 1.315944114e-38
0.30628571 -0.038285714 0.80400002 1.362005775e-38
0.31088763 -0.038476191 0.80800003 1.362185842e-38
0.31629714 -0.038761906 0.81400001 1.371404564e-38
0.31979051 -0.038809527 0.81500006 1.389700197e-38
0.32289526 -0.038809527 0.81500006 1.288501505e-38
0.23584573 -0.037988573 0.83100003 1.465079825e-38
0.23901144 -0.037988573 0.83100003 1.409545666e-38
0.24042858 -0.037714288 0.82500005 1.399315627e-38
0.24298096 -0.037622858 0.82300001 1.0668727e-38
0.24492002 -0.037440002 0.81900007 9.380146185e-39
0.24743429 -0.037348576 0.81700003 7.998311756e-39
0.24993335 -0.037257146 0.81500006 5.79534025e-39
0.24682859 -0.036342856 0.79500002 8.093754195e-39
0.24922857 -0.036251429 0.79300004 1.039109054e-38
0.25224951 -0.036251429 0.79300004 1.187086592e-38
0.25462666 -0.036160003 0.79100001 1.380264554e-38
0.25764 -0.036160003 0.79100001 1.417144207e-38
0.26065335 -0.036160003 0.79100001 1.343424277e-38
0.26366666 -0.036160003 0.79100001 1.334022966e-38
0.26668 -0.036160003 0.79100001 1.324766268e-38
0.26969334 -0.036160003 0.79100001 1.269627976e-38
0.27270669 -0.036160003 0.79100001 1.186509398e-38
0.27641714 -0.036251429 0.79300004 9.099623048e-39
0.27943811 -0.036251429 0.79300004 7.356903818e-39
0.28388384 -0.036434289 0.79700005 8.551847071e-39
0.28944001 -0.036754288 0.80400002 9.197576613e-39
0.29250288 -0.036754288 0.80400002 1.039288e-38
0.29556569 -0.036754288 0.80400002 1.113222889e-38
0.29788575 -0.036662858 0.80200005 1.205346072e-38
0.30169141 -0.036754288 0.80400002 1.260878409e-38
0.30475429 -0.036754288 0.80400002 1.352678592e-38
0.30858287 -0.036845718 0.80600005 1.398705362e-38
0.31397337 -0.03712 0.81200004 1.380553642e-38
0.31823811 -0.037257146 0.81500006 1.398955493e-38
0.32134289 -0.037257146 0.81500006 1.352929845e-38
0.32444763 -0.037257146 0.81500006 1.297469535e-38
0.23742858 -0.036405716 0.83100003 1.36373806e-38
0.23943619 -0.036230475 0.82700002 1.242979343e-38
0.24141334 -0.036055241 0.82300001 1.104325064e-38
0.24395429 -0.035967622 0.82100004 9.84363406e-39
0.24648002 -0.035880003 0.81900007 8.83164994e-39
0.24960001 -0.035880003 0.81900007 7.727097445e-39
0.25210285 -0.035792381 0.81700003 7.72713528e-39
0.24834286 -0.03482857 0.79500002 9.011750424e-39
0.25073904 -0.034740951 0.79300004 1.039394639e-38
0.25312001 -0.034653336 0.79100001 1.159426642e-38
0.25613335 -0.034653336 0.79100001 1.233363073e-38
0.25914666 -0.034653336 0.79100001 1.26055611e-38
0.26149717 -0.034565717 0.78900003 1.287782639e-38
0.26517335 -0.034653336 0.79100001 1.260588761e-38
0.26818666 -0.034653336 0.79100001 1.131910045e-38
0.27188572 -0.034740951 0.79300004 9.754653009e-39
0.27490667 -0.034740951 0.79300004 8.270948386e-39
0.27792761 -0.034740951 0.79300004 7.629177511e-39
0.28838858 -0.035660952 0.81400001 8.000825686e-39
0.29005715 -0.035485715 0.81000006 8.736931973e-39
0.29169527 -0.035310481 0.80600005 9.932260583e-39
0.2940343 -0.035222858 0.80400002 1.103714659e-38
0.29709715 -0.035222858 0.80400002 1.195946582e-38
0.30015999 -0.035222858 0.80400002 1.279137188e-38
0.30322286 -0.035222858 0.80400002 1.334347086e-38
0.30704764 -0.035310481 0.80600005 1.398668647e-38
0.31319621 -0.035660952 0.81400001 1.40796374e-38
0.31668574 -0.035704762 0.81500006 1.380553221e-38
0.31979051 -0.035704762 0.81500006 1.362077522e-38
0.32368761 -0.035792381 0.81700003 1.316016281e-38
0.23584573 -0.034822859 0.83100003 1.344828378e-38
0.23901144 -0.034822859 0.83100003 1.234049289e-38
0.24042858 -0.034571432 0.82500005 9.480631897e-39
0.24298096 -0.03448762 0.82300001 1.011915176e-38
0.2455181 -0.034403808 0.82100004 9.384457981e-39
0.24804002 -0.034320004 0.81900007 8.739451508e-39
