# .PCD v0.7 - Point Cloud Data file format
VERSION 0.7
FIELDS x y z rgb
SIZE 4 4 4 4
TYPE F F F F
COUNT 1 1 1 1
WIDTH 965
HEIGHT 1
VIEWPOINT 0 0 0 1 0 0 0
POINTS 965
DATA ascii
0.1765524 0.076053336 0.71300006 1.149848487e-38
0.17926858 0.076053336 0.71300006 1.186726879e-38
0.18198477 0.076053336 0.71300006 1.223427166e-38
0.18470097 0.076053336 0.71300006 1.251012427e-38
0.18768001 0.076159999 0.71400005 1.260268564e-38
0.19093335 0.076373331 0.71600002 1.27881629e-38
0.19366096 0.076373331 0.71600002 1.333771993e-38
0.19638857 0.076373331 0.71600002 1.279101034e-38
0.1991162 0.076373331 0.71600002 1.325269615e-38
0.21142858 0.080000006 0.75000006 1.389555583e-38
0.21485715 0.080213338 0.75200003 1.343745034e-38
0.2185905 0.080533341 0.75500005 1.371295964e-38
0.22234666 0.080853336 0.75800002 1.352892711e-38
0.22582857 0.081066668 0.76000005 1.352927323e-38
0.22902477 0.081173338 0.76100004 1.343674689e-38
0.23253334 0.08138667 0.76300001 1.343637835e-38
0.23605716 0.08160001 0.76500005 1.343634332e-38
0.23959619 0.081813335 0.76700002 1.307082162e-38
0.24346668 0.082133338 0.77000004 1.297827987e-38
0.24703999 0.08234667 0.77200001 1.3619678e-38
0.25030476 0.082453333 0.77300006 1.370972684e-38
0.25455999 0.082879998 0.77700001 1.371007296e-38
0.25917715 0.08341334 0.78200006 1.34338392e-38
0.26282668 0.083626673 0.78400004 1.288429758e-38
0.26716954 0.084053338 0.78800005 1.30672329e-38
0.27017143 0.084053338 0.78800005 1.287960183e-38
0.27352002 0.08416 0.78900003 1.278777755e-38
0.27792761 0.084586665 0.79300004 1.251371159e-38
0.28094858 0.084586665 0.79300004 1.196302792e-38
0.28540194 0.085013337 0.79700005 1.187230926e-38
0.28843811 0.085013337 0.79700005 1.19648398e-38
0.29696 0.086613335 0.81200004 1.187302532e-38
0.29931432 0.08640001 0.81000006 1.214567036e-38
0.30165336 0.08618667 0.80800003 1.214566896e-38
0.30473143 0.08618667 0.80800003 1.196450909e-38
0.31047621 0.086933337 0.81500006 1.205487463e-38
0.31358096 0.086933337 0.81500006 1.196161822e-38
0.31668574 0.086933337 0.81500006 1.14113143e-38
0.32057524 0.08714667 0.81700003 1.131734883e-38
0.32368761 0.08714667 0.81700003 1.159247977e-38
0.32760003 0.087360002 0.81900007 1.149919393e-38
0.33152762 0.087573335 0.82100004 1.159247136e-38
0.33465526 0.087573335 0.82100004 1.214346472e-38
0.33860573 0.087786667 0.82300001 1.214456614e-38
0.34257144 0.088000007 0.82500005 1.159354615e-38
0.34487617 0.087786667 0.82300001 1.149920934e-38
0.34885716 0.088000007 0.82500005 1.150062185e-38
0.35200003 0.088000007 0.82500005 1.149992681e-38
0.35686478 0.088426672 0.82900006 1.149920514e-38
0.36176002 0.088853337 0.83300006 1.159390629e-38
0.36493334 0.088853337 0.83300006 1.159209301e-38
0.36810669 0.088853337 0.83300006 1.159068751e-38
0.37128001 0.088853337 0.83300006 1.131732921e-38
0.37445337 0.088853337 0.83300006 1.140844304e-38
0.37944001 0.089280002 0.83700001 1.159246435e-38
0.38262859 0.089280002 0.83700001 1.140628504e-38
0.38766095 0.089706667 0.84100002 1.09485551e-38
0.39179432 0.089920007 0.84300005 1.150027012e-38
0.39500573 0.089920007 0.84300005 1.186761491e-38
0.40057907 0.090453334 0.84800005 1.140806328e-38
0.40380955 0.090453334 0.84800005 1.140914929e-38
0.40560001 0.090133332 0.84500003 1.094961308e-38
0.40881905 0.090133332 0.84500003 1.10425584e-38
0.41106287 0.089920007 0.84300005 1.168609491e-38
0.41427431 0.089920007 0.84300005 1.159571677e-38
0.41649523 0.089706667 0.84100002 1.113615813e-38
0.41969907 0.089706667 0.84100002 1.094924594e-38
0.42189717 0.089493334 0.83900005 1.094816694e-38
0.42407998 0.089280002 0.83700001 1.094852987e-38
0.42624763 0.089066669 0.83500004 1.067122412e-38
0.43045714 0.089280002 0.83700001 1.030497935e-38
0.43260953 0.089066669 0.83500004 1.049009648e-38
0.43579048 0.089066669 0.83500004 1.08556448e-38
0.078171432 0.074262857 0.68400002 1.380194069e-38
0.080777146 0.074262857 0.68400002 1.33427604e-38
0.08338286 0.074262857 0.68400002 1.334096534e-38
0.085988574 0.074262857 0.68400002 1.370686819e-38
0.088853337 0.074480005 0.68600005 1.398310195e-38
0.091466673 0.074480005 0.68600005 1.407564931e-38
0.094217151 0.074588574 0.68700004 1.425823149e-38
0.097116187 0.074805714 0.68900001 1.42596426e-38
0.099885717 0.074914292 0.69000006 1.426252787e-38
0.10266286 0.075022861 0.69100004 1.426325795e-38
0.10560001 0.075240001 0.69300002 1.426324534e-38
0.10824 0.075240001 0.69300002 1.407921421e-38
0.11104 0.075348571 0.69400001 1.407886529e-38
0.11384763 0.075457148 0.69500005 1.435437738e-38
0.11683048 0.075674288 0.69700003 1.444549541e-38
0.11948572 0.075674288 0.69700003 1.453696657e-38
0.1223162 0.075782858 0.69800001 1.453803576e-38
0.12497523 0.075782858 0.69800001 1.43536417e-38
0.12763429 0.075782858 0.69800001 1.462701681e-38
0.13085334 0.076108575 0.70100003 1.462880627e-38
0.13390477 0.076325715 0.70300001 1.417140003e-38
0.13658285 0.076325715 0.70300001 1.361787032e-38
0.13945906 0.076434292 0.70400006 1.297322399e-38
0.14214097 0.076434292 0.70400006 1.26988035e-38
0.14502858 0.076542862 0.70500004 1.270097552e-38
0.14750476 0.076434292 0.70400006 1.297646939e-38
0.15082668 0.076760001 0.70700002 1.352748097e-38
0.15373714 0.076868571 0.708 1.352640617e-38
0.15687619 0.077085719 0.71000004 1.370972684e-38
0.15958096 0.077085719 0.71000004 1.38015189e-38
0.16228572 0.077085719 0.71000004 1.306685735e-38
0.16568764 0.077411436 0.71300006 1.260769108e-38
0.16840383 0.077411436 0.71300006 1.223389471e-38
0.17112 0.077411436 0.71300006 1.167961531e-38
0.1738362 0.077411436 0.71300006 1.122117771e-38
0.1765524 0.077411436 0.71300006 1.131338035e-38
0.17926858 0.077411436 0.71300006 1.168145101e-38
0.18198477 0.077411436 0.71300006 1.204951466e-38
0.18470097 0.077411436 0.71300006 1.241935796e-38
0.18768001 0.077520005 0.71400005 1.232932734e-38
0.19093335 0.077737145 0.71600002 1.242046919e-38
0.19393143 0.077845715 0.71700001 1.30629253e-38
0.19721143 0.078062862 0.71900004 1.278993415e-38
0.19995049 0.078062862 0.71900004 1.325269615e-38
0.21086477 0.081211433 0.74800003 1.380480074e-38
0.21428573 0.08142858 0.75000006 1.362113115e-38
0.21801142 0.08175429 0.75300002 1.362076541e-38
0.22176 0.082080007 0.75600004 1.362040667e-38
0.22582857 0.082514293 0.76000005 1.362074299e-38
0.22872382 0.082514293 0.76000005 1.352857118e-38
0.23192382 0.082622863 0.76100004 1.352857538e-38
0.23544 0.082840003 0.76300001 1.35289145e-38
0.23897144 0.08305715 0.76500005 1.334668824e-38
0.24283428 0.08338286 0.76800001 1.325378075e-38
0.2464 0.083600007 0.77000004 1.352856417e-38
0.24998096 0.083817147 0.77200001 1.343422876e-38
0.25390476 0.084142864 0.77500004 1.334344704e-38
0.25751999 0.084360003 0.77700001 1.306720627e-38
0.26115048 0.084577151 0.77900004 1.27924691e-38
0.26649144 0.085337147 0.78600001 1.325018222e-38
0.27017143 0.085554294 0.78800005 1.306396927e-38
0.27317336 0.085554294 0.78800005 1.269701264e-38
0.27722669 0.085880004 0.79100001 1.242221661e-38
0.28024 0.085880004 0.79100001 1.20559214e-38
0.28540194 0.086531438 0.79700005 1.205559069e-38
0.28880003 0.086640008 0.79800004 1.214705765e-38
0.2940343 0.087291434 0.80400002 1.214636821e-38
0.29857522 0.087725714 0.80800003 1.214566055e-38
0.30090669 0.087508574 0.80600005 1.205346352e-38
0.30397716 0.087508574 0.80600005 1.187193511e-38
0.30780953 0.087725714 0.80800003 1.187049458e-38
0.31242666 0.088160001 0.81200004 1.186978272e-38
0.31629714 0.08837714 0.81400001 1.159498529e-38
0.31939811 0.08837714 0.81400001 1.168505375e-38
0.32289526 0.088485718 0.81500006 1.177614656e-38
0.32680002 0.088702857 0.81700003 1.168429284e-38
0.33072004 0.088920005 0.81900007 1.168430686e-38
0.33384001 0.088920005 0.81900007 1.205307396e-38
0.33778289 0.089137144 0.82100004 1.205308657e-38
0.34174097 0.089354284 0.82300001 1.150276724e-38
0.34487617 0.089354284 0.82300001 1.140988497e-38
0.34885716 0.089571431 0.82500005 1.168430686e-38
0.35200003 0.089571431 0.82500005 1.16835978e-38
0.35600382 0.089788571 0.82700002 1.168392991e-38
0.36089143 0.090222858 0.83100003 1.159461955e-38
0.36405715 0.090222858 0.83100003 1.150170225e-38
0.36722288 0.090222858 0.83100003 1.168393411e-38
0.3703886 0.090222858 0.83100003 1.150064427e-38
0.37445337 0.090440005 0.83300006 1.150027433e-38
0.37853336 0.090657145 0.83500004 1.159354055e-38
0.38171428 0.090657145 0.83500004 1.140917732e-38
0.38673908 0.091091432 0.83900005 1.122477905e-38
0.39179432 0.091525719 0.84300005 1.140806188e-38
0.39500573 0.091525719 0.84300005 1.159281328e-38
0.39916193 0.091742858 0.84500003 1.131838999e-38
0.40142861 0.091525719 0.84300005 1.131873471e-38
0.40464002 0.091525719 0.84300005 1.113433925e-38
0.40785143 0.091525719 0.84300005 1.12265643e-38
0.41008762 0.091308571 0.84100002 1.159389087e-38
0.41329145 0.091308571 0.84100002 1.141165902e-38
0.41649523 0.091308571 0.84100002 1.113509034e-38
0.41969907 0.091308571 0.84100002 1.067374085e-38
0.42189717 0.091091432 0.83900005 1.067231293e-38
0.42407998 0.090874285 0.83700001 1.076414142e-38
0.42624763 0.090657145 0.83500004 1.058082916e-38
0.43045714 0.090874285 0.83700001 1.076344637e-38
0.43260953 0.090657145 0.83500004 1.085817135e-38
0.43474671 0.090440005 0.83300006 1.085601054e-38
0.075455241 0.075455241 0.68300003 1.352785371e-38
0.078057148 0.075455241 0.68300003 1.361754662e-38
0.080777146 0.075565718 0.68400002 1.361789975e-38
0.083260953 0.075455241 0.68300003 1.343242949e-38
0.085988574 0.075565718 0.68400002 1.361753682e-38
0.088594288 0.075565718 0.68400002 1.398453268e-38
0.091466673 0.075786673 0.68600005 1.398454389e-38
0.094217151 0.075897142 0.68700004 1.4168554e-38
0.097116187 0.076118097 0.68900001 1.41685582e-38
0.10003048 0.076339051 0.69100004 1.407886669e-38
0.10266286 0.076339051 0.69100004 1.417216514e-38
0.10560001 0.076559998 0.69300002 1.417141825e-38
0.10824 0.076559998 0.69300002 1.417068958e-38
0.11104 0.076670475 0.69400001 1.416997912e-38
0.11384763 0.076780953 0.69500005 1.435402145e-38
0.11683048 0.077001907 0.69700003 1.444513668e-38
0.11914286 0.076780953 0.69500005 1.462950692e-38
0.12214095 0.077001907 0.69700003 1.453731129e-38
0.12497523 0.077112384 0.69800001 1.426071039e-38
0.12763429 0.077112384 0.69800001 1.444154796e-38
0.13066667 0.077333339 0.70000005 1.444549822e-38
0.13390477 0.077664763 0.70300001 1.417140143e-38
0.13658285 0.077664763 0.70300001 1.352639356e-38
0.13945906 0.077775247 0.70400006 1.269807763e-38
0.14214097 0.077775247 0.70400006 1.2423283e-38
0.14502858 0.077885717 0.70500004 1.22414351e-38
0.14771429 0.077885717 0.70500004 1.242580954e-38
0.15082668 0.078106664 0.70700002 1.306866362e-38
0.15373714 0.078217141 0.708 1.288354228e-38
0.15687619 0.078438096 0.71000004 1.306905178e-38
0.15958096 0.078438096 0.71000004 1.35267593e-38
0.16251428 0.078548573 0.71100003 1.315906279e-38
0.16568764 0.078769527 0.71300006 1.26973924e-38
0.16864 0.078880005 0.71400005 1.232752247e-38
0.17136 0.078880005 0.71400005 1.167998525e-38
0.17408001 0.078880005 0.71400005 1.112898208e-38
0.1765524 0.078769527 0.71300006 1.112863176e-38
0.17926858 0.078769527 0.71300006 1.149596954e-38
0.18224001 0.078880005 0.71400005 1.195802389e-38
0.18496001 0.078880005 0.71400005 1.232895039e-38
0.18768001 0.078880005 0.71400005 1.205489004e-38
0.19093335 0.079100952 0.71600002 1.214458436e-38
0.19366096 0.079100952 0.71600002 1.278813068e-38
0.19721143 0.079432383 0.71900004 1.278921528e-38
0.19995049 0.079432383 0.71900004 1.325305908e-38
0.21058287 0.082525723 0.74700004 1.380409308e-38
0.21371429 0.082636192 0.74800003 1.380515527e-38
0.21772192 0.083078094 0.75200003 1.362041088e-38
0.22146669 0.083409533 0.75500005 1.371223797e-38
0.22523428 0.08374095 0.75800002 1.380404684e-38
0.22812191 0.08374095 0.75800002 1.371223657e-38
0.23161906 0.083961904 0.76000005 1.371224357e-38
0.2345143 0.083961904 0.76000005 1.362147166e-38
0.23772192 0.084072381 0.76100004 1.362147727e-38
0.2425181 0.084735237 0.76700002 1.352964177e-38
0.2464 0.085066676 0.77000004 1.343744054e-38
0.24998096 0.085287623 0.77200001 1.325234582e-38
0.25324953 0.0853981 0.77300006 1.306901955e-38
0.25685716 0.085619047 0.77500004 1.270059296e-38
0.2614857 0.086171433 0.78000003 1.270061959e-38
0.26581332 0.086613342 0.78400004 1.343349168e-38
0.26880002 0.086613342 0.78400004 1.315725231e-38
0.27178666 0.086613342 0.78400004 1.251442205e-38
0.27617523 0.087055244 0.78800005 1.242293408e-38
0.27953145 0.087165713 0.78900003 1.224103433e-38
0.28540194 0.088049524 0.79700005 1.223926589e-38
0.28843811 0.088049524 0.79700005 1.242184807e-38
0.29257143 0.088380955 0.80000001 1.232933715e-38
0.29635811 0.08860191 0.80200005 1.214565775e-38
0.30015999 0.088822857 0.80400002 1.205309498e-38
0.30322286 0.088822857 0.80400002 1.187334902e-38
0.30704764 0.089043818 0.80600005 1.177793882e-38
0.31011811 0.089043818 0.80600005 1.186979813e-38
0.31552002 0.089706667 0.81200004 1.187085331e-38
0.31861335 0.089706667 0.81200004 1.205381945e-38
0.32170668 0.089706667 0.81200004 1.205272784e-38
0.32600001 0.090038106 0.81500006 1.186832957e-38
0.32910478 0.090038106 0.81500006 1.186834219e-38
0.33302477 0.090259053 0.81700003 1.196088954e-38
0.33613715 0.090259053 0.81700003 1.186978833e-38
0.34008002 0.090480007 0.81900007 1.141129748e-38
0.3440381 0.090700962 0.82100004 1.141059823e-38
0.34716573 0.090700962 0.82100004 1.177756327e-38
0.35114667 0.090921909 0.82300001 1.186833658e-38
0.35514289 0.091142863 0.82500005 1.186904283e-38
0.35915428 0.09136381 0.82700002 1.159535243e-38
0.36230478 0.09136381 0.82700002 1.150313438e-38
0.36633909 0.091584772 0.82900006 1.177504233e-38
0.36949715 0.091584772 0.82900006 1.168610192e-38
0.37265527 0.091584772 0.82900006 1.168430265e-38
0.37762669 0.092026673 0.83300006 1.159389508e-38
0.38171428 0.09224762 0.83500004 1.140847246e-38
0.38489524 0.09224762 0.83500004 1.150064707e-38
0.39086479 0.092910476 0.84100002 1.131479846e-38
0.39406857 0.092910476 0.84100002 1.122655169e-38
0.39821717 0.093131438 0.84300005 1.12265587e-38
0.40142861 0.093131438 0.84300005 1.122797821e-38
0.40464002 0.093131438 0.84300005 1.131837318e-38
0.40785143 0.093131438 0.84300005 1.141167023e-38
0.41008762 0.092910476 0.84100002 1.150205538e-38
0.41329145 0.092910476 0.84100002 1.131981231e-38
0.41649523 0.092910476 0.84100002 1.113439109e-38
0.41770285 0.092468575 0.83700001 1.049113765e-38
0.42189717 0.092689529 0.83900005 1.039537151e-38
0.42306671 0.09224762 0.83500004 1.058012711e-38
0.42624763 0.09224762 0.83500004 1.05801187e-38
0.43045714 0.092468575 0.83700001 1.113042962e-38
0.43157336 0.092026673 0.83300006 1.122621118e-38
0.43370289 0.091805719 0.83100003 1.094819496e-38
0.074045718 0.076643817 0.68200004 1.288213538e-38
0.076643817 0.076643817 0.68200004 1.325019623e-38
0.079358101 0.076756194 0.68300003 1.361646062e-38
0.081960008 0.076756194 0.68300003 1.389159857e-38
0.084685713 0.076868579 0.68400002 1.30650791e-38
0.087291434 0.076868579 0.68400002 1.380085048e-38
0.089897141 0.076868579 0.68400002 1.352500768e-38
0.092773341 0.07709334 0.68600005 1.398346769e-38
0.095525712 0.077205718 0.68700004 1.416929388e-38
0.09842857 0.077430479 0.68900001 1.444444024e-38
0.10134667 0.077655241 0.69100004 1.371155694e-38
0.10428 0.077880003 0.69300002 1.407853879e-38
0.10692 0.077880003 0.69300002 1.398631093e-38
0.1097181 0.07799238 0.69400001 1.389303209e-38
0.11236191 0.07799238 0.69400001 1.416998612e-38
0.11517143 0.078104772 0.69500005 1.471992851e-38
0.11781906 0.078104772 0.69500005 1.426109154e-38
0.12081333 0.078329526 0.69700003 1.462877965e-38
0.12346857 0.078329526 0.69700003 1.426249985e-38
0.12630476 0.078441903 0.69800001 1.42607174e-38
0.12896381 0.078441903 0.69800001 1.444334442e-38
0.13218857 0.078779049 0.70100003 1.435365291e-38
0.1352438 0.079003811 0.70300001 1.389481735e-38
0.1381181 0.079116195 0.70400006 1.334021144e-38
0.14080001 0.079116195 0.70400006 1.25140381e-38
0.14348191 0.079116195 0.70400006 1.269736017e-38
0.14637142 0.079228573 0.70500004 1.224070502e-38
0.14948002 0.079453334 0.70700002 1.297610646e-38
0.15238857 0.079565711 0.708 1.316120257e-38
0.15508571 0.079565711 0.708 1.28857213e-38
0.15822859 0.07979048 0.71000004 1.343604344e-38
0.16116001 0.079902858 0.71100003 1.334095973e-38
0.16432954 0.080127627 0.71300006 1.315657548e-38
0.16704573 0.080127627 0.71300006 1.278564057e-38
0.17000002 0.080240004 0.71400005 1.23246456e-38
0.17272002 0.080240004 0.71400005 1.122297137e-38
0.17544 0.080240004 0.71400005 1.057868937e-38
0.17816001 0.080240004 0.71400005 1.122189097e-38
0.18088001 0.080240004 0.71400005 1.158994622e-38
0.18334286 0.080127627 0.71300006 1.195980494e-38
0.18632001 0.080240004 0.71400005 1.232930772e-38
0.18956953 0.080464758 0.71600002 1.186941698e-38
0.19229715 0.080464758 0.71600002 1.251262138e-38
0.1961143 0.080914289 0.72000003 1.269450292e-38
0.19885714 0.080914289 0.72000003 1.205776271e-38
0.20916001 0.083948575 0.74700004 1.361970182e-38
0.21200573 0.083948575 0.74700004 1.371189465e-38
0.21513906 0.084060952 0.74800003 1.398775146e-38
0.2191543 0.084510483 0.75200003 1.297684074e-38
0.22290477 0.084847622 0.75500005 1.362002412e-38
0.22608002 0.084960006 0.75600004 1.362038285e-38
0.23017144 0.08540953 0.76000005 1.408065475e-38
0.23306668 0.08540953 0.76000005 1.380479233e-38
0.23627239 0.085521907 0.76100004 1.37125953e-38
0.24042858 0.08597143 0.76500005 1.362147587e-38
0.24397905 0.086196192 0.76700002 1.362254506e-38
0.24722287 0.086308569 0.76800001 1.352927603e-38
0.25080001 0.086533338 0.77000004 1.297718966e-38
0.25472191 0.086870477 0.77300006 1.316049912e-38
0.25833333 0.087095238 0.77500004 1.297682953e-38
0.26297146 0.087657146 0.78000003 1.315834532e-38
0.26662478 0.087881915 0.78200006 1.334344704e-38
0.26960382 0.087881915 0.78200006 1.278920967e-38
0.27327999 0.088106669 0.78400004 1.251405912e-38
0.27767622 0.0885562 0.78800005 1.242507947e-38
0.28174669 0.088893332 0.79100001 1.233288804e-38
0.28620002 0.089342862 0.79500002 1.288318636e-38
0.28995618 0.089567624 0.79700005 1.242259496e-38
0.29299241 0.089567624 0.79700005 1.233005602e-38
0.29714286 0.089904763 0.80000001 1.187300991e-38
0.30094096 0.090129524 0.80200005 1.223889314e-38
0.30399621 0.090129524 0.80200005 1.196123286e-38
0.30781716 0.090354286 0.80400002 1.214565775e-38
0.31088001 0.090354286 0.80400002 1.168827814e-38
0.31394288 0.090354286 0.80400002 1.187229104e-38
0.31779429 0.090579055 0.80600005 1.223532404e-38
0.32325333 0.091253333 0.81200004 1.20534439e-38
0.3255429 0.091028579 0.81000006 1.195694909e-38
0.33065718 0.091590479 0.81500006 1.205237752e-38
0.3337619 0.091590479 0.81500006 1.195947563e-38
0.33686668 0.091590479 0.81500006 1.186870792e-38
0.34080571 0.091815241 0.81700003 1.150099039e-38
0.34476 0.092040002 0.81900007 1.196195173e-38
0.34788001 0.092040002 0.81900007 1.159496427e-38
0.35185716 0.092264764 0.82100004 1.19616e-38
0.35498476 0.092264764 0.82100004 1.187121765e-38
0.35898477 0.092489518 0.82300001 1.159534822e-38
0.36300001 0.092714287 0.82500005 1.177791219e-38
0.36614287 0.092714287 0.82500005 1.17779164e-38
0.36928573 0.092714287 0.82500005 1.186797224e-38
0.37333143 0.092939049 0.82700002 1.223638622e-38
0.37830287 0.09338858 0.83100003 1.16857572e-38
0.38238671 0.093613341 0.83300006 1.168254262e-38
0.38556004 0.093613341 0.83300006 1.150027993e-38
0.3906 0.094062857 0.83700001 1.067482545e-38
0.39472955 0.094287626 0.83900005 1.104181291e-38
0.39887431 0.094512381 0.84100002 1.113543646e-38
0.40207809 0.094512381 0.84100002 1.131981371e-38
0.40528193 0.094512381 0.84100002 1.141201775e-38
0.40848571 0.094512381 0.84100002 1.214455353e-38
0.41071051 0.094287626 0.83900005 1.150384063e-38
0.41489333 0.094512381 0.84100002 1.131732781e-38
0.4171029 0.094287626 0.83900005 1.113365681e-38
0.41929713 0.094062857 0.83700001 1.048827199e-38
0.42147622 0.093838103 0.83500004 1.076308484e-38
0.42364001 0.093613341 0.83300006 1.08545644e-38
0.42783809 0.093838103 0.83500004 1.06719654e-38
0.42998669 0.093613341 0.83300006 1.021457598e-38
0.43212 0.09338858 0.83100003 1.085670419e-38
0.062080003 0.077600002 0.67900002 1.334600581e-38
0.064666666 0.077600002 0.67900002 1.232541071e-38
0.067154288 0.07748571 0.67800003 1.251372841e-38
0.069737151 0.07748571 0.67800003 1.30661553e-38
0.072533339 0.077714287 0.68000001 1.26977245e-38
0.075123809 0.077714287 0.68000001 1.260520938e-38
0.077942863 0.077942863 0.68200004 1.33416772e-38
0.080540963 0.077942863 0.68200004 1.389159716e-38
0.083139054 0.077942863 0.68200004 1.35224405e-38
0.085988574 0.078171432 0.68400002 1.324911163e-38
0.088594288 0.078171432 0.68400002 1.343351129e-38
0.091200002 0.078171432 0.68400002 1.352284968e-38
0.094080001 0.078400008 0.68600005 1.407527937e-38
0.096834287 0.078514285 0.68700004 1.444550803e-38
0.099885717 0.078857146 0.69000006 1.407705061e-38
0.10266286 0.078971431 0.69100004 1.36193599e-38
0.10560001 0.0792 0.69300002 1.380085468e-38
0.10824 0.0792 0.69300002 1.37093653e-38
0.11104 0.079314284 0.69400001 1.38930419e-38
0.11368381 0.079314284 0.69400001 1.444442482e-38
0.11649524 0.079428576 0.69500005 1.453697778e-38
0.11914286 0.079428576 0.69500005 1.426110696e-38
0.12214095 0.079657145 0.69700003 1.435364591e-38
0.1247962 0.079657145 0.69700003 1.426178659e-38
0.12763429 0.079771429 0.69800001 1.435257391e-38
0.13066667 0.080000006 0.70000005 1.435295927e-38
0.13390477 0.080342859 0.70300001 1.416996791e-38
0.13658285 0.080342859 0.70300001 1.371006175e-38
0.13945906 0.080457143 0.70400006 1.315690198e-38
0.14214097 0.080457143 0.70400006 1.278919286e-38
0.14502858 0.080571435 0.70500004 1.269809445e-38
0.14771429 0.080571435 0.70500004 1.279100474e-38
0.15082668 0.080800004 0.70700002 1.29764764e-38
0.15373714 0.080914281 0.708 1.316121098e-38
0.15687619 0.081142858 0.71000004 1.325272978e-38
0.15958096 0.081142858 0.71000004 1.33416814e-38
0.16228572 0.081142858 0.71000004 1.333950238e-38
0.16568764 0.081485718 0.71300006 1.324696204e-38
0.16864 0.08160001 0.71400005 1.278526222e-38
0.17136 0.08160001 0.71400005 1.186617438e-38
0.17408001 0.08160001 0.71400005 1.076378128e-38
0.17680001 0.08160001 0.71400005 1.076451416e-38
0.17952001 0.08160001 0.71400005 1.140520323e-38
0.18224001 0.08160001 0.71400005 1.168286772e-38
0.18496001 0.08160001 0.71400005 1.195801268e-38
0.18820572 0.081828579 0.71600002 1.214493468e-38
0.1912 0.081942856 0.71700001 1.232930212e-38
0.19447239 0.082171433 0.71900004 1.242041735e-38
0.19748573 0.082285717 0.72000003 1.187014846e-38
0.20718098 0.085142866 0.74500006 1.233291887e-38
0.21058287 0.085371435 0.74700004 1.34367539e-38
0.21342857 0.085371435 0.74700004 1.389662502e-38
0.21656382 0.085485712 0.74800003 1.334526733e-38
0.22058667 0.085942864 0.75200003 1.288500944e-38
0.22374858 0.086057141 0.75300002 1.343601261e-38
0.22752 0.086400002 0.75600004 1.398810599e-38
0.23100951 0.086628571 0.75800002 1.426361808e-38
0.2345143 0.086857148 0.76000005 1.398845631e-38
0.23772192 0.086971432 0.76100004 1.380514966e-38
0.24188572 0.08742857 0.76500005 1.371438195e-38
0.24544001 0.087657146 0.76700002 1.362039687e-38
0.2483619 0.087657146 0.76700002 1.316157952e-38
0.25292191 0.088228568 0.77200001 1.306974823e-38
0.25586286 0.088228568 0.77200001 1.34360042e-38
0.25980952 0.088571437 0.77500004 1.3434921e-38
0.26445717 0.089142859 0.78000003 1.315870125e-38
0.26742858 0.089142859 0.78000003 1.297467573e-38
0.27040002 0.089142859 0.78000003 1.279029428e-38
0.27547431 0.089828573 0.78600001 1.260804e-38
0.27917716 0.09005715 0.78800005 1.25161961e-38
0.28253713 0.090171434 0.78900003 1.288177385e-38
0.28554288 0.090171434 0.78900003 1.288352687e-38
0.29147431 0.091085717 0.79700005 1.242260617e-38
0.29451048 0.091085717 0.79700005 1.205525438e-38
0.29792002 0.091200002 0.79800004 1.205380404e-38
0.3017143 0.09142857 0.80000001 1.232892797e-38
0.30476189 0.09142857 0.80000001 1.233038392e-38
0.30857906 0.091657147 0.80200005 1.187266939e-38
0.31241143 0.091885716 0.80400002 1.168754946e-38
0.3154743 0.091885716 0.80400002 1.205238732e-38
0.31853715 0.091885716 0.80400002 1.214384587e-38
0.324 0.09257143 0.81000006 1.214384587e-38
0.32708573 0.09257143 0.81000006 1.214277668e-38
0.33098668 0.092799999 0.81200004 1.205021952e-38
0.33408001 0.092799999 0.81200004 1.195982035e-38
0.33800378 0.093028568 0.81400001 1.205198795e-38
0.34152383 0.09314286 0.81500006 1.205164464e-38
0.34462857 0.09314286 0.81500006 1.168572777e-38
0.34858668 0.093371429 0.81700003 1.168753264e-38
0.35169908 0.093371429 0.81700003 1.196196294e-38
0.35568002 0.093600005 0.81900007 1.187014285e-38
0.35967618 0.093828574 0.82100004 1.186940157e-38
0.36280385 0.093828574 0.82100004 1.187010922e-38
0.36682287 0.094057143 0.82300001 1.195981475e-38
0.3717562 0.094514288 0.82700002 1.241828177e-38
0.37490666 0.094514288 0.82700002 1.24189684e-38
0.3798857 0.094971426 0.83100003 1.195983717e-38
0.38397336 0.095200002 0.83300006 1.168323907e-38
0.38714668 0.095200002 0.83300006 1.076702389e-38
0.39125714 0.095428571 0.83500004 1.049079012e-38
0.39538285 0.095657147 0.83700001 1.09517963e-38
0.40047619 0.096114293 0.84100002 1.11336386e-38
0.40272 0.095885724 0.83900005 1.141201074e-38
0.40591621 0.095885724 0.83900005 1.214384167e-38
0.40911239 0.095885724 0.83900005 1.214490525e-38
0.41230857 0.095885724 0.83900005 1.150276724e-38
0.41550478 0.095885724 0.83900005 1.131806629e-38
0.41770285 0.095657147 0.83700001 1.113112046e-38
0.41988572 0.095428571 0.83500004 1.094602435e-38
0.42306671 0.095428571 0.83500004 1.112971076e-38
0.42522669 0.095200002 0.83300006 1.094925154e-38
0.42942858 0.095428571 0.83500004 9.753614647e-39
0.43053716 0.094971426 0.83100003 9.847252213e-39
0.43370289 0.094971426 0.83100003 1.09463985e-38
0.060876191 0.079009525 0.68000001 1.371117718e-38
0.063373335 0.078893334 0.67900002 1.287568941e-38
0.065862864 0.078777142 0.67800003 1.214424244e-38
0.06844572 0.078777142 0.67800003 1.288035013e-38
0.071028575 0.078777142 0.67800003 1.324730255e-38
0.073720008 0.078893334 0.67900002 1.269810005e-38
0.076419048 0.079009525 0.68000001 1.306439106e-38
0.079241909 0.079241909 0.68200004 1.352426078e-38
0.081840008 0.079241909 0.68200004 1.379937911e-38
0.084561907 0.079358101 0.68300003 1.287780117e-38
0.087163813 0.079358101 0.68300003 1.370506192e-38
0.089897141 0.079474285 0.68400002 1.352211259e-38
0.092502862 0.079474285 0.68400002 1.426037968e-38
0.095386669 0.079706676 0.68600005 1.407742195e-38
0.098142862 0.079822861 0.68700004 1.426143066e-38
0.10120001 0.080171436 0.69000006 1.361930666e-38
0.10397906 0.08028762 0.69100004 1.352498946e-38
0.10692 0.080520004 0.69300002 1.324768511e-38
0.10956 0.080520004 0.69300002 1.315477481e-38
0.11220001 0.080520004 0.69300002 1.35231986e-38
0.11500572 0.080636188 0.69400001 1.426003917e-38
0.11781906 0.080752388 0.69500005 1.416749882e-38
0.12046668 0.080752388 0.69500005 1.416928547e-38
0.12346857 0.080984764 0.69700003 1.444405068e-38
0.12612382 0.080984764 0.69700003 1.416889591e-38
0.12896381 0.081100948 0.69800001 1.435151313e-38
0.13218857 0.081449524 0.70100003 1.426182722e-38
0.1352438 0.0816819 0.70300001 1.39873647e-38
0.1381181 0.081798099 0.70400006 1.35256775e-38
0.14080001 0.081798099 0.70400006 1.29710856e-38
0.14368573 0.081914283 0.70500004 1.269737558e-38
0.14678667 0.082146674 0.70700002 1.260698062e-38
0.14948002 0.082146674 0.70700002 1.278958242e-38
0.15238857 0.082262859 0.708 1.288357311e-38
0.15508571 0.082262859 0.708 1.315980267e-38
0.15822859 0.082495242 0.71000004 1.334239747e-38
0.16116001 0.082611434 0.71100003 1.343457068e-38
0.16386858 0.082611434 0.71100003 1.380117698e-38
0.16728 0.08296001 0.71400005 1.333985271e-38
0.17000002 0.08296001 0.71400005 1.260337228e-38
0.17272002 0.08296001 0.71400005 1.149953724e-38
0.17544 0.08296001 0.71400005 1.057831803e-38
0.17816001 0.08296001 0.71400005 1.131373348e-38
0.18138668 0.083192386 0.71600002 1.15896015e-38
0.18360001 0.08296001 0.71400005 1.186689885e-38
0.18684191 0.083192386 0.71600002 1.186834499e-38
0.18983428 0.08330857 0.71700001 1.20545243e-38
0.19310287 0.083540954 0.71900004 1.260444006e-38
0.1961143 0.083657146 0.72000003 1.232859446e-38
0.19885714 0.083657146 0.72000003 1.187123306e-38
0.20860001 0.086561911 0.74500006 1.32509207e-38
0.21143812 0.086561911 0.74500006 1.361933188e-38
0.21485144 0.086794287 0.74700004 1.371439457e-38
0.21857144 0.087142862 0.75000006 1.288681151e-38
0.22201906 0.087375239 0.75200003 1.316089148e-38
0.22578098 0.087723814 0.75500005 1.352894673e-38
0.22865716 0.087723814 0.75500005 1.389556284e-38
0.23245333 0.088072382 0.75800002 1.3804435e-38
0.23596191 0.088304773 0.76000005 1.389626489e-38
0.23980001 0.088653333 0.76300001 1.371402742e-38
0.24334286 0.088885717 0.76500005 1.408029321e-38
0.24690095 0.089118101 0.76700002 1.362111853e-38
0.24982285 0.089118101 0.76700002 1.316230259e-38
0.25373334 0.089466669 0.77000004 1.334453585e-38
0.25733334 0.089699045 0.77200001 1.380369511e-38
0.26061144 0.089815244 0.77300006 1.325160734e-38
0.26560193 0.09051238 0.77900004 1.325126122e-38
0.26891431 0.090628572 0.78000003 1.30672371e-38
0.27258289 0.090860955 0.78200006 1.279136347e-38
0.27556193 0.090860955 0.78200006 1.25172793e-38
0.27996573 0.091325715 0.78600001 1.23321916e-38
0.28404 0.091674291 0.78900003 1.297394986e-38
0.28704572 0.091674291 0.78900003 1.251368637e-38
0.29005143 0.091674291 0.78900003 1.242115863e-38
0.29454288 0.09213905 0.79300004 1.269558472e-38
0.29906476 0.092603818 0.79700005 1.26058862e-38
0.30210099 0.092603818 0.79700005 1.251297451e-38
0.30552003 0.092720002 0.79800004 1.251549685e-38
0.30933335 0.092952378 0.80000001 1.24218775e-38
0.31238094 0.092952378 0.80000001 1.205346913e-38
0.31621715 0.093184769 0.80200005 1.223498072e-38
0.3200686 0.093417145 0.80400002 1.22349653e-38
0.32393524 0.093649529 0.80600005 1.223747783e-38
0.32781714 0.093881905 0.80800003 1.232859446e-38
0.3317143 0.094114289 0.81000006 1.19615986e-38
0.33480003 0.094114289 0.81000006 1.214525277e-38
0.33871999 0.094346665 0.81200004 1.269447769e-38
0.34265524 0.094579048 0.81400001 1.223854422e-38
0.34618098 0.094695248 0.81500006 1.177721995e-38
0.34928575 0.094695248 0.81500006 1.205380264e-38
0.3523905 0.094695248 0.81500006 1.196196434e-38
0.35636762 0.094927624 0.81700003 1.186940717e-38
0.36036003 0.095160007 0.81900007 1.196195733e-38
0.36436763 0.095392384 0.82100004 1.20523663e-38
0.36928573 0.095857151 0.82500005 1.214314102e-38
0.3724286 0.095857151 0.82500005 1.250902845e-38
0.37648189 0.096089527 0.82700002 1.214203539e-38
0.3805505 0.096321911 0.82900006 1.186762192e-38
0.38463432 0.096554287 0.83100003 1.150171346e-38
0.38780001 0.096554287 0.83100003 1.122727196e-38
0.39190671 0.09678667 0.83300006 1.095107043e-38
0.39697716 0.097251423 0.83700001 1.058696124e-38
0.40112191 0.097483814 0.83900005 1.113686859e-38
0.40431812 0.097483814 0.83900005 1.159425521e-38
0.4075143 0.097483814 0.83900005 1.232750565e-38
0.41071051 0.097483814 0.83900005 1.168608931e-38
0.41390669 0.097483814 0.83900005 1.14091591e-38
0.4171029 0.097483814 0.83900005 1.158996163e-38
0.41929713 0.097251423 0.83700001 1.113113027e-38
0.42147622 0.097019047 0.83500004 1.076235476e-38
0.42364001 0.09678667 0.83300006 1.085490212e-38
0.42783809 0.097019047 0.83500004 1.039680644e-38
0.42998669 0.09678667 0.83300006 9.663591029e-39
0.43212 0.096554287 0.83100003 1.12230022e-38
0.058200002 0.080186665 0.67900002 1.333308584e-38
0.060786664 0.080186665 0.67900002 1.342669958e-38
0.063280001 0.080068573 0.67800003 1.306150579e-38
0.065862864 0.080068573 0.67800003 1.223535066e-38
0.068243816 0.079832383 0.67600006 1.287998719e-38
0.070819058 0.079832383 0.67600006 1.343062602e-38
0.073720008 0.080186665 0.67900002 1.315584821e-38
0.076419048 0.080304764 0.68000001 1.306510012e-38
0.079009525 0.080304764 0.68000001 1.343278122e-38
0.081600003 0.080304764 0.68000001 1.333985131e-38
0.0844381 0.080540963 0.68200004 1.297035833e-38
0.087163813 0.080659047 0.68300003 1.370541925e-38
0.089897141 0.080777146 0.68400002 1.388909585e-38
0.092502862 0.080777146 0.68400002 1.46270056e-38
0.095386669 0.081013337 0.68600005 1.398594799e-38
0.098142862 0.081131428 0.68700004 1.389481595e-38
0.10120001 0.081485718 0.69000006 1.389481735e-38
0.10397906 0.081603818 0.69100004 1.324874869e-38
0.10692 0.081840001 0.69300002 1.278920407e-38
0.10956 0.081840001 0.69300002 1.260303036e-38
0.11220001 0.081840001 0.69300002 1.306258339e-38
0.11500572 0.081958093 0.69400001 1.361575436e-38
0.11781906 0.082076199 0.69500005 1.407601505e-38
0.12046668 0.082076199 0.69500005 1.398596901e-38
0.12346857 0.082312383 0.69700003 1.453589878e-38
0.12612382 0.082312383 0.69700003 1.407635696e-38
0.12896381 0.082430474 0.69800001 1.425966782e-38
0.13218857 0.082784764 0.70100003 1.426109294e-38
0.1352438 0.083020955 0.70300001 1.398664303e-38
0.1381181 0.083139054 0.70400006 1.352495723e-38
0.14080001 0.083139054 0.70400006 1.306472317e-38
0.14368573 0.083257146 0.70500004 1.260554989e-38
0.14678667 0.08349333 0.70700002 1.269738679e-38
0.14948002 0.08349333 0.70700002 1.269774692e-38
0.15238857 0.083611429 0.708 1.278993975e-38
0.15508571 0.083611429 0.708 1.306580918e-38
0.15822859 0.083847627 0.71000004 1.334166879e-38
0.16116001 0.083965711 0.71100003 1.361787173e-38
0.16432954 0.084201917 0.71300006 1.425999433e-38
0.16728 0.084320001 0.71400005 1.361500327e-38
0.17000002 0.084320001 0.71400005 1.278632861e-38
0.17320381 0.084556192 0.71600002 1.177397314e-38
0.17544 0.084320001 0.71400005 1.103714098e-38
0.17816001 0.084320001 0.71400005 1.140449978e-38
0.18088001 0.084320001 0.71400005 1.177508157e-38
0.18411429 0.084556192 0.71600002 1.186690866e-38
0.18684191 0.084556192 0.71600002 1.168502712e-38
0.19036382 0.084910482 0.71900004 1.196124827e-38
0.19337143 0.085028574 0.72000003 1.269591683e-38
0.1961143 0.085028574 0.72000003 1.223567997e-38
0.19885714 0.085028574 0.72000003 1.233112521e-38
0.20860001 0.087980956 0.74500006 1.315944254e-38
0.21143812 0.087980956 0.74500006 1.361682075e-38
0.21485144 0.088217147 0.74700004 1.325377935e-38
0.21798857 0.088335246 0.74800003 1.334490019e-38
0.22201906 0.08880762 0.75200003 1.316087747e-38
0.22488381 0.08880762 0.75200003 1.343673848e-38
0.22865716 0.08916191 0.75500005 1.343709161e-38
0.23184 0.089280002 0.75600004 1.362111293e-38
0.23534095 0.089516193 0.75800002 1.389661241e-38
0.23917143 0.089870483 0.76100004 1.380513425e-38
0.24270667 0.090106666 0.76300001 1.435543256e-38
0.24625714 0.090342864 0.76500005 1.380477691e-38
0.24982285 0.090579048 0.76700002 1.343780207e-38
0.25307429 0.090697147 0.76800001 1.334490019e-38
0.25666666 0.090933338 0.77000004 1.398737311e-38
0.26027429 0.091169529 0.77200001 1.334416731e-38
0.26355618 0.09128762 0.77300006 1.352677191e-38
0.26719049 0.091523811 0.77500004 1.334274499e-38
0.27083999 0.091760002 0.77700001 1.288392484e-38
0.27485713 0.092114285 0.78000003 1.260876727e-38
0.27854097 0.092350483 0.78200006 1.214815907e-38
0.28224 0.092586666 0.78400004 1.269844477e-38
0.2859543 0.092822857 0.78600001 1.251441785e-38
0.28968385 0.093059056 0.78800005 1.251443607e-38
0.2938 0.093413331 0.79100001 1.361609488e-38
0.29756382 0.093649529 0.79300004 1.288104657e-38
0.30134284 0.093885712 0.79500002 1.278920687e-38
0.30513716 0.094121903 0.79700005 1.269916504e-38
0.30856001 0.094240002 0.79800004 1.343206235e-38
0.31238094 0.094476193 0.80000001 1.223677718e-38
0.31542858 0.094476193 0.80000001 1.232824834e-38
0.3192724 0.094712384 0.80200005 1.232859306e-38
0.32313141 0.094948567 0.80400002 1.242151036e-38
0.32781714 0.095420949 0.80800003 1.242222362e-38
0.3317143 0.095657155 0.81000006 1.214742058e-38
0.33480003 0.095657155 0.81000006 1.223673374e-38
0.33788574 0.095657155 0.81000006 1.333804924e-38
0.34181336 0.095893338 0.81200004 1.242078589e-38
0.3457562 0.096129529 0.81400001 1.214599686e-38
0.34885716 0.096129529 0.81400001 1.21463556e-38
0.3523905 0.096247621 0.81500006 1.205523757e-38
0.35636762 0.096483812 0.81700003 1.19626804e-38
0.36036003 0.096720003 0.81900007 1.214455913e-38
0.36348003 0.096720003 0.81900007 1.22360401e-38
0.36839047 0.097192384 0.82300001 1.214456894e-38
0.3724286 0.097428575 0.82500005 1.232643366e-38
0.37557146 0.097428575 0.82500005 1.232606792e-38
0.37963238 0.097664766 0.82700002 1.186761631e-38
0.38370857 0.097900957 0.82900006 1.150063586e-38
0.38780001 0.098137148 0.83100003 1.241970689e-38
0.39190671 0.098373339 0.83300006 1.104254579e-38
0.39602858 0.098609529 0.83500004 1.021818012e-38
0.40016571 0.098845713 0.83700001 1.10450429e-38
0.40335429 0.098845713 0.83700001 1.159248117e-38
0.4075143 0.099081904 0.83900005 1.195945741e-38
0.40973145 0.098845713 0.83700001 1.168536904e-38
0.41390669 0.099081904 0.83900005 1.159318602e-38
0.4171029 0.099081904 0.83900005 1.186582966e-38
0.41929713 0.098845713 0.83700001 1.122260564e-38
0.42147622 0.098609529 0.83500004 1.067123112e-38
0.42364001 0.098373339 0.83300006 1.030389054e-38
0.42783809 0.098609529 0.83500004 1.030569261e-38
0.42998669 0.098373339 0.83300006 1.048866716e-38
0.43108001 0.097900957 0.82900006 1.158997565e-38
0.056822859 0.081359997 0.67800003 1.259694312e-38
0.059405718 0.081359997 0.67800003 1.305792827e-38
0.061988577 0.081359997 0.67800003 1.306042258e-38
0.064571433 0.081359997 0.67800003 1.269380087e-38
0.067154288 0.081359997 0.67800003 1.251192354e-38
0.069531433 0.081120007 0.67600006 1.287962846e-38
0.072320007 0.081359997 0.67800003 1.306329104e-38
0.075013332 0.081479996 0.67900002 1.287928094e-38
0.077714287 0.081600003 0.68000001 1.297216881e-38
0.080304764 0.081600003 0.68000001 1.315727053e-38
0.082895242 0.081600003 0.68000001 1.297251493e-38
0.08586286 0.081960008 0.68300003 1.306435323e-38
0.088594288 0.082080007 0.68400002 1.333772974e-38
0.091200002 0.082080007 0.68400002 1.370505911e-38
0.093805715 0.082080007 0.68400002 1.361682355e-38
0.096693337 0.082320005 0.68600005 1.334309812e-38
0.099740952 0.082680002 0.68900001 1.352568871e-38
0.10266286 0.08292 0.69100004 1.324910042e-38
0.10560001 0.083159998 0.69300002 1.260551906e-38
0.10824 0.083159998 0.69300002 1.214381925e-38
0.11088 0.083159998 0.69300002 1.223462058e-38
0.11352 0.083159998 0.69300002 1.278636504e-38
0.11632761 0.083279997 0.69400001 1.343028831e-38
0.11914286 0.083400004 0.69500005 1.380050295e-38
0.12179048 0.083400004 0.69500005 1.407744157e-38
0.1247962 0.083640002 0.69700003 1.407459133e-38
0.12745143 0.083640002 0.69700003 1.40756409e-38
0.13066667 0.084000006 0.70000005 1.407705201e-38
0.13352382 0.084120005 0.70100003 1.398485077e-38
0.13658285 0.084360003 0.70300001 1.371077081e-38
0.13945906 0.08448001 0.70400006 1.324802422e-38
0.14234287 0.084600002 0.70500004 1.260521358e-38
0.14544 0.08484 0.70700002 1.25137144e-38
0.14813334 0.08484 0.70700002 1.26974008e-38
0.15103999 0.084959999 0.708 1.232932033e-38
0.15373714 0.084959999 0.708 1.241936918e-38
0.15687619 0.085200004 0.71000004 1.288033892e-38
0.15980572 0.085320003 0.71100003 1.306614269e-38
0.16251428 0.085320003 0.71100003 1.343346085e-38
0.16592002 0.08568 0.71400005 1.352245451e-38
0.16911238 0.085920006 0.71600002 1.306255816e-38
0.17184001 0.085920006 0.71600002 1.232535746e-38
0.17456762 0.085920006 0.71600002 1.158743369e-38
0.17729524 0.085920006 0.71600002 1.121974979e-38
0.18002285 0.085920006 0.71600002 1.122012954e-38
0.18275048 0.085920006 0.71600002 1.131413285e-38
0.18547809 0.085920006 0.71600002 1.14080773e-38
0.18846856 0.086040005 0.71700001 1.150027853e-38
0.19173335 0.086280003 0.71900004 1.177756887e-38
0.19474286 0.086400002 0.72000003 1.196086852e-38
0.1980343 0.086640008 0.72200006 1.214458155e-38
0.20662476 0.089160003 0.74300003 1.260806662e-38
0.21001907 0.089400008 0.74500006 1.315729014e-38
0.21285716 0.089400008 0.74500006 1.297540581e-38
0.21569526 0.089400008 0.74500006 1.306866642e-38
0.21912001 0.089639999 0.74700004 1.334453024e-38
0.22285716 0.090000004 0.75000006 1.343637415e-38
0.2263162 0.090240002 0.75200003 1.34370762e-38
0.22948572 0.090360008 0.75300002 1.325449261e-38
0.23328002 0.090720005 0.75600004 1.343777685e-38
0.23678477 0.090960003 0.75800002 1.371329595e-38
0.24030478 0.091200009 0.76000005 1.389659139e-38
0.24352001 0.091320001 0.76100004 1.398773745e-38
0.2477143 0.091800004 0.76500005 1.362143383e-38
0.25161144 0.092159994 0.76800001 1.325379897e-38
0.25453714 0.092159994 0.76800001 1.343601541e-38
0.25813335 0.092399999 0.77000004 1.343636294e-38
0.26174477 0.092640005 0.77200001 1.30683161e-38
0.2650286 0.092760012 0.77300006 1.30672413e-38
0.26866665 0.093000002 0.77500004 1.288392904e-38
0.27232 0.09324 0.77700001 1.270134406e-38
0.27634287 0.093600005 0.78000003 1.251621712e-38
0.28003049 0.093840003 0.78200006 1.260589882e-38
0.28373334 0.094080001 0.78400004 1.260553027e-38
0.28745142 0.094319999 0.78600001 1.242261598e-38
0.29118478 0.094560005 0.78800005 1.288141652e-38
0.29530665 0.094920002 0.79100001 1.297253174e-38
0.29907429 0.095160007 0.79300004 1.26973952e-38
0.30285713 0.095400006 0.79500002 1.260589041e-38
0.30665523 0.095640004 0.79700005 1.27906432e-38
0.30969146 0.095640004 0.79700005 1.260625615e-38
0.31312001 0.095760003 0.79800004 1.232826235e-38
0.31695241 0.096000001 0.80000001 1.232966786e-38
0.31999999 0.096000001 0.80000001 1.242078729e-38
0.32466286 0.096479997 0.80400002 1.242223763e-38
0.32935619 0.096960008 0.80800003 1.223889735e-38
0.3324343 0.096960008 0.80800003 1.205594382e-38
0.3355124 0.096960008 0.80800003 1.242076347e-38
0.3394286 0.097200006 0.81000006 1.260374222e-38
0.34251431 0.097200006 0.81000006 1.223748063e-38
0.34730667 0.097680002 0.81400001 1.214778632e-38
0.35040763 0.097680002 0.81400001 1.205703964e-38
0.35394287 0.097800009 0.81500006 1.187120644e-38
0.35792381 0.09804 0.81700003 1.196160701e-38
0.36192003 0.098280005 0.81900007 1.232680781e-38
0.36504 0.098280005 0.81900007 1.223639883e-38
0.36995807 0.098759994 0.82300001 1.22360387e-38
0.37400001 0.099000007 0.82500005 1.241969988e-38
0.37714288 0.099000007 0.82500005 1.223495549e-38
0.38120762 0.099240005 0.82700002 1.168357818e-38
0.38528764 0.099480011 0.82900006 1.177687103e-38
0.38938287 0.099720001 0.83100003 1.168430966e-38
0.39254859 0.099720001 0.83100003 1.113403236e-38
0.39666671 0.099960007 0.83300006 1.104288911e-38
0.40080002 0.1002 0.83500004 1.113295336e-38
0.40494859 0.10044 0.83700001 1.14996017e-38
0.40813714 0.10044 0.83700001 1.168465438e-38
0.41132572 0.10044 0.83700001 1.150168964e-38
0.4145143 0.10044 0.83700001 1.149992961e-38
0.41670477 0.1002 0.83500004 1.131374048e-38
0.41988572 0.1002 0.83500004 1.067193458e-38
0.42205337 0.099960007 0.83300006 1.030425348e-38
0.42522669 0.099960007 0.83300006 1.030425067e-38
0.42737144 0.099720001 0.83100003 1.058049565e-38
0.429501 0.099480011 0.82900006 1.103895566e-38
0.43265906 0.099480011 0.82900006 1.122369725e-38
0.056822859 0.082651429 0.67800003 1.223318565e-38
0.059405718 0.082651429 0.67800003 1.287388734e-38
0.061988577 0.082651429 0.67800003 1.287637464e-38
0.064380959 0.082407624 0.67600006 1.269343513e-38
0.0669562 0.082407624 0.67600006 1.260304157e-38
0.069531433 0.082407624 0.67600006 1.269559313e-38
0.072320007 0.082651429 0.67800003 1.278599229e-38
0.075013332 0.082773335 0.67900002 1.260304017e-38
0.077600002 0.082773335 0.67900002 1.278634262e-38
0.080304764 0.082895242 0.68000001 1.306542522e-38
0.082895242 0.082895242 0.68000001 1.279027606e-38
0.085737146 0.083139054 0.68200004 1.27895642e-38
0.088464759 0.083260953 0.68300003 1.297109401e-38
0.091066666 0.083260953 0.68300003 1.315548107e-38
0.093805715 0.08338286 0.68400002 1.306438265e-38
0.096693337 0.083626673 0.68600005 1.288319476e-38
0.099740952 0.083992384 0.68900001 1.315727193e-38
0.10266286 0.084236197 0.69100004 1.296928634e-38
0.10560001 0.084480003 0.69300002 1.223027936e-38
0.10824 0.084480003 0.69300002 1.168106005e-38
0.11104 0.084601901 0.69400001 1.168360761e-38
0.11368381 0.084601901 0.69400001 1.223427446e-38
0.11632761 0.084601901 0.69400001 1.306329945e-38
0.11897142 0.084601901 0.69400001 1.370829611e-38
0.12179048 0.084723815 0.69500005 1.398452427e-38
0.1247962 0.084967621 0.69700003 1.398238589e-38
0.12763429 0.085089527 0.69800001 1.398343546e-38
0.13085334 0.085455239 0.70100003 1.398521511e-38
0.13390477 0.085699044 0.70300001 1.398521231e-38
0.13658285 0.085699044 0.70300001 1.371077361e-38
0.13945906 0.085820958 0.70400006 1.32444411e-38
0.14274667 0.08618667 0.70700002 1.242114882e-38
0.14564571 0.086308569 0.708 1.242294529e-38
0.14834285 0.086308569 0.708 1.269702946e-38
0.15103999 0.086308569 0.708 1.205307957e-38
0.15417144 0.086552382 0.71000004 1.195874555e-38
0.15687619 0.086552382 0.71000004 1.251082072e-38
0.15980572 0.086674288 0.71100003 1.26977245e-38
0.16297144 0.086918101 0.71300006 1.297321838e-38
0.16592002 0.087040007 0.71400005 1.324732637e-38
0.16911238 0.087283812 0.71600002 1.29710828e-38
0.17184001 0.087283812 0.71600002 1.241682722e-38
0.17456762 0.087283812 0.71600002 1.177074315e-38
0.17729524 0.087283812 0.71600002 1.121975119e-38
0.18002285 0.087283812 0.71600002 1.085278195e-38
0.18300572 0.087405711 0.71700001 1.085349802e-38
0.18573715 0.087405711 0.71700001 1.103965491e-38
0.18846856 0.087405711 0.71700001 1.122368744e-38
0.192 0.087771431 0.72000003 1.131804107e-38
0.19528383 0.088015243 0.72200006 1.150205958e-38
0.19885714 0.088380955 0.72500002 1.214636681e-38
0.20579048 0.090209521 0.74000001 1.260770229e-38
0.20945525 0.090575241 0.74300003 1.306474699e-38
0.21285716 0.090819053 0.74500006 1.260950155e-38
0.21569526 0.090819053 0.74500006 1.297538479e-38
0.21941334 0.091184765 0.74800003 1.352819563e-38
0.22285716 0.091428578 0.75000006 1.352855997e-38
0.2263162 0.091672383 0.75200003 1.352890188e-38
0.22948572 0.09179429 0.75300002 1.297864981e-38
0.23297143 0.092038102 0.75500005 1.325519747e-38
0.23678477 0.092403814 0.75800002 1.362183039e-38
0.24030478 0.092647627 0.76000005 1.371331416e-38
0.24320002 0.092647627 0.76000005 1.389591176e-38
0.24706668 0.093013331 0.76300001 1.362037725e-38
0.25128379 0.093500957 0.76700002 1.325450943e-38
0.25453714 0.093622856 0.76800001 1.316086345e-38
0.25746286 0.093622856 0.76800001 1.316085925e-38
0.26106668 0.093866669 0.77000004 1.279318095e-38
0.26468572 0.094110474 0.77200001 1.279173622e-38
0.26866665 0.094476193 0.77500004 1.279352147e-38
0.27232 0.094719999 0.77700001 1.260986169e-38
0.27598858 0.094963811 0.77900004 1.269915803e-38
0.27931428 0.095085718 0.78000003 1.287889558e-38
0.28300956 0.095329531 0.78200006 1.269701405e-38
0.28672004 0.095573336 0.78400004 1.242296771e-38
0.29044572 0.095817141 0.78600001 1.278921668e-38
0.29456002 0.09618286 0.78900003 1.278814189e-38
0.2975657 0.09618286 0.78900003 1.269774272e-38
0.30209523 0.096670479 0.79300004 1.260660227e-38
0.3058857 0.096914284 0.79500002 1.260732534e-38
0.30969146 0.097158097 0.79700005 1.251513812e-38
0.31312001 0.097280003 0.79800004 1.242010346e-38
0.31616002 0.097280003 0.79800004 1.242258235e-38
0.31920001 0.097280003 0.79800004 1.242114742e-38
0.32385528 0.097767621 0.80200005 1.251370459e-38
0.32854095 0.098255247 0.80600005 1.233181745e-38
0.33078858 0.098011427 0.80400002 1.196413215e-38
0.33468193 0.098255247 0.80600005 1.205487183e-38
0.3385905 0.098499052 0.80800003 1.232859306e-38
0.34251431 0.098742865 0.81000006 1.223677298e-38
0.34645334 0.09898667 0.81200004 1.224070362e-38
0.34954667 0.09898667 0.81200004 1.214814786e-38
0.35350856 0.099230476 0.81400001 1.168788717e-38
0.35704765 0.09935239 0.81500006 1.18686799e-38
0.36103621 0.099596195 0.81700003 1.241901184e-38
0.36504 0.099840008 0.81900007 1.242006562e-38
0.36905906 0.10008381 0.82100004 1.223674495e-38
0.37309334 0.10032762 0.82300001 1.251189411e-38
0.37714288 0.10057143 0.82500005 1.251082072e-38
0.38028574 0.10057143 0.82500005 1.177757448e-38
0.38435811 0.10081524 0.82700002 1.159319583e-38
0.38844576 0.10105906 0.82900006 1.15906763e-38
0.39254859 0.10130286 0.83100003 1.17765193e-38
0.39571428 0.10130286 0.83100003 1.159246575e-38
0.39984003 0.10154667 0.83300006 1.104074652e-38
0.40301335 0.10154667 0.83300006 1.13159139e-38
0.40813714 0.10203429 0.83700001 1.159209861e-38
