# .PCD v0.7 - Point Cloud Data file format
VERSION 0.7
FIELDS x y z rgb
SIZE 4 4 4 4
TYPE F F F F
COUNT 1 1 1 1
WIDTH 970
HEIGHT 1
VIEWPOINT 0 0 0 1 0 0 0
POINTS 970
DATA ascii
0.32524192 0 0.73600006 1.159570696e-38
0.32849145 0 0.73700005 1.141312477e-38
0.33129907 0 0.73700005 1.233038252e-38
0.33365336 0 0.73600006 1.214493888e-38
0.3369143 0 0.73700005 1.260516033e-38
0.33972195 0 0.73700005 1.315688937e-38
0.34345907 0 0.73900002 1.278811106e-38
0.34674287 0 0.74000001 1.278886916e-38
0.3495619 0 0.74000001 1.26058778e-38
0.35238096 0 0.74000001 1.251403529e-38
0.35616001 0 0.74200004 1.260442745e-38
0.35898671 0 0.74200004 1.278634402e-38
0.36181334 0 0.74200004 1.287671796e-38
0.36513144 0 0.74300003 1.269377845e-38
0.36895239 0 0.74500006 1.251117244e-38
0.37278858 0 0.74700004 1.22349667e-38
0.37563428 0 0.74700004 1.214633318e-38
0.37848002 0 0.74700004 1.278991593e-38
0.38132575 0 0.74700004 1.278633421e-38
0.38468572 0 0.74800003 1.205342288e-38
0.38753524 0 0.74800003 1.195946302e-38
0.3042762 0.0014152381 0.74300003 1.473363181e-38
0.30669335 0.0014133333 0.74200004 1.427156345e-38
0.30868572 0.0014095238 0.74000001 1.252488134e-38
0.30982095 0.0014019049 0.73600006 1.270137068e-38
0.31262481 0.0014019049 0.73600006 1.251804161e-38
0.31542858 0.0014019049 0.73600006 1.205705505e-38
0.31736764 0.0013980953 0.73400003 1.232824834e-38
0.32103619 0.0014019049 0.73600006 1.269808324e-38
0.32295999 0.0013980953 0.73400003 1.25151241e-38
0.32575619 0.0013980953 0.73400003 1.150350852e-38
0.32944766 0.0014019049 0.73600006 1.223818829e-38
0.33134857 0.0013980953 0.73400003 1.287961445e-38
0.33414477 0.0013980953 0.73400003 1.205129711e-38
0.33785906 0.0014019049 0.73600006 1.306217981e-38
0.3406629 0.0014019049 0.73600006 1.288030108e-38
0.34486666 0.0014076191 0.73900002 1.260482682e-38
0.34768191 0.0014076191 0.73900002 1.288177104e-38
0.35097143 0.0014095238 0.74000001 1.223960781e-38
0.35379049 0.0014095238 0.74000001 1.251402689e-38
0.35660952 0.0014095238 0.74000001 1.242042575e-38
0.35942855 0.0014095238 0.74000001 1.287854385e-38
0.36322668 0.0014133333 0.74200004 1.269306939e-38
0.36605334 0.0014133333 0.74200004 1.278669294e-38
0.36937714 0.0014152381 0.74300003 1.250938859e-38
0.37320954 0.0014190477 0.74500006 1.195980634e-38
0.37705716 0.0014228572 0.74700004 1.19605224e-38
0.37990287 0.0014228572 0.74700004 1.278669154e-38
0.38326097 0.001424762 0.74800003 1.223745541e-38
0.38611048 0.001424762 0.74800003 1.196050839e-38
0.29680002 0.0028266667 0.74200004 1.593651061e-38
0.29962671 0.0028266667 0.74200004 1.483014624e-38
0.30245334 0.0028266667 0.74200004 1.427408158e-38
0.30528 0.0028266667 0.74200004 1.390421446e-38
0.30727619 0.0028190475 0.74000001 1.316341522e-38
0.30883813 0.0028076193 0.73700005 1.251769408e-38
0.31037715 0.0027961906 0.73400003 1.233437061e-38
0.31317332 0.0027961906 0.73400003 1.205633758e-38
0.31596953 0.0027961906 0.73400003 1.205381945e-38
0.31876573 0.0027961906 0.73400003 1.242116704e-38
0.3215619 0.0027961906 0.73400003 1.269484904e-38
0.32435811 0.0027961906 0.73400003 1.251548984e-38
0.32715431 0.0027961906 0.73400003 1.232931333e-38
0.32995048 0.0027961906 0.73400003 1.278560974e-38
0.33274665 0.0027961906 0.73400003 1.278526642e-38
0.33554286 0.0027961906 0.73400003 1.251225424e-38
0.33926097 0.0028038097 0.73600006 1.278703346e-38
0.3420648 0.0028038097 0.73600006 1.269770208e-38
0.34533718 0.0028076193 0.73700005 1.26952358e-38
0.3481448 0.0028076193 0.73700005 1.25151199e-38
0.35190475 0.0028152382 0.73900002 1.223889034e-38
0.35472003 0.0028152382 0.73900002 1.232929091e-38
0.35753524 0.0028152382 0.73900002 1.251227947e-38
0.36083809 0.0028190475 0.74000001 1.269305818e-38
0.36365715 0.0028190475 0.74000001 1.28781585e-38
0.36746669 0.0028266667 0.74200004 1.278452373e-38
0.3717905 0.0028380954 0.74500006 1.214171169e-38
0.3746286 0.0028380954 0.74500006 1.177578502e-38
0.37848002 0.0028457143 0.74700004 1.195694348e-38
0.38132575 0.0028457143 0.74700004 1.223569398e-38
0.38468572 0.0028495239 0.74800003 1.205163343e-38
0.38753524 0.0028495239 0.74800003 1.195981895e-38
0.29680002 0.0042400002 0.74200004 1.547555208e-38
0.29881907 0.0042285714 0.74000001 1.464429903e-38
0.3016381 0.0042285714 0.74000001 1.409003224e-38
0.30445713 0.0042285714 0.74000001 1.362509962e-38
0.30686095 0.0042228573 0.73900002 1.306870286e-38
0.30841908 0.0042057144 0.73600006 1.242584458e-38
0.31037715 0.0041942857 0.73400003 1.224109038e-38
0.31232002 0.0041828575 0.73200005 1.196270142e-38
0.31510857 0.0041828575 0.73200005 1.196234269e-38
0.31876573 0.0041942857 0.73400003 1.242045939e-38
0.3215619 0.0041942857 0.73400003 1.269593505e-38
0.32435811 0.0041942857 0.73400003 1.269736437e-38
0.32626286 0.0041828575 0.73200005 1.260482402e-38
0.32995048 0.0041942857 0.73400003 1.27874048e-38
0.33184004 0.0041828575 0.73200005 1.260337087e-38
0.33462858 0.0041828575 0.73200005 1.242006842e-38
0.33741716 0.0041828575 0.73200005 1.269592243e-38
0.34113526 0.0041942857 0.73400003 1.278737818e-38
0.3448686 0.0042057144 0.73600006 1.278705027e-38
0.3476724 0.0042057144 0.73600006 1.260516173e-38
0.35095242 0.004211429 0.73700005 1.232929791e-38
0.35472003 0.0042228573 0.73900002 1.242042435e-38
0.35753524 0.0042228573 0.73900002 1.260230729e-38
0.36035049 0.0042228573 0.73900002 1.269305257e-38
0.36365715 0.0042285714 0.74000001 1.269338889e-38
0.36746669 0.0042400002 0.74200004 1.250901304e-38
0.37079242 0.0042457143 0.74300003 1.204845808e-38
0.37362286 0.0042457143 0.74300003 1.177472844e-38
0.37848002 0.0042685717 0.74700004 1.186690305e-38
0.38132575 0.0042685717 0.74700004 1.205168107e-38
0.38468572 0.0042742854 0.74800003 1.186726178e-38
0.38701716 0.0042685717 0.74700004 1.186549054e-38
0.29538667 0.0056533334 0.74200004 1.538152635e-38
0.2974095 0.0056380951 0.74000001 1.482833996e-38
0.30022857 0.0056380951 0.74000001 1.418008108e-38
0.30304763 0.0056380951 0.74000001 1.36236675e-38
0.3046267 0.0056152386 0.73700005 1.306976925e-38
0.30701718 0.0056076194 0.73600006 1.279317955e-38
0.30813718 0.0055771433 0.73200005 1.196522095e-38
0.31050095 0.0055695237 0.73100001 1.223820931e-38
0.31328571 0.0055695237 0.73100001 1.141132971e-38
0.31607047 0.0055695237 0.73100001 1.232824274e-38
0.31885523 0.0055695237 0.73100001 1.251082632e-38
0.32164001 0.0055695237 0.73100001 1.297250792e-38
0.32442474 0.0055695237 0.73100001 1.288103676e-38
0.32720953 0.0055695237 0.73100001 1.288032771e-38
0.32999426 0.0055695237 0.73100001 1.260409955e-38
0.33277905 0.0055695237 0.73100001 1.232822732e-38
0.33556381 0.0055695237 0.73100001 1.242005861e-38
0.33881143 0.0055771433 0.73200005 1.278739219e-38
0.34346667 0.0056076194 0.73600006 1.297070445e-38
0.3462705 0.0056076194 0.73600006 1.26955609e-38
0.3490743 0.0056076194 0.73600006 1.26955595e-38
0.35235623 0.0056152386 0.73700005 1.232786999e-38
0.35516384 0.0056152386 0.73700005 1.269486025e-38
0.35894287 0.0056304764 0.73900002 1.269270085e-38
0.36224762 0.0056380951 0.74000001 1.269413157e-38
0.36506668 0.0056380951 0.74000001 1.260158001e-38
0.36888003 0.0056533334 0.74200004 1.214098302e-38
0.37170669 0.0056533334 0.74200004 1.19569631e-38
0.37503809 0.0056609525 0.74300003 1.150135193e-38
0.37888575 0.0056761908 0.74500006 1.20512831e-38
0.38274857 0.0056914287 0.74700004 1.186689605e-38
0.38611048 0.0056990478 0.74800003 1.1497766e-38
0.29397336 0.0070666671 0.74200004 1.519749943e-38
0.296 0.0070476192 0.74000001 1.473468558e-38
0.29881907 0.0070476192 0.74000001 1.417793569e-38
0.30041528 0.0070190481 0.73700005 1.362295564e-38
0.30281144 0.0070095244 0.73600006 1.307048671e-38
0.30478477 0.006990476 0.73400003 1.279352427e-38
0.30674288 0.0069714291 0.73200005 1.269846579e-38
0.30826288 0.0069428575 0.72900003 1.251407033e-38
0.31104001 0.0069428575 0.72900003 1.232860847e-38
0.31381717 0.0069428575 0.72900003 1.241901325e-38
0.3165943 0.0069428575 0.72900003 1.260299252e-38
0.31937146 0.0069428575 0.72900003 1.278883693e-38
0.32214859 0.0069428575 0.72900003 1.288066122e-38
0.32581714 0.0069619045 0.73100001 1.30640001e-38
0.32860193 0.0069619045 0.73100001 1.297217161e-38
0.33048001 0.0069428575 0.72900003 1.242079289e-38
0.33325714 0.0069428575 0.72900003 1.223745681e-38
0.3369562 0.0069619045 0.73100001 1.241970128e-38
0.34020573 0.0069714291 0.73200005 1.296998418e-38
0.34393144 0.006990476 0.73400003 1.287815429e-38
0.3476724 0.0070095244 0.73600006 1.260227926e-38
0.35047621 0.0070095244 0.73600006 1.223567156e-38
0.35376003 0.0070190481 0.73700005 1.25104774e-38
0.35753524 0.0070380955 0.73900002 1.287638305e-38
0.36035049 0.0070380955 0.73900002 1.26944875e-38
0.36365715 0.0070476192 0.74000001 1.269452534e-38
0.36647621 0.0070476192 0.74000001 1.232643926e-38
0.37029335 0.0070666671 0.74200004 1.18662052e-38
0.37312004 0.0070666671 0.74200004 1.168287473e-38
0.37645334 0.0070761908 0.74300003 1.195942518e-38
0.38030478 0.0070952387 0.74500006 1.214237591e-38
0.38468572 0.0071238098 0.74800003 1.177396754e-38
0.38753524 0.0071238098 0.74800003 1.186223953e-38
0.29278478 0.0084457146 0.73900002 1.492163701e-38
0.2956 0.0084457146 0.73900002 1.445736581e-38
0.29841524 0.0084457146 0.73900002 1.399209829e-38
0.2991924 0.0083885714 0.73400003 1.334851834e-38
0.30116573 0.0083657149 0.73200005 1.279533195e-38
0.3039543 0.0083657149 0.73200005 1.270133004e-38
0.30548573 0.0083314283 0.72900003 1.315582859e-38
0.30826288 0.0083314283 0.72900003 1.306220083e-38
0.31061333 0.00832 0.72800004 1.287636764e-38
0.31338668 0.00832 0.72800004 1.296966188e-38
0.31616002 0.00832 0.72800004 1.278777755e-38
0.31893337 0.00832 0.72800004 1.288104377e-38
0.32214859 0.0083314283 0.72900003 1.297216881e-38
0.32492575 0.0083314283 0.72900003 1.333843039e-38
0.32770288 0.0083314283 0.72900003 1.315549508e-38
0.33048001 0.0083314283 0.72900003 1.242151036e-38
0.33325714 0.0083314283 0.72900003 1.205522916e-38
0.3369562 0.0083542857 0.73100001 1.223566595e-38
0.33974093 0.0083542857 0.73100001 1.306218682e-38
0.34393144 0.0083885714 0.73400003 1.306146795e-38
0.34672764 0.0083885714 0.73400003 1.25108025e-38
0.35047621 0.0084114289 0.73600006 1.204840063e-38
0.35376003 0.0084228581 0.73700005 1.260196397e-38
0.35753524 0.0084457146 0.73900002 1.315223706e-38
0.36035049 0.0084457146 0.73900002 1.269449451e-38
0.36365715 0.0084571429 0.74000001 1.278670976e-38
0.36647621 0.0084571429 0.74000001 1.232070375e-38
0.37029335 0.0084800003 0.74200004 1.168252861e-38
0.37312004 0.0084800003 0.74200004 1.177578642e-38
0.37645334 0.0084914286 0.74300003 1.223494148e-38
0.37928382 0.0084914286 0.74300003 1.232571059e-38
0.38417146 0.0085371435 0.74700004 1.186544991e-38
0.38753524 0.0085485708 0.74800003 1.195371349e-38
0.29137716 0.0098533342 0.73900002 1.482979031e-38
0.29419237 0.0098533342 0.73900002 1.436627441e-38
0.29620382 0.0098266676 0.73700005 1.39016767e-38
0.29657716 0.009746667 0.73100001 1.334887427e-38
0.29936191 0.009746667 0.73100001 1.233615867e-38
0.30214667 0.009746667 0.73100001 1.260878129e-38
0.30409715 0.0097200004 0.72900003 1.27906362e-38
0.30561143 0.0096800001 0.72600001 1.324836473e-38
0.30922669 0.0097066667 0.72800004 1.278774672e-38
0.31114286 0.0096800001 0.72600001 1.306326442e-38
0.31390858 0.0096800001 0.72600001 1.279066703e-38
0.31667429 0.0096800001 0.72600001 1.269883433e-38
0.32032001 0.0097066667 0.72800004 1.260376884e-38
0.32309335 0.0097066667 0.72800004 1.288034732e-38
0.3258667 0.0097066667 0.72800004 1.33384444e-38
0.32864001 0.0097066667 0.72800004 1.214530042e-38
0.33186856 0.0097200004 0.72900003 1.232967066e-38
0.33464572 0.0097200004 0.72900003 1.232678819e-38
0.33834857 0.009746667 0.73100001 1.269412877e-38
0.34160003 0.0097600007 0.73200005 1.315331046e-38
0.3443886 0.0097600007 0.73200005 1.260121007e-38
0.34812573 0.0097866664 0.73400003 1.2417888e-38
0.35187814 0.0098133339 0.73600006 1.205093138e-38
0.35516384 0.0098266676 0.73700005 1.306220644e-38
0.35797146 0.0098266676 0.73700005 1.269449311e-38
0.36175811 0.0098533342 0.73900002 1.241792163e-38
0.36506668 0.009866667 0.74000001 1.278454896e-38
0.36788571 0.009866667 0.74000001 1.195802949e-38
0.37170669 0.0098933335 0.74200004 1.186726599e-38
0.37453333 0.0098933335 0.74200004 1.159210842e-38
0.37786859 0.0099066673 0.74300003 1.223316884e-38
0.38172382 0.0099333348 0.74500006 1.168251459e-38
0.38611048 0.0099733332 0.74800003 1.177326549e-38
0.28778097 0.011230477 0.73700005 1.519747981e-38
0.29058859 0.011230477 0.73700005 1.464035437e-38
0.29299811 0.011215239 0.73600006 1.399676601e-38
0.29419431 0.011154287 0.73200005 1.35329082e-38
0.29576573 0.011108572 0.72900003 1.307121539e-38
0.29854286 0.011108572 0.72900003 1.169259133e-38
0.30132002 0.011108572 0.72900003 1.2515878e-38
0.30242857 0.011047619 0.72500002 1.279029708e-38
0.30519047 0.011047619 0.72500002 1.2974317e-38
0.30795237 0.011047619 0.72500002 1.297143453e-38
0.30985716 0.011017144 0.72300005 1.288138989e-38
0.31390858 0.011062857 0.72600001 1.288177385e-38
0.31667429 0.011062857 0.72600001 1.260698763e-38
0.31944001 0.011062857 0.72600001 1.223820931e-38
0.32309335 0.011093334 0.72800004 1.278814048e-38
0.3258667 0.011093334 0.72800004 1.287889838e-38
0.32864001 0.011093334 0.72800004 1.17754361e-38
0.33141333 0.011093334 0.72800004 1.241827476e-38
0.3341867 0.011093334 0.72800004 1.278597688e-38
0.33742285 0.011108572 0.72900003 1.269377985e-38
0.34160003 0.011154287 0.73200005 1.287744524e-38
0.3443886 0.011154287 0.73200005 1.251009344e-38
0.34812573 0.011184762 0.73400003 1.25097263e-38
0.35187814 0.011215239 0.73600006 1.241790482e-38
0.35468191 0.011215239 0.73600006 1.269448891e-38
0.35797146 0.011230477 0.73700005 1.260229748e-38
0.36175811 0.011260953 0.73900002 1.2326805e-38
0.36457333 0.011260953 0.73900002 1.250903546e-38
0.36788571 0.01127619 0.74000001 1.24175573e-38
0.37070474 0.01127619 0.74000001 1.205057404e-38
0.37453333 0.011306667 0.74200004 1.149848207e-38
0.37786859 0.011321905 0.74300003 1.168107966e-38
0.38172382 0.011352382 0.74500006 1.14988394e-38
0.38559431 0.011382857 0.74700004 1.158958889e-38
0.28739047 0.012617144 0.73600006 1.48276183e-38
0.29019433 0.012617144 0.73600006 1.43619542e-38
0.29299811 0.012617144 0.73600006 1.371945185e-38
0.29298857 0.012497144 0.72900003 1.316413969e-38
0.29576573 0.012497144 0.72900003 1.288610946e-38
0.29813334 0.012480001 0.72800004 1.196738036e-38
0.30090669 0.012480001 0.72800004 1.251516894e-38
0.30159429 0.012394287 0.72300005 1.269740641e-38
0.30434859 0.012394287 0.72300005 1.269560434e-38
0.30710286 0.012394287 0.72300005 1.287997318e-38
0.30985716 0.012394287 0.72300005 1.297322959e-38
0.3134762 0.012428571 0.72500002 1.343134208e-38
0.31623811 0.012428571 0.72500002 1.269881331e-38
0.31900001 0.012428571 0.72500002 1.242330402e-38
0.32220572 0.012445714 0.72600001 1.287996477e-38
0.32497144 0.012445714 0.72600001 1.306219943e-38
0.32773712 0.012445714 0.72600001 1.232715533e-38
0.33141333 0.012480001 0.72800004 1.260050942e-38
0.3341867 0.012480001 0.72800004 1.2693075e-38
0.33742285 0.012497144 0.72900003 1.260482402e-38
0.34113333 0.012531429 0.73100001 1.278776353e-38
0.3443886 0.012548571 0.73200005 1.196015946e-38
0.34812573 0.012582858 0.73400003 1.250901304e-38
0.35092193 0.012582858 0.73400003 1.250973051e-38
0.35468191 0.012617144 0.73600006 1.260227926e-38
0.35797146 0.012634287 0.73700005 1.278560974e-38
0.36224762 0.012685714 0.74000001 1.214385288e-38
0.36506668 0.012685714 0.74000001 1.23257176e-38
0.36788571 0.012685714 0.74000001 1.269341551e-38
0.37070474 0.012685714 0.74000001 1.186653871e-38
0.37453333 0.012720001 0.74200004 1.094567823e-38
0.37786859 0.012737143 0.74300003 1.158745051e-38
0.38172382 0.012771429 0.74500006 1.140735703e-38
0.38559431 0.012805715 0.74700004 1.168142018e-38
0.28187999 0.013885715 0.72900003 1.546794863e-38
0.28465715 0.013885715 0.72900003 1.454599093e-38
0.28822285 0.013923809 0.73100001 1.408428831e-38
0.29100764 0.013923809 0.73100001 1.353146906e-38
0.29258668 0.013866668 0.72800004 1.288754299e-38
0.29454857 0.013828572 0.72600001 1.279246349e-38
0.29608572 0.01377143 0.72300005 1.23332734e-38
0.29884002 0.01377143 0.72300005 1.251444167e-38
0.30159429 0.01377143 0.72300005 1.26963218e-38
0.30434859 0.01377143 0.72300005 1.241937198e-38
0.30710286 0.01377143 0.72300005 1.288068504e-38
0.30985716 0.01377143 0.72300005 1.315689778e-38
0.31261146 0.01377143 0.72300005 1.407454228e-38
0.31623811 0.013809524 0.72500002 1.28803165e-38
0.31812003 0.01377143 0.72300005 1.26966455e-38
0.32176191 0.013809524 0.72500002 1.30629183e-38
0.32452381 0.013809524 0.72500002 1.324623756e-38
0.32773712 0.013828572 0.72600001 1.296857448e-38
0.33050287 0.013828572 0.72600001 1.287565718e-38
0.3341867 0.013866668 0.72800004 1.260123529e-38
0.33742285 0.013885715 0.72900003 1.260338489e-38
0.34020001 0.013885715 0.72900003 1.269556931e-38
0.3443886 0.013942858 0.73200005 1.150169945e-38
0.34717718 0.013942858 0.73200005 1.25108039e-38
0.35092193 0.013980952 0.73400003 1.269519936e-38
0.35468191 0.014019049 0.73600006 1.250937738e-38
0.35748574 0.014019049 0.73600006 1.296927653e-38
0.36077908 0.014038096 0.73700005 1.20512845e-38
0.36457333 0.014076191 0.73900002 1.214347032e-38
0.36788571 0.014095238 0.74000001 1.306003022e-38
0.37070474 0.014095238 0.74000001 1.168249778e-38
0.37453333 0.014133334 0.74200004 1.048721681e-38
0.37786859 0.014152382 0.74300003 1.149705134e-38
0.38172382 0.014190477 0.74500006 1.140627663e-38
0.38559431 0.014228572 0.74700004 1.177253821e-38
0.28149337 0.015253334 0.72800004 1.45445546e-38
0.28426668 0.015253334 0.72800004 1.417898526e-38
0.28585717 0.015190477 0.72500002 1.371406806e-38
0.28981334 0.015253334 0.72800004 1.34389105e-38
0.29057714 0.015148573 0.72300005 1.270278179e-38
0.29333144 0.015148573 0.72300005 1.288284864e-38
0.2956762 0.015127621 0.72200006 1.242186769e-38
0.29842669 0.015127621 0.72200006 1.269774412e-38
0.30117717 0.015127621 0.72200006 1.287890819e-38
0.30392763 0.015127621 0.72200006 1.315404894e-38
0.30667812 0.015127621 0.72200006 1.297323239e-38
0.3094286 0.015127621 0.72200006 1.288174722e-38
0.31261146 0.015148573 0.72300005 1.361571653e-38
0.31536573 0.015148573 0.72300005 1.287958502e-38
0.31812003 0.015148573 0.72300005 1.278775092e-38
0.3208743 0.015148573 0.72300005 1.306255957e-38
0.3236286 0.015148573 0.72300005 1.333592907e-38
0.32728574 0.015190477 0.72500002 1.342632263e-38
0.33050287 0.015211429 0.72600001 1.296749267e-38
0.3341867 0.015253334 0.72800004 1.260122969e-38
0.33696002 0.015253334 0.72800004 1.260230308e-38
0.34020001 0.015274285 0.72900003 1.315259579e-38
0.34391811 0.015316191 0.73100001 1.205379002e-38
0.34717718 0.015337145 0.73200005 1.251187729e-38
0.34996572 0.015337145 0.73200005 1.242077328e-38
0.3537181 0.015379048 0.73400003 1.241683563e-38
0.35748574 0.015420954 0.73600006 1.260228907e-38
0.36077908 0.015441906 0.73700005 1.131873751e-38
0.36457333 0.015483811 0.73900002 1.177683459e-38
0.36788571 0.015504763 0.74000001 1.223314221e-38
0.37070474 0.015504763 0.74000001 1.159029374e-38
0.37453333 0.015546667 0.74200004 1.094495796e-38
0.37786859 0.015567619 0.74300003 1.149633528e-38
0.38172382 0.015609525 0.74500006 1.131371806e-38
0.38456193 0.015609525 0.74500006 1.158814835e-38
0.27657142 0.016594285 0.72600001 1.528462937e-38
0.27895239 0.01657143 0.72500002 1.427192778e-38
0.28093714 0.016525716 0.72300005 1.371370933e-38
0.28329906 0.016502857 0.72200006 1.362258709e-38
0.28525716 0.016457144 0.72000003 1.334563587e-38
0.28920004 0.016525716 0.72300005 1.297792114e-38
0.29195431 0.016525716 0.72300005 1.279280541e-38
0.29430097 0.016502857 0.72200006 1.279134525e-38
0.29705146 0.016502857 0.72200006 1.269450852e-38
0.29897144 0.016457144 0.72000003 1.297253174e-38
0.3017143 0.016457144 0.72000003 1.343135049e-38
0.30445716 0.016457144 0.72000003 1.343098195e-38
0.30805334 0.016502857 0.72200006 1.288282762e-38
0.30994284 0.016457144 0.72000003 1.297502606e-38
0.31355432 0.016502857 0.72200006 1.306541821e-38
0.31674287 0.016525716 0.72300005 1.297177224e-38
0.31949717 0.016525716 0.72300005 1.306613428e-38
0.32225144 0.016525716 0.72300005 1.333733738e-38
0.32500571 0.016525716 0.72300005 1.370362699e-38
0.32866666 0.01657143 0.72500002 1.352064684e-38
0.33188573 0.016594285 0.72600001 1.287780957e-38
0.33557335 0.01664 0.72800004 1.269557631e-38
0.33881143 0.016662857 0.72900003 1.315188113e-38
0.34158859 0.016662857 0.72900003 1.306075189e-38
0.34531045 0.016708571 0.73100001 1.26037184e-38
0.34857145 0.01673143 0.73200005 1.242075366e-38
0.35232002 0.016777143 0.73400003 1.232608334e-38
0.35511619 0.016777143 0.73400003 1.232714132e-38
0.35888764 0.016822858 0.73600006 1.150384624e-38
0.36218289 0.016845716 0.73700005 1.104502329e-38
0.36598095 0.016891429 0.73900002 1.140770315e-38
0.36929524 0.016914286 0.74000001 1.149666178e-38
0.37211427 0.016914286 0.74000001 1.140519342e-38
0.37594667 0.016960001 0.74200004 1.140306765e-38
0.37928382 0.016982857 0.74300003 1.140519763e-38
0.38314289 0.017028572 0.74500006 1.131263206e-38
0.38701716 0.017074287 0.74700004 1.140232637e-38
0.27229714 0.017878097 0.72200006 1.482726797e-38
0.27757144 0.017952381 0.72500002 1.427155644e-38
0.27956003 0.017902857 0.72300005 1.344108251e-38
0.28075239 0.017803809 0.71900004 1.334708061e-38
0.28388572 0.017828573 0.72000003 1.32541549e-38
0.2862305 0.017803809 0.71900004 1.316158793e-38
0.28937146 0.017828573 0.72000003 1.288499123e-38
0.29211429 0.017828573 0.72000003 1.297644977e-38
0.2956762 0.017878097 0.72200006 1.251297171e-38
0.29718667 0.017803809 0.71900004 1.297144854e-38
0.29992574 0.017803809 0.71900004 1.324875009e-38
0.30266476 0.017803809 0.71900004 1.370756604e-38
0.30540383 0.017803809 0.71900004 1.325089408e-38
0.30814287 0.017803809 0.71900004 1.297467153e-38
0.31131428 0.017828573 0.72000003 1.324801861e-38
0.31492954 0.017878097 0.72200006 1.306612867e-38
0.31768003 0.017878097 0.72200006 1.306684333e-38
0.3208743 0.017902857 0.72300005 1.315867603e-38
0.32318097 0.017878097 0.72200006 1.34295288e-38
0.32638288 0.017902857 0.72300005 1.370468076e-38
0.33004764 0.017952381 0.72500002 1.306182809e-38
0.33326858 0.017977143 0.72600001 1.287709071e-38
0.33696002 0.018026669 0.72800004 1.260158702e-38
0.34020001 0.018051429 0.72900003 1.315151399e-38
0.34391811 0.018100953 0.73100001 1.260300093e-38
0.34670284 0.018100953 0.73100001 1.24200404e-38
0.34948763 0.018100953 0.73100001 1.223602188e-38
0.35275429 0.018125715 0.73200005 1.22328017e-38
0.3565143 0.018175239 0.73400003 1.26944791e-38
0.35931048 0.018175239 0.73400003 1.113470919e-38
0.36309338 0.018224763 0.73600006 1.149774779e-38
0.36738861 0.018299049 0.73900002 1.149953724e-38
0.37070474 0.018323809 0.74000001 1.140662555e-38
0.37453333 0.018373335 0.74200004 1.131193141e-38
0.37888575 0.018447619 0.74500006 1.176967256e-38
0.38274857 0.018497143 0.74700004 1.12200819e-38
0.38559431 0.018497143 0.74700004 1.10364095e-38
0.2663143 0.01912 0.71700001 1.620732415e-38
0.27092192 0.019253334 0.72200006 1.47336248e-38
0.2736724 0.019253334 0.72200006 1.381093983e-38
0.27642286 0.019253334 0.72200006 1.381020835e-38
0.2784 0.019199999 0.72000003 1.32563185e-38
0.27997142 0.01912 0.71700001 1.297900855e-38
0.28270286 0.01912 0.71700001 1.306975944e-38
0.28543428 0.01912 0.71700001 1.306867343e-38
0.28816572 0.01912 0.71700001 1.315977745e-38
0.29089716 0.01912 0.71700001 1.306721608e-38
0.29362857 0.01912 0.71700001 1.251513111e-38
0.29636002 0.01912 0.71700001 1.306542382e-38
0.29909143 0.01912 0.71700001 1.343204974e-38
0.30182284 0.01912 0.71700001 1.361572774e-38
0.30540383 0.019173335 0.71900004 1.352533278e-38
0.30814287 0.019173335 0.71900004 1.324875149e-38
0.31088191 0.019173335 0.71900004 1.324838155e-38
0.31405714 0.019199999 0.72000003 1.324980247e-38
0.3168 0.019199999 0.72000003 1.31583215e-38
0.32043049 0.019253334 0.72200006 1.324981087e-38
0.32318097 0.019253334 0.72200006 1.333663112e-38
0.32638288 0.019280002 0.72300005 1.342917147e-38
0.33004764 0.019333335 0.72500002 1.306218121e-38
0.33326858 0.01936 0.72600001 1.306183369e-38
0.33696002 0.019413333 0.72800004 1.260122969e-38
0.33973336 0.019413333 0.72800004 1.278490629e-38
0.34297714 0.019440001 0.72900003 1.260194155e-38
0.34670284 0.019493334 0.73100001 1.23282063e-38
0.34948763 0.019493334 0.73100001 1.232749164e-38
0.35275429 0.019520001 0.73200005 1.214024173e-38
0.3565143 0.019573333 0.73400003 1.305967009e-38
0.36028954 0.019626668 0.73600006 1.168250619e-38
0.36358669 0.019653335 0.73700005 1.168143419e-38
0.36788571 0.019733334 0.74000001 1.149846525e-38
0.37170669 0.019786667 0.74200004 1.140662415e-38
0.37503809 0.019813335 0.74300003 1.13119258e-38
0.37888575 0.01986667 0.74500006 1.213737187e-38
0.38274857 0.019920001 0.74700004 1.121972316e-38
0.38559431 0.019920001 0.74700004 1.076054288e-38
0.2663143 0.020485714 0.71700001 1.482727077e-38
0.27092192 0.020628573 0.72200006 1.4365187e-38
0.27291429 0.020571429 0.72000003 1.371728825e-38
0.27642286 0.020628573 0.72200006 1.38098314e-38
0.27801335 0.020542858 0.71900004 1.307191323e-38
0.27997142 0.020485714 0.71700001 1.261129662e-38
0.28270286 0.020485714 0.71700001 1.297432961e-38
0.28543428 0.020485714 0.71700001 1.3157995e-38
0.28816572 0.020485714 0.71700001 1.315941591e-38
0.29049143 0.020457145 0.71600002 1.343205535e-38
0.29321906 0.020457145 0.71600002 1.28835563e-38
0.29594669 0.020457145 0.71600002 1.315868303e-38
0.29867429 0.020457145 0.71600002 1.343132106e-38
0.30182284 0.020485714 0.71700001 1.361572494e-38
0.30455428 0.020485714 0.71700001 1.370829471e-38
0.3072857 0.020485714 0.71700001 1.352319159e-38
0.31001714 0.020485714 0.71700001 1.324874449e-38
0.31362098 0.020542858 0.71900004 1.33419995e-38
0.31636 0.020542858 0.71900004 1.315473558e-38
0.31954288 0.020571429 0.72000003 1.324731656e-38
0.32228574 0.020571429 0.72000003 1.296858709e-38
0.32593146 0.020628573 0.72200006 1.324729274e-38
0.33004764 0.020714285 0.72500002 1.296890518e-38
0.33326858 0.020742858 0.72600001 1.269843356e-38
0.33696002 0.020800002 0.72800004 1.24175601e-38
0.33973336 0.020800002 0.72800004 1.241471266e-38
0.34297714 0.020828571 0.72900003 1.232501835e-38
0.3457543 0.020828571 0.72900003 1.214382065e-38
0.34948763 0.020885715 0.73100001 1.260263239e-38
0.35275429 0.020914286 0.73200005 1.20480405e-38
0.3565143 0.020971429 0.73400003 1.232211906e-38
0.35931048 0.020971429 0.73400003 1.140557878e-38
0.36358669 0.021057144 0.73700005 1.140558299e-38
0.36788571 0.021142857 0.74000001 1.131443973e-38
0.37170669 0.021200001 0.74200004 1.122295176e-38
0.37503809 0.021228572 0.74300003 1.103677244e-38
0.37888575 0.021285716 0.74500006 1.131120834e-38
0.38274857 0.021342859 0.74700004 1.04850392e-38
0.38559431 0.021342859 0.74700004 1.02116823e-38
0.11106668 0.020906668 0.68600005 1.472494936e-38
0.11384572 0.020937143 0.68700004 1.398773605e-38
0.11646286 0.020937143 0.68700004 1.325053955e-38
0.11942667 0.020998096 0.68900001 1.279209915e-38
0.12205143 0.020998096 0.68900001 1.334420514e-38
0.2663143 0.021851428 0.71700001 1.353831441e-38
0.27017143 0.021942858 0.72000003 1.408500298e-38
0.27253526 0.021912381 0.71900004 1.362365769e-38
0.27565715 0.021942858 0.72000003 1.380480914e-38
0.27801335 0.021912381 0.71900004 1.297791974e-38
0.27958095 0.021820953 0.71600002 1.233434959e-38
0.28230858 0.021820953 0.71600002 1.288105358e-38
0.28503618 0.021820953 0.71600002 1.324838716e-38
0.2877638 0.021820953 0.71600002 1.324873188e-38
0.28968003 0.021760002 0.71400005 1.380047213e-38
0.2924 0.021760002 0.71400005 1.325054516e-38
0.29512 0.021760002 0.71400005 1.325017101e-38
0.29784003 0.021760002 0.71400005 1.343241688e-38
0.30140191 0.021820953 0.71600002 1.361573615e-38
0.30412951 0.021820953 0.71600002 1.389052097e-38
0.30685714 0.021820953 0.71600002 1.379760367e-38
0.30958477 0.021820953 0.71600002 1.333806045e-38
0.31274858 0.021851428 0.71700001 1.352496003e-38
0.31636 0.021912381 0.71900004 1.324872767e-38
0.31909907 0.021912381 0.71900004 1.324730255e-38
0.32228574 0.021942858 0.72000003 1.269378265e-38
0.32593146 0.022003811 0.72200006 1.306110922e-38
0.32913718 0.022034287 0.72300005 1.296854645e-38
0.33326858 0.022125714 0.72600001 1.232463299e-38
0.33696002 0.022186669 0.72800004 1.223424924e-38
0.33973336 0.022186669 0.72800004 1.214026695e-38
0.34297714 0.022217143 0.72900003 1.214240534e-38
0.3457543 0.022217143 0.72900003 1.205269701e-38
0.34948763 0.022278095 0.73100001 1.296961424e-38
0.35275429 0.022308573 0.73200005 1.204875656e-38
0.3555429 0.022308573 0.73200005 1.167998525e-38
0.35931048 0.022369524 0.73400003 1.122153925e-38
0.36358669 0.022460954 0.73700005 1.122226372e-38
0.36788571 0.02255238 0.74000001 1.12222455e-38
0.37170669 0.022613334 0.74200004 1.11293226e-38
0.37453333 0.022613334 0.74200004 1.085310145e-38
0.37888575 0.022704763 0.74500006 1.05758069e-38
0.38274857 0.022765715 0.74700004 9.841474659e-39
0.38611048 0.022796191 0.74800003 9.750355226e-39
0.10813715 0.022148572 0.68400002 1.435154816e-38
0.11106668 0.022213334 0.68600005 1.509229835e-38
0.11368001 0.022213334 0.68600005 1.380369511e-38
0.11629334 0.022213334 0.68600005 1.343203993e-38
0.11908 0.022245716 0.68700004 1.306687697e-38
0.12222858 0.022342859 0.69000006 1.334168e-38
0.1250381 0.022375239 0.69100004 1.325164377e-38
0.1276705 0.022375239 0.69100004 1.297542402e-38
0.13030286 0.022375239 0.69100004 1.380374276e-38
0.13293526 0.022375239 0.69100004 1.371694353e-38
0.13596001 0.02244 0.69300002 1.426830683e-38
0.13859999 0.02244 0.69300002 1.491148321e-38
0.14124 0.02244 0.69300002 1.380841048e-38
0.14388001 0.02244 0.69300002 1.371441558e-38
0.14673144 0.022472382 0.69400001 1.335134055e-38
0.26594287 0.023184761 0.71600002 1.371908471e-38
0.27017143 0.023314286 0.72000003 1.353146486e-38
0.27177712 0.023217143 0.71700001 1.316304388e-38
0.27412573 0.023184761 0.71600002 1.260951277e-38
0.27685335 0.023184761 0.71600002 1.279316834e-38
0.27840954 0.023087621 0.71300006 1.269953358e-38
0.28112575 0.023087621 0.71300006 1.287997178e-38
0.28384194 0.023087621 0.71300006 1.324730255e-38
0.28655812 0.023087621 0.71300006 1.306577134e-38
0.28927431 0.023087621 0.71300006 1.361715846e-38
0.29199049 0.023087621 0.71300006 1.315871526e-38
0.29470667 0.023087621 0.71300006 1.325018222e-38
0.29784003 0.023120001 0.71400005 1.33416786e-38
0.30140191 0.023184761 0.71600002 1.324840537e-38
0.30412951 0.023184761 0.71600002 1.425749441e-38
0.30685714 0.023184761 0.71600002 1.379615052e-38
0.30958477 0.023184761 0.71600002 1.342881134e-38
0.31274858 0.023217143 0.71700001 1.324874309e-38
0.31547999 0.023217143 0.71700001 1.324909061e-38
0.31821144 0.023217143 0.71700001 1.343131966e-38
0.32228574 0.023314286 0.72000003 1.297286105e-38
0.32593146 0.02337905 0.72200006 1.296891499e-38
0.32913718 0.023411429 0.72300005 1.315150138e-38
0.33280954 0.023476191 0.72500002 1.186509538e-38
0.33696002 0.023573333 0.72800004 1.214313261e-38
0.33973336 0.023573333 0.72800004 1.186618138e-38
0.34297714 0.023605715 0.72900003 1.214346332e-38
0.3457543 0.023605715 0.72900003 1.196157478e-38
0.34853142 0.023605715 0.72900003 1.241824253e-38
0.35275429 0.02370286 0.73200005 1.177432627e-38
0.3555429 0.02370286 0.73200005 1.149738625e-38
0.35931048 0.02376762 0.73400003 1.103785985e-38
0.36358669 0.023864765 0.73700005 1.103643333e-38
0.36738861 0.023929525 0.73900002 1.140340677e-38
0.37170669 0.024026668 0.74200004 1.085345738e-38
0.37503809 0.024059048 0.74300003 1.066942905e-38
0.37888575 0.02412381 0.74500006 1.020774885e-38
0.38326097 0.024220953 0.74800003 9.65959873e-39
0.38611048 0.024220953 0.74800003 1.002299466e-38
0.10553142 0.023451429 0.68400002 1.388734422e-38
0.10845334 0.02352 0.68600005 1.407171166e-38
0.11106668 0.02352 0.68600005 1.555005211e-38
0.11368001 0.02352 0.68600005 1.371296104e-38
0.11646286 0.023554288 0.68700004 1.37071989e-38
0.11908 0.023554288 0.68700004 1.343314275e-38
0.12205143 0.023622857 0.68900001 1.343314976e-38
0.12467619 0.023622857 0.68900001 1.315836074e-38
0.12748572 0.023657145 0.69000006 1.288321858e-38
0.13030286 0.023691429 0.69100004 1.316088167e-38
0.13293526 0.023691429 0.69100004 1.362293742e-38
0.13556762 0.023691429 0.69100004 1.389879844e-38
0.13820001 0.023691429 0.69100004 1.398881925e-38
0.14124 0.02376 0.69300002 1.32519955e-38
0.14388001 0.02376 0.69300002 1.24229607e-38
0.14652 0.02376 0.69300002 1.260661488e-38
0.14916001 0.02376 0.69300002 1.279281662e-38
0.15179999 0.02376 0.69300002 1.27027944e-38
0.15972 0.02376 0.69300002 1.353397599e-38
0.2017981 0.023897143 0.69700003 1.436012691e-38
0.20386668 0.023828574 0.69500005 1.426648374e-38
0.26002288 0.024377143 0.71100003 1.491442873e-38
0.26347047 0.024445716 0.71300006 1.42668747e-38
0.26618668 0.024445716 0.71300006 1.343962936e-38
0.26890287 0.024445716 0.71300006 1.288717445e-38
0.27161905 0.024445716 0.71300006 1.205849839e-38
0.27433527 0.024445716 0.71300006 1.196736915e-38
0.27705145 0.024445716 0.71300006 1.279101174e-38
0.27898285 0.024377143 0.71100003 1.297468554e-38
0.28169143 0.024377143 0.71100003 1.30618435e-38
0.28440002 0.024377143 0.71100003 1.315834812e-38
0.28791621 0.024445716 0.71300006 1.315724951e-38
0.28981715 0.024377143 0.71100003 1.325054936e-38
0.29334858 0.024445716 0.71300006 1.316012357e-38
0.29606476 0.024445716 0.71300006 1.325017241e-38
0.29878098 0.024445716 0.71300006 1.306579797e-38
0.30192003 0.024480002 0.71400005 1.370648844e-38
0.30464 0.024480002 0.71400005 1.425641821e-38
0.30822095 0.024548572 0.71600002 1.370431503e-38
0.31094858 0.024548572 0.71600002 1.324694942e-38
0.31367621 0.024548572 0.71600002 1.306437144e-38
0.31684569 0.024582857 0.71700001 1.343310632e-38
0.31957713 0.024582857 0.71700001 1.343131966e-38
0.32365716 0.024685716 0.72000003 1.306506369e-38
0.32776001 0.024788573 0.72300005 1.315079232e-38
0.33051431 0.024788573 0.72300005 1.232534065e-38
0.33465144 0.024891429 0.72600001 1.168359219e-38
0.33741713 0.024891429 0.72600001 1.186690445e-38
0.34112003 0.024960002 0.72800004 1.195981755e-38
0.34436572 0.024994288 0.72900003 1.205126068e-38
0.34714288 0.024994288 0.72900003 1.186722955e-38
0.35088 0.025062857 0.73100001 1.168320684e-38
0.3541486 0.025097143 0.73200005 1.140519342e-38
0.35791239 0.025165716 0.73400003 1.103785144e-38
0.36169145 0.025234288 0.73600006 1.085313928e-38
0.36598095 0.025337143 0.73900002 1.121830645e-38
0.36929524 0.025371429 0.74000001 1.112681988e-38
0.37312004 0.025440002 0.74200004 1.057651456e-38
0.37746668 0.025542859 0.74500006 1.020849435e-38
0.38183621 0.025645716 0.74800003 9.749293042e-39
0.38468572 0.025645716 0.74800003 9.93402762e-39
0.38857144 0.025714288 0.75000006 9.838974743e-39
0.10714667 0.024826668 0.68600005 1.314794348e-38
0.10976001 0.024826668 0.68600005 1.407635837e-38
0.11237334 0.024826668 0.68600005 1.408037169e-38
0.11515429 0.024862858 0.68700004 1.35267649e-38
0.11777143 0.024862858 0.68700004 1.343134769e-38
0.12073905 0.024935238 0.68900001 1.333915907e-38
0.12336381 0.024935238 0.68900001 1.315619993e-38
0.12617144 0.024971429 0.69000006 1.288104657e-38
0.1288 0.024971429 0.69000006 1.279138029e-38
0.13161905 0.02500762 0.69100004 1.316301445e-38
0.13425143 0.02500762 0.69100004 1.343925662e-38
0.13688383 0.02500762 0.69100004 1.353035783e-38
0.13951619 0.02500762 0.69100004 1.334417011e-38
0.14214858 0.02500762 0.69100004 1.279136347e-38
0.1452 0.025080001 0.69300002 1.242365715e-38
0.14784001 0.025080001 0.69300002 1.24240313e-38
0.15004572 0.02500762 0.69100004 1.242655223e-38
0.15312 0.025080001 0.69300002 1.261022743e-38
0.15531048 0.02500762 0.69100004 1.288573812e-38
0.1584 0.025080001 0.69300002 1.307085105e-38
0.16104001 0.025080001 0.69300002 1.362222976e-38
0.16368 0.025080001 0.69300002 1.38062665e-38
0.16632 0.025080001 0.69300002 1.35329096e-38
0.16847239 0.02500762 0.69100004 1.381020695e-38
0.17110477 0.02500762 0.69100004 1.399390176e-38
0.17424001 0.025080001 0.69300002 1.399386393e-38
0.17713524 0.02511619 0.69400001 1.408569242e-38
0.19544001 0.025260951 0.69800001 1.344828939e-38
0.19809905 0.025260951 0.69800001 1.354549466e-38
0.20047048 0.025224762 0.69700003 1.391248212e-38
0.20254287 0.025152382 0.69500005 1.446098116e-38
0.25595999 0.025731429 0.71100003 1.602220842e-38
0.25830477 0.02569524 0.71000004 1.491263647e-38
0.26100954 0.02569524 0.71000004 1.445271771e-38
0.26408571 0.025731429 0.71100003 1.371621765e-38
0.26641905 0.02569524 0.71000004 1.251732134e-38
0.26950285 0.025731429 0.71100003 1.288465492e-38
0.27182859 0.02569524 0.71000004 1.214852761e-38
0.27453333 0.02569524 0.71000004 1.279245088e-38
0.2772381 0.02569524 0.71000004 1.315943413e-38
0.27994287 0.02569524 0.71000004 1.269809725e-38
0.28264764 0.02569524 0.71000004 1.334202472e-38
0.28575429 0.025731429 0.71100003 1.324946756e-38
0.28846288 0.025731429 0.71100003 1.371150509e-38
0.29076192 0.02569524 0.71000004 1.3252315e-38
0.29388002 0.025731429 0.71100003 1.334306729e-38
0.29658857 0.025731429 0.71100003 1.333948136e-38
0.30013907 0.025803812 0.71300006 1.324873328e-38
0.30328003 0.025840001 0.71400005 1.425714268e-38
0.30600002 0.025840001 0.71400005 1.389122862e-38
0.30871999 0.025840001 0.71400005 1.361572354e-38
0.31231239 0.025912382 0.71600002 1.269810566e-38
0.31504002 0.025912382 0.71600002 1.324910462e-38
0.31821144 0.025948571 0.71700001 1.324979406e-38
0.32183811 0.026020955 0.71900004 1.288139129e-38
0.32593146 0.026129527 0.72200006 1.287888297e-38
0.32913718 0.026165716 0.72300005 1.306039316e-38
0.33280954 0.026238097 0.72500002 1.177434308e-38
0.33603427 0.026274286 0.72600001 1.214204801e-38
0.33973336 0.026346669 0.72800004 1.223425344e-38
0.34250668 0.026346669 0.72800004 1.223423943e-38
0.3457543 0.026382858 0.72900003 1.186723236e-38
0.34853142 0.026382858 0.72900003 1.214381925e-38
0.35275429 0.02649143 0.73200005 1.140555076e-38
0.3555429 0.02649143 0.73200005 1.112896947e-38
0.36028954 0.026636193 0.73600006 1.066730749e-38
0.36358669 0.026672384 0.73700005 1.030068717e-38
0.36788571 0.026780954 0.74000001 1.103427252e-38
0.37170669 0.026853334 0.74200004 1.039249324e-38
0.37503809 0.026889525 0.74300003 1.011665605e-38
0.37990287 0.027034286 0.74700004 9.474533446e-39
0.38428575 0.027142858 0.75000006 8.647624419e-39
0.38817525 0.027215241 0.75200003 9.565617846e-39
0.10337715 0.026171429 0.68700004 1.242545221e-38
0.10584001 0.026133336 0.68600005 1.168000067e-38
0.10861143 0.026171429 0.68700004 1.305898065e-38
0.11106668 0.026133336 0.68600005 1.370831433e-38
0.11368001 0.026133336 0.68600005 1.333953181e-38
0.11629334 0.026133336 0.68600005 1.333986672e-38
0.11908 0.026171429 0.68700004 1.333879193e-38
0.12169715 0.026171429 0.68700004 1.31547594e-38
0.12467619 0.026247621 0.68900001 1.297180167e-38
0.12748572 0.026285715 0.69000006 1.269665531e-38
0.13030286 0.02632381 0.69100004 1.270347543e-38
0.13293526 0.02632381 0.69100004 1.325521148e-38
0.13556762 0.02632381 0.69100004 1.316337318e-38
0.13820001 0.02632381 0.69100004 1.316048931e-38
0.14083239 0.02632381 0.69100004 1.297502185e-38
0.14346477 0.02632381 0.69100004 1.251512831e-38
0.14652 0.026400002 0.69300002 1.233110699e-38
0.14916001 0.026400002 0.69300002 1.196521255e-38
0.15136191 0.02632381 0.69100004 1.22435917e-38
0.15444 0.026400002 0.69300002 1.279316274e-38
0.15662667 0.02632381 0.69100004 1.270241045e-38
0.15972 0.026400002 0.69300002 1.306904758e-38
0.16236001 0.026400002 0.69300002 1.34367539e-38
0.16499999 0.026400002 0.69300002 1.325272838e-38
0.16764 0.026400002 0.69300002 1.306690219e-38
0.16978858 0.02632381 0.69100004 1.297542683e-38
0.17242096 0.02632381 0.69100004 1.334455687e-38
0.17556 0.026400002 0.69300002 1.362004934e-38
0.17819999 0.026400002 0.69300002 1.371117158e-38
0.18084 0.026400002 0.69300002 1.389592858e-38
0.18348001 0.026400002 0.69300002 1.408212611e-38
0.18612 0.026400002 0.69300002 1.426616424e-38
0.18903239 0.026438095 0.69400001 1.472569906e-38
0.19195239 0.026476193 0.69500005 1.399066476e-38
0.19516002 0.026552381 0.69700003 1.334889669e-38
0.19781524 0.026552381 0.69700003 1.335211968e-38
0.19960761 0.026438095 0.69400001 1.353328234e-38
0.20225142 0.026438095 0.69400001 1.444983944e-38
0.20489523 0.026438095 0.69400001 1.353541512e-38
0.25560001 0.027047621 0.71000004 1.537575861e-38
0.25830477 0.027047621 0.71000004 1.47303892e-38
0.26027429 0.026971428 0.708 1.426795791e-38
0.26371431 0.027047621 0.71000004 1.353145925e-38
0.26529333 0.026933333 0.70700002 1.205813125e-38
0.26836571 0.026971428 0.708 1.306795316e-38
0.27106285 0.026971428 0.708 1.28835535e-38
0.27337334 0.026933333 0.70700002 1.306687416e-38
0.2772381 0.027047621 0.71000004 1.334203453e-38
0.27994287 0.027047621 0.71000004 1.251478219e-38
0.28185144 0.026971428 0.708 1.334237224e-38
0.28535241 0.027047621 0.71000004 1.352461111e-38
0.28805715 0.027047621 0.71000004 1.407706742e-38
0.29076192 0.027047621 0.71000004 1.343528534e-38
0.29346669 0.027047621 0.71000004 1.343491259e-38
0.29617143 0.027047621 0.71000004 1.343060921e-38
0.29929715 0.027085714 0.71100003 1.361501027e-38
0.30285525 0.027161907 0.71300006 1.398343406e-38
0.30557147 0.027161907 0.71300006 1.38908769e-38
0.30871999 0.0272 0.71400005 1.361644801e-38
0.31231239 0.027276192 0.71600002 1.251549685e-38
0.31504002 0.027276192 0.71600002 1.324873047e-38
0.31776762 0.027276192 0.71600002 1.2881729e-38
0.32094285 0.027314285 0.71700001 1.260623373e-38
0.32502857 0.027428573 0.72000003 1.278668033e-38
0.32913718 0.027542859 0.72300005 1.278453214e-38
0.33189145 0.027542859 0.72300005 1.214168787e-38
0.33603427 0.027657144 0.72600001 1.23246386e-38
0.33973336 0.027733335 0.72800004 1.287565157e-38
0.34250668 0.027733335 0.72800004 1.223350935e-38
0.3457543 0.02777143 0.72900003 1.186615476e-38
0.34948763 0.027847618 0.73100001 1.232534485e-38
0.35275429 0.027885716 0.73200005 1.14048389e-38
0.3565143 0.027961904 0.73400003 1.103605357e-38
0.36028954 0.028038098 0.73600006 1.057509925e-38
0.36457333 0.028152382 0.73900002 9.842211742e-39
0.36788571 0.028190477 0.74000001 1.048361127e-38
0.37170669 0.028266668 0.74200004 1.020809918e-38
0.37604764 0.028380955 0.74500006 9.749297246e-39
0.37990287 0.028457144 0.74700004 9.106097047e-39
0.38428575 0.028571431 0.75000006 7.82002175e-39
0.38869143 0.028685715 0.75300002 8.831284201e-39
0.10192001 0.027440002 0.68600005 1.252015476e-38
0.10453334 0.027440002 0.68600005 1.195726999e-38
0.10714667 0.027440002 0.68600005 1.214025434e-38
0.10976001 0.027440002 0.68600005 1.297001781e-38
0.11237334 0.027440002 0.68600005 1.315908521e-38
0.11498667 0.027440002 0.68600005 1.306436023e-38
0.11760001 0.027440002 0.68600005 1.306435743e-38
0.12038857 0.027480002 0.68700004 1.297036674e-38
0.12336381 0.027559999 0.68900001 1.278669154e-38
0.12617144 0.027600003 0.69000006 1.251225565e-38
0.1288 0.027600003 0.69000006 1.251476957e-38
0.13142858 0.027600003 0.69000006 1.307081321e-38
0.13405715 0.027600003 0.69000006 1.334489458e-38
0.13688383 0.02764 0.69100004 1.297681271e-38
0.13951619 0.02764 0.69100004 1.279205431e-38
0.14214858 0.02764 0.69100004 1.260766866e-38
0.1452 0.027720001 0.69300002 1.233073705e-38
0.14741334 0.02764 0.69100004 1.196448527e-38
0.15004572 0.02764 0.69100004 1.196593001e-38
0.1526781 0.02764 0.69100004 1.260948614e-38
0.15531048 0.02764 0.69100004 1.270165515e-38
0.15794286 0.02764 0.69100004 1.261021622e-38
0.16057524 0.02764 0.69100004 1.30693923e-38
0.16320764 0.02764 0.69100004 1.31612376e-38
0.16584 0.02764 0.69100004 1.306761545e-38
0.16847239 0.02764 0.69100004 1.297325201e-38
0.17110477 0.02764 0.69100004 1.306545044e-38
0.17373715 0.02764 0.69100004 1.315906419e-38
0.17688 0.027720001 0.69300002 1.334309812e-38
0.17952 0.027720001 0.69300002 1.352606986e-38
0.18216 0.027720001 0.69300002 1.371261912e-38
0.18426667 0.02764 0.69100004 1.398955213e-38
0.18744001 0.027720001 0.69300002 1.435725845e-38
0.19035429 0.027760001 0.69400001 1.42647111e-38
0.19327621 0.027800001 0.69500005 1.371370653e-38
0.19648764 0.027880002 0.69700003 1.33470764e-38
0.19828571 0.027760001 0.69400001 1.334636594e-38
0.20092952 0.027760001 0.69400001 1.362115217e-38
0.20328 0.027720001 0.69300002 1.362329615e-38
0.20592 0.027720001 0.69300002 1.353324731e-38
0.20976382 0.027880002 0.69700003 1.390095644e-38
0.21180955 0.027800001 0.69500005 1.408534349e-38
0.25487998 0.02832 0.708 1.491513359e-38
0.25757712 0.02832 0.708 1.445666376e-38
0.25990668 0.028279999 0.70700002 1.41750336e-38
0.26297143 0.02832 0.708 1.371440157e-38
0.26454288 0.028200002 0.70500004 1.27928026e-38
0.2672286 0.028200002 0.70500004 1.315977605e-38
0.2699143 0.028200002 0.70500004 1.306828387e-38
0.2726 0.028200002 0.70500004 1.325197308e-38
0.27645713 0.02832 0.708 1.371189465e-38
0.27915427 0.02832 0.708 1.306650983e-38
0.28185144 0.02832 0.708 1.352639076e-38
0.28454858 0.02832 0.708 1.352281324e-38
0.28724572 0.02832 0.708 1.379978129e-38
0.28994286 0.02832 0.708 1.343386722e-38
0.29346669 0.028400002 0.71000004 1.352711663e-38
0.29533714 0.02832 0.708 1.370755903e-38
0.2988762 0.028400002 0.71000004 1.398164741e-38
0.30200574 0.02844 0.71100003 1.398343967e-38
0.30471429 0.02844 0.71100003 1.389016784e-38
0.30828765 0.028520003 0.71300006 1.361717388e-38
0.31144002 0.028560003 0.71400005 1.288354088e-38
0.31504002 0.02864 0.71600002 1.37993679e-38
0.31776762 0.02864 0.71600002 1.278917184e-38
0.32094285 0.02868 0.71700001 1.242291306e-38
0.32502857 0.028800001 0.72000003 1.223566035e-38
0.32868192 0.028880002 0.72200006 1.241683563e-38
0.33189145 0.02892 0.72300005 1.195873855e-38
0.33696002 0.029120002 0.72800004 1.232391553e-38
0.33879998 0.029039999 0.72600001 1.259977234e-38
0.34250668 0.029120002 0.72800004 1.214058505e-38
0.3457543 0.029160002 0.72900003 1.168212363e-38
0.34853142 0.029160002 0.72900003 1.167927479e-38
0.35275429 0.029280001 0.73200005 1.122081338e-38
0.3565143 0.02936 0.73400003 1.085166091e-38
0.36028954 0.029440003 0.73600006 1.05747279e-38
0.36457333 0.02956 0.73900002 1.002658478e-38
0.36888003 0.029680001 0.74200004 1.030029341e-38
0.37170669 0.029680001 0.74200004 9.931871022e-39
0.37604764 0.029800002 0.74500006 9.380862249e-39
0.38041142 0.029920001 0.74800003 8.920255443e-39
0.38428575 0.030000001 0.75000006 8.18448827e-39
0.38869143 0.03012 0.75300002 8.090136042e-39
0.098148577 0.028411429 0.67800003 1.288857155e-38
0.10192001 0.028746668 0.68600005 1.279639693e-38
0.10453334 0.028746668 0.68600005 1.195621481e-38
0.10714667 0.028746668 0.68600005 1.194905137e-38
0.10976001 0.028746668 0.68600005 1.260087796e-38
0.11237334 0.028746668 0.68600005 1.279173902e-38
0.11498667 0.028746668 0.68600005 1.287925291e-38
0.11760001 0.028746668 0.68600005 1.287995776e-38
0.12038857 0.028788572 0.68700004 1.269700704e-38
0.12336381 0.02887238 0.68900001 1.251081651e-38
0.12598856 0.02887238 0.68900001 1.232821751e-38
0.1288 0.028914288 0.69000006 1.233000977e-38
0.13142858 0.028914288 0.69000006 1.325446739e-38
0.13405715 0.028914288 0.69000006 1.352747256e-38
0.13668573 0.028914288 0.69000006 1.279277458e-38
0.13951619 0.028956192 0.69100004 1.260695119e-38
0.14214858 0.028956192 0.69100004 1.242400607e-38
0.14478095 0.028956192 0.69100004 1.223926449e-38
0.14741334 0.028956192 0.69100004 1.187229245e-38
0.15004572 0.028956192 0.69100004 1.187410292e-38
0.1526781 0.028956192 0.69100004 1.279244247e-38
0.15531048 0.028956192 0.69100004 1.270202789e-38
0.15794286 0.028956192 0.69100004 1.242582776e-38
0.16057524 0.028956192 0.69100004 1.297720087e-38
0.16320764 0.028956192 0.69100004 1.306903637e-38
0.16584 0.028956192 0.69100004 1.306724831e-38
0.16847239 0.028956192 0.69100004 1.297253034e-38
0.17110477 0.028956192 0.69100004 1.297433101e-38
0.17373715 0.028956192 0.69100004 1.28803249e-38
0.17636953 0.028956192 0.69100004 1.306220504e-38
0.17900191 0.028956192 0.69100004 1.334202752e-38
0.18163431 0.028956192 0.69100004 1.352714746e-38
0.18426667 0.028956192 0.69100004 1.389734949e-38
0.18689907 0.028956192 0.69100004 1.426398522e-38
0.19008 0.029039999 0.69300002 1.426506142e-38
0.19272 0.029039999 0.69300002 1.380409588e-38
0.19564191 0.029081903 0.69400001 1.343818603e-38
