# .PCD v0.7 - Point Cloud Data file format
VERSION 0.7
FIELDS x y z rgb
SIZE 4 4 4 4
TYPE F F F F
COUNT 1 1 1 1
WIDTH 951
HEIGHT 1
VIEWPOINT 0 0 0 1 0 0 0
POINTS 951
DATA ascii
0.19410285 -0.08234667 0.77200001 1.204735526e-38
0.19653335 -0.082133338 0.77000004 1.342560096e-38
0.19894856 -0.081919998 0.76800001 1.397806288e-38
0.20161143 -0.081813335 0.76700002 1.352464194e-38
0.20453334 -0.081813335 0.76700002 1.407638219e-38
0.20745523 -0.081813335 0.76700002 1.472030686e-38
0.21037716 -0.081813335 0.76700002 1.527203029e-38
0.21329905 -0.081813335 0.76700002 1.563866182e-38
0.21622096 -0.081813335 0.76700002 1.545714322e-38
0.21914285 -0.081813335 0.76700002 1.490686312e-38
0.22206476 -0.081813335 0.76700002 1.481757659e-38
0.24736002 -0.082453333 0.77300006 1.325563327e-38
0.24933335 -0.082133338 0.77000004 1.233296932e-38
0.25226668 -0.082133338 0.77000004 1.067667657e-38
0.15055239 -0.07961905 0.76000005 1.418051548e-38
0.15364952 -0.079723813 0.76100004 1.363164649e-38
0.15882857 -0.080142856 0.76500005 1.493246765e-38
0.16362667 -0.080352381 0.76700002 1.437963999e-38
0.16654858 -0.080352381 0.76700002 1.391650244e-38
0.18696001 -0.081609525 0.77900004 1.177826812e-38
0.18895239 -0.081190482 0.77500004 1.112322134e-38
0.19140953 -0.080980957 0.77300006 1.14012768e-38
0.19435431 -0.080980957 0.77300006 1.17711229e-38
0.19704382 -0.080876186 0.77200001 1.259798008e-38
0.19894856 -0.080457143 0.76800001 1.32433649e-38
0.20161143 -0.080352381 0.76700002 1.342849605e-38
0.20453334 -0.080352381 0.76700002 1.398275303e-38
0.20745523 -0.080352381 0.76700002 1.44429969e-38
0.21037716 -0.080352381 0.76700002 1.499617488e-38
0.21329905 -0.080352381 0.76700002 1.545606703e-38
0.21622096 -0.080352381 0.76700002 1.545749915e-38
0.21942858 -0.080457143 0.76800001 1.509268231e-38
0.22235428 -0.080457143 0.76800001 1.50926739e-38
0.22586668 -0.080666669 0.77000004 1.527740848e-38
0.22939429 -0.080876186 0.77200001 1.509337875e-38
0.23233524 -0.080876186 0.77200001 1.500263627e-38
0.23527619 -0.080876186 0.77200001 1.509553955e-38
0.23821715 -0.080876186 0.77200001 1.500370546e-38
0.2411581 -0.080876186 0.77200001 1.46367152e-38
0.24409907 -0.080876186 0.77200001 1.445268548e-38
0.24703999 -0.080876186 0.77200001 1.454275534e-38
0.24933335 -0.080666669 0.77000004 1.408177158e-38
0.25226668 -0.080666669 0.77000004 1.270023283e-38
0.15055239 -0.078171432 0.76000005 1.30676687e-38
0.15364952 -0.078274287 0.76100004 1.306731417e-38
0.15882857 -0.078685716 0.76500005 1.400077513e-38
0.16216572 -0.078891426 0.76700002 1.335360926e-38
0.16508763 -0.078891426 0.76700002 1.289117516e-38
0.16800952 -0.078891426 0.76700002 1.150717432e-38
0.17048572 -0.078685716 0.76500005 1.066988448e-38
0.1734 -0.078685716 0.76500005 1.076385976e-38
0.1857143 -0.080228575 0.78000003 1.113474702e-38
0.18796 -0.079920001 0.77700001 1.112430875e-38
0.19042858 -0.079714291 0.77500004 1.11236039e-38
0.19288191 -0.07950858 0.77300006 1.13094427e-38
0.19557333 -0.07940571 0.77200001 1.167929161e-38
0.19748572 -0.078994282 0.76800001 1.204770699e-38
0.20041144 -0.078994282 0.76800001 1.305934499e-38
0.20333713 -0.078994282 0.76800001 1.37954751e-38
0.20599429 -0.078891426 0.76700002 1.389054199e-38
0.20891619 -0.078891426 0.76700002 1.453519113e-38
0.2118381 -0.078891426 0.76700002 1.499760281e-38
0.21476001 -0.078891426 0.76700002 1.545713341e-38
0.21796571 -0.078994282 0.76800001 1.536674125e-38
0.22089143 -0.078994282 0.76800001 1.52774323e-38
0.22440001 -0.0792 0.77000004 1.564368968e-38
0.22792381 -0.07940571 0.77200001 1.592097582e-38
0.23086476 -0.07940571 0.77200001 1.637979737e-38
0.23380572 -0.07940571 0.77200001 1.582986479e-38
0.23674667 -0.07940571 0.77200001 1.656454876e-38
0.23968762 -0.07940571 0.77200001 1.555436111e-38
0.24294288 -0.07950858 0.77300006 1.527885322e-38
0.24556951 -0.07940571 0.77200001 1.537033839e-38
0.24851048 -0.07940571 0.77200001 1.628869195e-38
0.25080001 -0.0792 0.77000004 1.546644925e-38
0.13752382 -0.076723814 0.76000005 1.325414929e-38
0.14041905 -0.076723814 0.76000005 1.307119156e-38
0.14350286 -0.076824762 0.76100004 1.3805521e-38
0.14582476 -0.076521903 0.75800002 1.371296944e-38
0.14910477 -0.076723814 0.76000005 1.362077662e-38
0.15220001 -0.076824762 0.76100004 1.398956194e-38
0.15550666 -0.077026665 0.76300001 1.371192127e-38
0.15882857 -0.077228576 0.76500005 1.435836688e-38
0.16216572 -0.077430479 0.76700002 1.398526976e-38
0.16508763 -0.077430479 0.76700002 1.380514966e-38
0.16800952 -0.077430479 0.76700002 1.316048651e-38
0.17048572 -0.077228576 0.76500005 1.269878529e-38
0.1734 -0.077228576 0.76500005 1.21466807e-38
0.17746668 -0.077733338 0.77000004 1.140697447e-38
0.18086857 -0.077935241 0.77200001 1.104322122e-38
0.1857143 -0.078742854 0.78000003 1.141272681e-38
0.18796 -0.078439996 0.77700001 1.10306908e-38
0.19042858 -0.078238092 0.77500004 1.121831486e-38
0.19288191 -0.078036197 0.77300006 1.112613605e-38
0.19557333 -0.077935241 0.77200001 1.149348504e-38
0.19800001 -0.077733338 0.77000004 1.204843426e-38
0.20041144 -0.077531427 0.76800001 1.287495373e-38
0.20333713 -0.077531427 0.76800001 1.379510515e-38
0.20599429 -0.077430479 0.76700002 1.379833795e-38
0.20891619 -0.077430479 0.76700002 1.434792721e-38
0.2118381 -0.077430479 0.76700002 1.472388437e-38
0.21476001 -0.077430479 0.76700002 1.518161992e-38
0.21796571 -0.077531427 0.76800001 1.508979423e-38
0.22089143 -0.077531427 0.76800001 1.518309268e-38
0.22381714 -0.077531427 0.76800001 1.546002709e-38
0.22733334 -0.077733338 0.77000004 1.592061849e-38
0.23086476 -0.077935241 0.77200001 1.656346556e-38
0.23380572 -0.077935241 0.77200001 1.582914312e-38
0.23674667 -0.077935241 0.77200001 1.610429508e-38
0.23968762 -0.077935241 0.77200001 1.555329051e-38
0.24262857 -0.077935241 0.77200001 1.536926219e-38
0.24556951 -0.077935241 0.77200001 1.536675246e-38
0.24851048 -0.077935241 0.77200001 1.592313662e-38
0.25014856 -0.077531427 0.76800001 1.555541628e-38
0.25274476 -0.077430479 0.76700002 1.518806449e-38
0.1360762 -0.075276196 0.76000005 1.545891026e-38
0.13897143 -0.075276196 0.76000005 1.398452988e-38
0.14186667 -0.075276196 0.76000005 1.426433835e-38
0.14438096 -0.075078093 0.75800002 1.435509625e-38
0.14726858 -0.075078093 0.75800002 1.435474312e-38
0.15055239 -0.075276196 0.76000005 1.453876584e-38
0.15364952 -0.075375244 0.76100004 1.463169295e-38
0.15696 -0.07557334 0.76300001 1.463135243e-38
0.16028571 -0.075771436 0.76500005 1.472212294e-38
0.16362667 -0.075969525 0.76700002 1.472496618e-38
0.16654858 -0.075969525 0.76700002 1.481821838e-38
0.16902858 -0.075771436 0.76500005 1.472637028e-38
0.17239238 -0.075969525 0.76700002 1.41731951e-38
0.176 -0.076266669 0.77000004 1.307189922e-38
0.17939809 -0.076464765 0.77200001 1.25183583e-38
0.1839924 -0.077158101 0.77900004 1.215028484e-38
0.18696001 -0.077158101 0.77900004 1.132125144e-38
0.18944 -0.076959997 0.77700001 1.121470932e-38
0.19190477 -0.076761909 0.77500004 1.112073544e-38
0.19435431 -0.076563813 0.77300006 1.112433818e-38
0.19704382 -0.076464765 0.77200001 1.167893708e-38
0.19946668 -0.076266669 0.77000004 1.232501134e-38
0.20187429 -0.076068573 0.76800001 1.324265304e-38
0.20480001 -0.076068573 0.76800001 1.37979638e-38
0.20745523 -0.075969525 0.76700002 1.398198652e-38
0.21037716 -0.075969525 0.76700002 1.435078866e-38
0.21329905 -0.075969525 0.76700002 1.47220823e-38
0.21650286 -0.076068573 0.76800001 1.490324217e-38
0.21942858 -0.076068573 0.76800001 1.499795874e-38
0.22235428 -0.076068573 0.76800001 1.518273115e-38
0.22528 -0.076068573 0.76800001 1.56440358e-38
0.2288 -0.076266669 0.77000004 1.637871697e-38
0.23173334 -0.076266669 0.77000004 1.628867934e-38
0.23466668 -0.076266669 0.77000004 1.57358741e-38
0.23760001 -0.076266669 0.77000004 1.564332394e-38
0.2411581 -0.076464765 0.77200001 1.555221712e-38
0.24346668 -0.076266669 0.77000004 1.545965995e-38
0.2464 -0.076266669 0.77000004 1.546039844e-38
0.24933335 -0.076266669 0.77000004 1.555614916e-38
0.25128379 -0.075969525 0.76700002 1.592204921e-38
0.25354287 -0.075771436 0.76500005 1.592457155e-38
0.25578666 -0.07557334 0.76300001 1.454485448e-38
0.13571809 -0.073634289 0.75800002 1.435435496e-38
0.13860573 -0.073634289 0.75800002 1.398346629e-38
0.14149334 -0.073634289 0.75800002 1.453697218e-38
0.14438096 -0.073634289 0.75800002 1.472136064e-38
0.14726858 -0.073634289 0.75800002 1.453662045e-38
0.15055239 -0.073828578 0.76000005 1.462844334e-38
0.15344763 -0.073828578 0.76000005 1.472136764e-38
0.15654857 -0.073925719 0.76100004 1.481250389e-38
0.15986666 -0.07412 0.76300001 1.490507647e-38
0.16320002 -0.074314289 0.76500005 1.499904474e-38
0.1661143 -0.074314289 0.76500005 1.500084401e-38
0.16947047 -0.07450857 0.76700002 1.490933922e-38
0.17239238 -0.07450857 0.76700002 1.454128958e-38
0.176 -0.0748 0.77000004 1.38981076e-38
0.17939809 -0.074994288 0.77200001 1.352929845e-38
0.18257524 -0.075091437 0.77300006 1.334380157e-38
0.186 -0.075285718 0.77500004 1.306683493e-38
0.18895239 -0.075285718 0.77500004 1.241070775e-38
0.19140953 -0.075091437 0.77300006 1.102781674e-38
0.19435431 -0.075091437 0.77300006 1.057295246e-38
0.19704382 -0.074994288 0.77200001 1.121831766e-38
0.19998477 -0.074994288 0.77200001 1.177041104e-38
0.2024 -0.0748 0.77000004 1.259836544e-38
0.20533334 -0.0748 0.77000004 1.324622355e-38
0.20772572 -0.074605711 0.76800001 1.361425918e-38
0.21065143 -0.074605711 0.76800001 1.416674212e-38
0.21329905 -0.07450857 0.76700002 1.453661204e-38
0.21650286 -0.074605711 0.76800001 1.472100891e-38
0.21942858 -0.074605711 0.76800001 1.472172217e-38
0.22235428 -0.074605711 0.76800001 1.499868461e-38
0.22528 -0.074605711 0.76800001 1.545928721e-38
0.2288 -0.0748 0.77000004 1.564331413e-38
0.23173334 -0.0748 0.77000004 1.564296241e-38
0.23466668 -0.0748 0.77000004 1.555112691e-38
0.23760001 -0.0748 0.77000004 1.555076958e-38
0.24053334 -0.0748 0.77000004 1.536746573e-38
0.24346668 -0.0748 0.77000004 1.527599176e-38
0.2464 -0.0748 0.77000004 1.509522146e-38
0.24933335 -0.0748 0.77000004 1.491403077e-38
0.25128379 -0.07450857 0.76700002 1.509518363e-38
0.25354287 -0.074314289 0.76500005 1.527888825e-38
0.25712761 -0.07450857 0.76700002 1.454451116e-38
0.26004952 -0.07450857 0.76700002 1.362471847e-38
0.13427429 -0.072190478 0.75800002 1.269453375e-38
0.13716191 -0.072190478 0.75800002 1.379726455e-38
0.14004952 -0.072190478 0.75800002 1.435007259e-38
0.14293714 -0.072190478 0.75800002 1.554536477e-38
0.14544 -0.072000004 0.75600004 1.471956557e-38
0.14871238 -0.072190478 0.75800002 1.471956697e-38
0.1516 -0.072190478 0.75800002 1.4811764e-38
0.15489525 -0.07238096 0.76000005 1.499580214e-38
0.15841334 -0.072666667 0.76300001 1.508765305e-38
0.16174287 -0.072857149 0.76500005 1.518092347e-38
0.16465716 -0.072857149 0.76500005 1.536638252e-38
0.16757144 -0.072857149 0.76500005 1.509157668e-38
0.17048572 -0.072857149 0.76500005 1.518268771e-38
0.17385334 -0.073047623 0.76700002 1.472317251e-38
0.17700571 -0.073142856 0.76800001 1.472389979e-38
0.18040001 -0.073333338 0.77000004 1.426398522e-38
0.18380952 -0.073523812 0.77200001 1.499648317e-38
0.18675047 -0.073523812 0.77200001 1.453297848e-38
0.18993716 -0.073619053 0.77300006 1.268263392e-38
0.19288191 -0.073619053 0.77300006 9.28364997e-39
0.19582668 -0.073619053 0.77300006 1.07573269e-38
0.19851428 -0.073523812 0.77200001 1.075805137e-38
0.20145524 -0.073523812 0.77200001 1.158709037e-38
0.20386668 -0.073333338 0.77000004 1.232178695e-38
0.20680001 -0.073333338 0.77000004 1.296857027e-38
0.20918857 -0.073142856 0.76800001 1.361464033e-38
0.21211429 -0.073142856 0.76800001 1.435113338e-38
0.21504 -0.073142856 0.76800001 1.444440941e-38
0.21796571 -0.073142856 0.76800001 1.462844614e-38
0.22089143 -0.073142856 0.76800001 1.453769805e-38
0.22440001 -0.073333338 0.77000004 1.518234579e-38
0.22674286 -0.073142856 0.76800001 1.545856554e-38
0.22966857 -0.073142856 0.76800001 1.454056931e-38
0.23259428 -0.073142856 0.76800001 1.536708457e-38
0.23552001 -0.073142856 0.76800001 1.555039964e-38
0.23844571 -0.073142856 0.76800001 1.536637832e-38
0.242 -0.073333338 0.77000004 1.518378773e-38
0.24429713 -0.073142856 0.76800001 1.491080638e-38
0.24722287 -0.073142856 0.76800001 1.445235057e-38
0.24982285 -0.073047623 0.76700002 1.417576087e-38
0.25274476 -0.073047623 0.76700002 1.463530409e-38
0.25500003 -0.072857149 0.76500005 1.463601175e-38
0.2579143 -0.072857149 0.76500005 1.463707113e-38
0.26082858 -0.072857149 0.76500005 1.491364541e-38
0.13138667 -0.070746668 0.75800002 1.426329298e-38
0.13427429 -0.070746668 0.75800002 1.269126592e-38
0.13716191 -0.070746668 0.75800002 1.361216143e-38
0.14004952 -0.070746668 0.75800002 1.434970686e-38
0.14293714 -0.070746668 0.75800002 1.517765985e-38
0.14582476 -0.070746668 0.75800002 1.462628954e-38
0.14871238 -0.070746668 0.75800002 1.462486302e-38
0.1516 -0.070746668 0.75800002 1.481105074e-38
0.15489525 -0.070933335 0.76000005 1.499472174e-38
0.1579981 -0.071026668 0.76100004 1.517948014e-38
0.16174287 -0.071400002 0.76500005 1.518055633e-38
0.16465716 -0.071400002 0.76500005 1.573300004e-38
0.16757144 -0.071400002 0.76500005 1.536671183e-38
0.17048572 -0.071400002 0.76500005 1.573189721e-38
0.1734 -0.071400002 0.76500005 1.509050749e-38
0.17700571 -0.071680002 0.76800001 1.490757779e-38
0.18040001 -0.071866669 0.77000004 1.490685472e-38
0.18380952 -0.072053328 0.77200001 1.527200367e-38
0.18675047 -0.072053328 0.77200001 1.518121634e-38
0.18993716 -0.072146669 0.77300006 1.434463696e-38
0.19288191 -0.072146669 0.77300006 1.14858956e-38
0.19582668 -0.072146669 0.77300006 1.029813401e-38
0.19851428 -0.072053328 0.77200001 9.564533241e-39
0.20145524 -0.072053328 0.77200001 1.122010011e-38
0.20439619 -0.072053328 0.77200001 1.204593434e-38
0.20680001 -0.071866669 0.77000004 1.260124791e-38
0.20973335 -0.071866669 0.77000004 1.333627099e-38
0.21211429 -0.071680002 0.76800001 1.416458832e-38
0.21504 -0.071680002 0.76800001 1.425929228e-38
0.21796571 -0.071680002 0.76800001 1.453516731e-38
0.22089143 -0.071680002 0.76800001 1.453482539e-38
0.22440001 -0.071866669 0.77000004 1.508763763e-38
0.22674286 -0.071680002 0.76800001 1.564008134e-38
0.22966857 -0.071680002 0.76800001 1.490754696e-38
0.23259428 -0.071680002 0.76800001 1.527487913e-38
0.23552001 -0.071680002 0.76800001 1.53663587e-38
0.23844571 -0.071680002 0.76800001 1.499831326e-38
0.24137142 -0.071680002 0.76800001 1.472460324e-38
0.24429713 -0.071680002 0.76800001 1.436121852e-38
0.24690095 -0.071586668 0.76700002 1.398706903e-38
0.24982285 -0.071586668 0.76700002 1.389739153e-38
0.25274476 -0.071586668 0.76700002 1.435872001e-38
0.25500003 -0.071400002 0.76500005 1.454381612e-38
0.25858858 -0.071586668 0.76700002 1.482003447e-38
0.26082858 -0.071400002 0.76500005 1.491257622e-38
0.26374286 -0.071400002 0.76500005 1.454698866e-38
0.26665717 -0.071400002 0.76500005 1.261053992e-38
0.13028571 -0.069485717 0.76000005 1.196635881e-38
0.13283047 -0.069302864 0.75800002 1.232500153e-38
0.13571809 -0.069302864 0.75800002 1.306222465e-38
0.13860573 -0.069302864 0.75800002 1.388982873e-38
0.14149334 -0.069302864 0.75800002 1.462521054e-38
0.14438096 -0.069302864 0.75800002 1.47163538e-38
0.14726858 -0.069302864 0.75800002 1.453481138e-38
0.14976001 -0.069120005 0.75600004 1.462487843e-38
0.15304381 -0.069302864 0.75800002 1.490072544e-38
0.15634286 -0.069485717 0.76000005 1.517947033e-38
0.15944763 -0.069577143 0.76100004 1.527274496e-38
0.16277334 -0.069760002 0.76300001 1.564115893e-38
0.1661143 -0.069942862 0.76500005 1.591738149e-38
0.16902858 -0.069942862 0.76500005 1.600706599e-38
0.17194286 -0.069942862 0.76500005 1.591702696e-38
0.17531429 -0.070125714 0.76700002 1.527310649e-38
0.17893334 -0.070400007 0.77000004 1.52752785e-38
0.18186668 -0.070400007 0.77000004 1.554932344e-38
0.1848 -0.070400007 0.77000004 1.564042325e-38
0.18822095 -0.070582859 0.77200001 1.591554999e-38
0.19140953 -0.070674293 0.77300006 1.489600727e-38
0.19435431 -0.070674293 0.77300006 1.185287886e-38
0.19729906 -0.070674293 0.77300006 9.19073127e-39
0.19998477 -0.070582859 0.77200001 9.657454743e-39
0.20292571 -0.070582859 0.77200001 1.131158529e-38
0.20533334 -0.070400007 0.77000004 1.204701054e-38
0.20826668 -0.070400007 0.77000004 1.269305257e-38
0.21120001 -0.070400007 0.77000004 1.361213761e-38
0.21357714 -0.07021714 0.76800001 1.407565071e-38
0.21706668 -0.070400007 0.77000004 1.425715109e-38
0.21942858 -0.07021714 0.76800001 1.453374078e-38
0.22293335 -0.070400007 0.77000004 1.4811764e-38
0.22586668 -0.070400007 0.77000004 1.536493218e-38
0.22820571 -0.07021714 0.76800001 1.55478829e-38
0.23113143 -0.07021714 0.76800001 1.527452601e-38
0.23405714 -0.07021714 0.76800001 1.518160871e-38
0.23667429 -0.070125714 0.76700002 1.490613445e-38
0.23990858 -0.07021714 0.76800001 1.444692334e-38
0.2425181 -0.070125714 0.76700002 1.40799555e-38
0.24544001 -0.070125714 0.76700002 1.370939473e-38
0.2477143 -0.069942862 0.76500005 1.361972284e-38
0.25062856 -0.069942862 0.76500005 1.389774466e-38
0.25354287 -0.069942862 0.76500005 1.435872982e-38
0.25712761 -0.070125714 0.76700002 1.472748151e-38
0.26004952 -0.070125714 0.76700002 1.49122315e-38
0.26228574 -0.069942862 0.76500005 1.482074493e-38
0.26589334 -0.070125714 0.76700002 1.491399714e-38
0.2681143 -0.069942862 0.76500005 1.389841028e-38
0.13028571 -0.068038099 0.76000005 1.150496868e-38
0.13248 -0.067680001 0.75600004 1.186585348e-38
0.13571809 -0.067859046 0.75800002 1.278528464e-38
0.13860573 -0.067859046 0.75800002 1.361361318e-38
0.14112 -0.067680001 0.75600004 1.42571595e-38
0.14438096 -0.067859046 0.75800002 1.453233949e-38
0.14726858 -0.067859046 0.75800002 1.462629234e-38
0.15015619 -0.067859046 0.75800002 1.480998576e-38
0.15304381 -0.067859046 0.75800002 1.490287783e-38
0.15634286 -0.068038099 0.76000005 1.481355486e-38
0.15944763 -0.068127625 0.76100004 1.490611203e-38
0.16277334 -0.06830667 0.76300001 1.527345121e-38
0.1661143 -0.068485714 0.76500005 1.55500339e-38
0.16902858 -0.068485714 0.76500005 1.573195747e-38
0.17194286 -0.068485714 0.76500005 1.573228677e-38
0.17531429 -0.068664759 0.76700002 1.536529792e-38
0.17846857 -0.068754286 0.76800001 1.57337203e-38
0.18186668 -0.068933338 0.77000004 1.600886386e-38
0.1848 -0.068933338 0.77000004 1.609961755e-38
0.18822095 -0.069112383 0.77200001 1.619215369e-38
0.19140953 -0.069201909 0.77300006 1.545598995e-38
0.19435431 -0.069201909 0.77300006 1.37972085e-38
0.19729906 -0.069201909 0.77300006 1.094099089e-38
0.20024382 -0.069201909 0.77300006 9.742478528e-39
0.20292571 -0.069112383 0.77200001 1.084810161e-38
0.20586666 -0.069112383 0.77200001 1.167785388e-38
0.20880762 -0.069112383 0.77200001 1.241861808e-38
0.21120001 -0.068933338 0.77000004 1.333698425e-38
0.21413334 -0.068933338 0.77000004 1.37043949e-38
0.21706668 -0.068933338 0.77000004 1.388766792e-38
0.22000001 -0.068933338 0.77000004 1.425859163e-38
0.22293335 -0.068933338 0.77000004 1.444512968e-38
0.22586668 -0.068933338 0.77000004 1.49046757e-38
0.22820571 -0.068754286 0.76800001 1.527201628e-38
0.23113143 -0.068754286 0.76800001 1.52745218e-38
0.23375238 -0.068664759 0.76700002 1.508942569e-38
0.23698285 -0.068754286 0.76800001 1.453880648e-38
0.23959619 -0.068664759 0.76700002 1.389481875e-38
0.2425181 -0.068664759 0.76700002 1.352498526e-38
0.2448 -0.068485714 0.76500005 1.334060661e-38
0.2477143 -0.068485714 0.76500005 1.352680274e-38
0.24997334 -0.06830667 0.76300001 1.389738032e-38
0.25288001 -0.06830667 0.76300001 1.435802356e-38
0.25712761 -0.068664759 0.76700002 1.481860374e-38
0.26004952 -0.068664759 0.76700002 1.509518643e-38
0.26297143 -0.068664759 0.76700002 1.5004074e-38
0.26589334 -0.068664759 0.76700002 1.500480828e-38
0.26741332 -0.06830667 0.76300001 1.436154082e-38
0.27032 -0.06830667 0.76300001 1.288784427e-38
0.13104001 -0.066239998 0.75600004 1.076489111e-38
0.13392001 -0.066239998 0.75600004 1.214098722e-38
0.13680001 -0.066239998 0.75600004 1.287604534e-38
0.13968 -0.066239998 0.75600004 1.370686399e-38
0.14293714 -0.066415235 0.75800002 1.416460654e-38
0.14582476 -0.066415235 0.75800002 1.453337785e-38
0.14871238 -0.066415235 0.75800002 1.480996053e-38
0.1516 -0.066415235 0.75800002 1.508762782e-38
0.15448762 -0.066415235 0.75800002 1.462988667e-38
0.15779048 -0.066590481 0.76000005 1.444729889e-38
0.16089714 -0.066678092 0.76100004 1.463061815e-38
0.16422667 -0.06685333 0.76300001 1.527274636e-38
0.16757144 -0.067028575 0.76500005 1.518199266e-38
0.17048572 -0.067028575 0.76500005 1.564045828e-38
0.17385334 -0.067203812 0.76700002 1.545713622e-38
0.17700571 -0.067291424 0.76800001 1.554968497e-38
0.17993143 -0.067291424 0.76800001 1.701941445e-38
0.18333335 -0.067466669 0.77000004 1.619217752e-38
0.18626668 -0.067466669 0.77000004 1.692649154e-38
0.18969144 -0.067641906 0.77200001 1.610138739e-38
0.19263239 -0.067641906 0.77200001 1.610029157e-38
0.19582668 -0.067729525 0.77300006 1.545134185e-38
0.19877145 -0.067729525 0.77300006 9.92865364e-39
0.2017162 -0.067729525 0.77300006 1.001259562e-38
0.20466097 -0.067729525 0.77300006 1.084450308e-38
0.20733716 -0.067641906 0.77200001 1.167783846e-38
0.21027809 -0.067641906 0.77200001 1.250937598e-38
0.21321905 -0.067641906 0.77200001 1.360998942e-38
0.21616 -0.067641906 0.77200001 1.315118889e-38
0.21853334 -0.067466669 0.77000004 1.388658332e-38
0.22146668 -0.067466669 0.77000004 1.407383883e-38
0.22440001 -0.067466669 0.77000004 1.435042292e-38
0.22674286 -0.067291424 0.76800001 1.462880207e-38
0.22966857 -0.067291424 0.76800001 1.554858215e-38
0.23229143 -0.067203812 0.76700002 1.518087723e-38
0.23521332 -0.067203812 0.76700002 1.490610222e-38
0.23813525 -0.067203812 0.76700002 1.352533838e-38
0.24105714 -0.067203812 0.76700002 1.30629225e-38
0.24334286 -0.067028575 0.76500005 1.288106059e-38
0.24625714 -0.067028575 0.76500005 1.306510432e-38
0.24852002 -0.06685333 0.76300001 1.398705221e-38
0.25142667 -0.06685333 0.76300001 1.398921862e-38
0.25433335 -0.06685333 0.76300001 1.472498159e-38
0.25858858 -0.067203812 0.76700002 1.518522966e-38
0.26082858 -0.067028575 0.76500005 1.527707637e-38
0.26374286 -0.067028575 0.76500005 1.527780224e-38
0.26595998 -0.06685333 0.76300001 1.50029922e-38
0.26886666 -0.06685333 0.76300001 1.472781081e-38
0.2731981 -0.067203812 0.76700002 1.444870579e-38
0.13104001 -0.064800002 0.75600004 1.177471163e-38
0.13392001 -0.064800002 0.75600004 1.195658475e-38
0.13680001 -0.064800002 0.75600004 1.22313962e-38
0.13968 -0.064800002 0.75600004 1.324229711e-38
0.14293714 -0.064971432 0.75800002 1.361250055e-38
0.14582476 -0.064971432 0.75800002 1.324371663e-38
0.14871238 -0.064971432 0.75800002 1.370863803e-38
0.1516 -0.064971432 0.75800002 1.416352754e-38
0.15489525 -0.065142855 0.76000005 1.407385565e-38
0.15779048 -0.065142855 0.76000005 1.416713728e-38
0.16089714 -0.065228574 0.76100004 1.426221538e-38
0.16422667 -0.065399997 0.76300001 1.481358289e-38
0.16757144 -0.065571435 0.76500005 1.490827423e-38
0.17048572 -0.065571435 0.76500005 1.527454562e-38
0.17385334 -0.065742858 0.76700002 1.518306606e-38
0.17677523 -0.065742858 0.76700002 1.527632808e-38
0.17993143 -0.065828577 0.76800001 1.63780023e-38
0.18333335 -0.066 0.77000004 1.610070496e-38
0.18626668 -0.066 0.77000004 1.646947066e-38
0.18969144 -0.06617143 0.77200001 1.6102479e-38
0.19263239 -0.06617143 0.77200001 1.637617781e-38
0.19582668 -0.066257149 0.77300006 1.582622982e-38
0.19877145 -0.066257149 0.77300006 1.241251683e-38
0.2017162 -0.066257149 0.77300006 1.203332406e-38
0.20466097 -0.066257149 0.77300006 1.203332967e-38
0.20733716 -0.06617143 0.77200001 1.075660944e-38
0.21027809 -0.06617143 0.77200001 1.158671062e-38
0.21321905 -0.06617143 0.77200001 1.176859356e-38
0.21616 -0.06617143 0.77200001 1.241182038e-38
0.21910095 -0.06617143 0.77200001 1.26001633e-38
0.22146668 -0.066 0.77000004 1.269415119e-38
0.22498286 -0.06617143 0.77200001 1.306149318e-38
0.22733334 -0.066 0.77000004 1.361932347e-38
0.23026668 -0.066 0.77000004 1.380512864e-38
0.23259428 -0.065828577 0.76800001 1.361965278e-38
0.23552001 -0.065828577 0.76800001 1.32533954e-38
0.23844571 -0.065828577 0.76800001 1.241683703e-38
0.24105714 -0.065742858 0.76700002 1.269557631e-38
0.24397905 -0.065742858 0.76700002 1.278886075e-38
0.24625714 -0.065571435 0.76500005 1.324877251e-38
0.24852002 -0.065399997 0.76300001 1.435402846e-38
0.25076762 -0.065228574 0.76100004 1.371298346e-38
0.25366667 -0.065228574 0.76100004 1.472353965e-38
0.25724 -0.065399997 0.76300001 1.518487373e-38
0.26014665 -0.065399997 0.76300001 1.546039984e-38
0.26305333 -0.065399997 0.76300001 1.555224094e-38
0.26595998 -0.065399997 0.76300001 1.601283233e-38
0.26957145 -0.065571435 0.76500005 1.454308044e-38
0.2731981 -0.065742858 0.76700002 1.454593628e-38
0.27648002 -0.065828577 0.76800001 1.232754069e-38
0.13230477 -0.063276194 0.75500005 1.232284213e-38
0.13518097 -0.063276194 0.75500005 1.167823783e-38
0.13805714 -0.063276194 0.75500005 1.222637534e-38
0.14093335 -0.063276194 0.75500005 1.296281794e-38
0.14400001 -0.063359998 0.75600004 1.250545094e-38
0.14726858 -0.063527621 0.75800002 1.232282952e-38
0.15015619 -0.063527621 0.75800002 1.296535009e-38
0.15344763 -0.063695244 0.76000005 1.342738342e-38
0.15634286 -0.063695244 0.76000005 1.370507453e-38
0.15944763 -0.063779049 0.76100004 1.389233985e-38
0.16277334 -0.063946664 0.76300001 1.417037008e-38
0.1661143 -0.064114295 0.76500005 1.444692754e-38
0.16902858 -0.064114295 0.76500005 1.47253123e-38
0.17194286 -0.064114295 0.76500005 1.491005949e-38
0.17531429 -0.064281903 0.76700002 1.499938105e-38
0.17846857 -0.064365715 0.76800001 1.53685209e-38
0.18186668 -0.064533338 0.77000004 1.582627186e-38
0.1848 -0.064533338 0.77000004 1.601137218e-38
0.18822095 -0.064700954 0.77200001 1.610212307e-38
0.1911619 -0.064700954 0.77200001 1.637763657e-38
0.19410285 -0.064700954 0.77200001 1.637689528e-38
0.19729906 -0.064784765 0.77300006 1.554893388e-38
0.2007619 -0.064952381 0.77500004 1.444404087e-38
0.20318858 -0.064784765 0.77300006 1.370467796e-38
0.20613335 -0.064784765 0.77300006 1.158207092e-38
0.2090781 -0.064784765 0.77300006 1.029457471e-38
0.21202287 -0.064784765 0.77300006 1.029312436e-38
0.21468954 -0.064700954 0.77200001 1.084414014e-38
0.21763048 -0.064700954 0.77200001 1.149201367e-38
0.22057143 -0.064700954 0.77200001 1.131265448e-38
0.22351238 -0.064700954 0.77200001 1.158923856e-38
0.22645333 -0.064700954 0.77200001 1.223028917e-38
0.2288 -0.064533338 0.77000004 1.2327877e-38
0.23173334 -0.064533338 0.77000004 1.204444757e-38
0.23405714 -0.064365715 0.76800001 1.186438071e-38
0.23698285 -0.064365715 0.76800001 1.149955686e-38
0.23959619 -0.064281903 0.76700002 1.177506615e-38
0.2425181 -0.064281903 0.76700002 1.251513111e-38
0.2448 -0.064114295 0.76500005 1.315586082e-38
0.24706668 -0.063946664 0.76300001 1.416748761e-38
0.24931812 -0.063779049 0.76100004 1.407673672e-38
0.25221714 -0.063779049 0.76100004 1.407997512e-38
0.25578666 -0.063946664 0.76300001 1.490792531e-38
0.25869331 -0.063946664 0.76300001 1.536926499e-38
0.26159999 -0.063946664 0.76300001 1.573590633e-38
0.26450667 -0.063946664 0.76300001 1.647201682e-38
0.26741332 -0.063946664 0.76300001 1.57369573e-38
0.27102858 -0.064114295 0.76500005 1.454307623e-38
0.27501714 -0.064365715 0.76800001 1.463670259e-38
0.12891428 -0.061592385 0.75200003 1.362078082e-38
0.13195428 -0.061674289 0.75300002 1.352640057e-38
0.13482286 -0.061674289 0.75300002 1.305936601e-38
0.13769144 -0.061674289 0.75300002 1.323800073e-38
0.14093335 -0.061838102 0.75500005 1.342126114e-38
0.14400001 -0.061920006 0.75600004 1.314973014e-38
0.14688002 -0.061920006 0.75600004 1.278378945e-38
0.15015619 -0.062083811 0.75800002 1.315116507e-38
0.15344763 -0.062247619 0.76000005 1.315220763e-38
0.15634286 -0.062247619 0.76000005 1.306185471e-38
0.15944763 -0.062329531 0.76100004 1.324661171e-38
0.16320002 -0.06265714 0.76500005 1.361503129e-38
0.1661143 -0.06265714 0.76500005 1.416925465e-38
0.16902858 -0.06265714 0.76500005 1.444943727e-38
0.17239238 -0.062820949 0.76700002 1.463310125e-38
0.17531429 -0.062820949 0.76700002 1.463167333e-38
0.17846857 -0.06290286 0.76800001 1.509050329e-38
0.18139429 -0.06290286 0.76800001 1.55500395e-38
0.18431999 -0.06290286 0.76800001 1.573478669e-38
0.18773334 -0.063066669 0.77000004 1.591845348e-38
0.1911619 -0.063230477 0.77200001 1.619290199e-38
0.19410285 -0.063230477 0.77200001 1.610068254e-38
0.19729906 -0.063312382 0.77300006 1.545494879e-38
0.20024382 -0.063312382 0.77300006 1.490325618e-38
0.20318858 -0.063312382 0.77300006 1.472026762e-38
0.20613335 -0.063312382 0.77300006 1.37943989e-38
0.2090781 -0.063312382 0.77300006 1.305251786e-38
0.21202287 -0.063312382 0.77300006 1.277807776e-38
0.21496764 -0.063312382 0.77300006 1.268406324e-38
0.21791239 -0.063312382 0.77300006 1.186041224e-38
0.22085716 -0.063312382 0.77300006 1.085237838e-38
0.22380193 -0.063312382 0.77300006 1.131013214e-38
0.22645333 -0.063230477 0.77200001 1.204193084e-38
0.2288 -0.063066669 0.77000004 1.19504821e-38
0.23173334 -0.063066669 0.77000004 1.176857674e-38
0.23405714 -0.06290286 0.76800001 1.15852869e-38
0.23698285 -0.06290286 0.76800001 1.094495796e-38
0.23959619 -0.062820949 0.76700002 1.140736404e-38
0.24188572 -0.06265714 0.76500005 1.251548704e-38
0.2448 -0.06265714 0.76500005 1.315693842e-38
0.24609526 -0.062247619 0.76000005 1.398345928e-38
0.24899048 -0.062247619 0.76000005 1.416929668e-38
0.25188571 -0.062247619 0.76000005 1.435548301e-38
0.25578666 -0.062493335 0.76300001 1.509123757e-38
0.25869331 -0.062493335 0.76300001 1.555185839e-38
0.2609143 -0.062329531 0.76100004 1.582772641e-38
0.26450667 -0.062493335 0.76300001 1.628726543e-38
0.26741332 -0.062493335 0.76300001 1.601174773e-38
0.27102858 -0.06265714 0.76500005 1.500190479e-38
0.27465904 -0.062820949 0.76700002 1.463599353e-38
0.1268038 -0.059840001 0.74800003 1.398776267e-38
0.13000001 -0.060000002 0.75000006 1.490682949e-38
0.13321143 -0.060160004 0.75200003 1.453410372e-38
0.1360762 -0.060160004 0.75200003 1.462737415e-38
0.13912572 -0.06024 0.75300002 1.398415153e-38
0.14237143 -0.060400005 0.75500005 1.407346889e-38
0.14524762 -0.060400005 0.75500005 1.361356554e-38
0.14832 -0.060480006 0.75600004 1.306219523e-38
0.1516 -0.06064 0.75800002 1.370468917e-38
0.15489525 -0.060800005 0.76000005 1.214348994e-38
0.1579981 -0.060880002 0.76100004 1.278599369e-38
0.16132 -0.061040003 0.76300001 1.241829158e-38
0.16465716 -0.0612 0.76500005 1.379724353e-38
0.16800952 -0.061360002 0.76700002 1.398090752e-38
0.17093144 -0.061360002 0.76700002 1.425857061e-38
0.17385334 -0.061360002 0.76700002 1.435184804e-38
0.17700571 -0.061440002 0.76800001 1.435329698e-38
0.17993143 -0.061440002 0.76800001 1.545748094e-38
0.18333335 -0.0616 0.77000004 1.527417708e-38
0.18626668 -0.0616 0.77000004 1.56429526e-38
0.18969144 -0.061759997 0.77200001 1.582591733e-38
0.19263239 -0.061759997 0.77200001 1.619289918e-38
0.19582668 -0.061840005 0.77300006 1.554823463e-38
0.19877145 -0.061840005 0.77300006 1.517838432e-38
0.2017162 -0.061840005 0.77300006 1.563935546e-38
0.20519048 -0.062000006 0.77500004 1.600705338e-38
0.20760573 -0.061840005 0.77300006 1.619072297e-38
0.21109524 -0.062000006 0.77500004 1.564005891e-38
0.21404763 -0.062000006 0.77500004 1.499362872e-38
0.21700001 -0.062000006 0.77500004 1.416099539e-38
0.21995239 -0.062000006 0.77500004 1.039500297e-38
0.22232954 -0.061840005 0.77300006 1.039357644e-38
0.22498286 -0.061759997 0.77200001 1.177039423e-38
0.22792381 -0.061759997 0.77200001 1.213415729e-38
0.23086476 -0.061759997 0.77200001 1.112647096e-38
0.23320001 -0.0616 0.77000004 1.195190722e-38
0.23552001 -0.061440002 0.76800001 1.084988687e-38
0.23813525 -0.061360002 0.76700002 9.93189064e-39
0.24105714 -0.061360002 0.76700002 1.205523757e-38
0.24334286 -0.0612 0.76500005 1.288356751e-38
0.24496953 -0.060880002 0.76100004 1.352463773e-38
0.24754287 -0.060800005 0.76000005 1.407673111e-38
0.25043812 -0.060800005 0.76000005 1.453806939e-38
0.25333336 -0.060800005 0.76000005 1.499904334e-38
0.25656572 -0.060880002 0.76100004 1.555184998e-38
0.25946477 -0.060880002 0.76100004 1.591991644e-38
0.26305333 -0.061040003 0.76300001 1.610359163e-38
0.26595998 -0.061040003 0.76300001 1.628797168e-38
0.26886666 -0.061040003 0.76300001 1.656274249e-38
0.27248573 -0.0612 0.76500005 1.463491173e-38
0.27612001 -0.061360002 0.76700002 1.454523704e-38
0.12236572 -0.058337145 0.74700004 1.471828479e-38
0.12537906 -0.058415242 0.74800003 1.407600384e-38
0.12822857 -0.058415242 0.74800003 1.407673111e-38
0.13107809 -0.058415242 0.74800003 1.444372137e-38
0.13428573 -0.058571432 0.75000006 1.471705444e-38
0.13750857 -0.058727618 0.75200003 1.453374359e-38
0.14056 -0.058805715 0.75300002 1.435043133e-38
0.14342858 -0.058805715 0.75300002 1.435078305e-38
0.14668572 -0.058961909 0.75500005 1.407597161e-38
0.14956191 -0.058961909 0.75500005 1.416711907e-38
0.15264 -0.059040003 0.75600004 1.407563249e-38
0.15593143 -0.059196193 0.75800002 1.389268878e-38
0.1592381 -0.059352383 0.76000005 1.39805656e-38
0.16277334 -0.059586667 0.76300001 1.3978409e-38
0.1661143 -0.05974286 0.76500005 1.397836837e-38
0.16947047 -0.059899047 0.76700002 1.342809387e-38
0.17239238 -0.059899047 0.76700002 1.278630899e-38
0.17554286 -0.059977144 0.76800001 1.306329385e-38
0.17893334 -0.060133334 0.77000004 1.398523193e-38
0.18186668 -0.060133334 0.77000004 1.463060414e-38
0.1848 -0.060133334 0.77000004 1.490756658e-38
0.18822095 -0.060289524 0.77200001 1.527632247e-38
0.1911619 -0.060289524 0.77200001 1.573411687e-38
0.19435431 -0.060367625 0.77300006 1.554932064e-38
0.19729906 -0.060367625 0.77300006 1.499615386e-38
0.20024382 -0.060367625 0.77300006 1.518017238e-38
0.20318858 -0.060367625 0.77300006 1.591701855e-38
0.20613335 -0.060367625 0.77300006 1.619036844e-38
0.2090781 -0.060367625 0.77300006 1.591557661e-38
0.21312 -0.060679998 0.77700001 1.554715843e-38
0.21608 -0.060679998 0.77700001 1.52706304e-38
0.21904001 -0.060679998 0.77700001 1.333841077e-38
0.22142859 -0.060523812 0.77500004 1.140556757e-38
0.22380193 -0.060367625 0.77300006 1.17722047e-38
0.22645333 -0.060289524 0.77200001 1.250652994e-38
0.22939429 -0.060289524 0.77200001 1.269129675e-38
0.23233524 -0.060289524 0.77200001 1.260479459e-38
0.23405714 -0.059977144 0.76800001 1.24175643e-38
0.23698285 -0.059977144 0.76800001 1.194687095e-38
0.23959619 -0.059899047 0.76700002 1.186546672e-38
0.24188572 -0.05974286 0.76500005 1.242330682e-38
0.24352001 -0.05943048 0.76100004 1.306689238e-38
0.24609526 -0.059352383 0.76000005 1.380157775e-38
0.24899048 -0.059352383 0.76000005 1.453769805e-38
0.25188571 -0.059352383 0.76000005 1.490685051e-38
0.25511619 -0.05943048 0.76100004 1.50915907e-38
0.25801525 -0.05943048 0.76100004 1.555256604e-38
0.2609143 -0.05943048 0.76100004 1.592028217e-38
0.26381335 -0.05943048 0.76100004 1.610538249e-38
0.26671237 -0.05943048 0.76100004 1.619719837e-38
0.27032 -0.059586667 0.76300001 1.555324147e-38
0.27394286 -0.05974286 0.76500005 1.48193114e-38
0.27758098 -0.059899047 0.76700002 1.472890803e-38
0.28050286 -0.059899047 0.76700002 1.463672501e-38
0.12094286 -0.056914289 0.74700004 1.435051821e-38
0.12378858 -0.056914289 0.74700004 1.287607477e-38
0.12663428 -0.056914289 0.74700004 1.361431943e-38
0.12965333 -0.056990478 0.74800003 1.389018325e-38
0.13250287 -0.056990478 0.74800003 1.453267019e-38
0.13571429 -0.057142861 0.75000006 1.517443826e-38
0.13894095 -0.05729524 0.75200003 1.453230866e-38
0.1419943 -0.05737143 0.75300002 1.480960741e-38
0.14486286 -0.05737143 0.75300002 1.499470352e-38
0.14773144 -0.05737143 0.75300002 1.462772307e-38
0.15100002 -0.057523813 0.75500005 1.527201488e-38
0.15408 -0.057600003 0.75600004 1.545568307e-38
0.15737525 -0.057752378 0.75800002 1.545927179e-38
0.16089714 -0.057980955 0.76100004 1.545819139e-38
0.16465716 -0.058285717 0.76500005 1.453407569e-38
0.16757144 -0.058285717 0.76500005 1.388583502e-38
0.17093144 -0.058438096 0.76700002 1.177217948e-38
0.17385334 -0.058438096 0.76700002 1.08534784e-38
0.17700571 -0.058514286 0.76800001 1.288034312e-38
0.17993143 -0.058514286 0.76800001 1.343423016e-38
0.18333335 -0.058666669 0.77000004 1.435510466e-38
0.18675047 -0.058819048 0.77200001 1.454020637e-38
0.18969144 -0.058819048 0.77200001 1.527489875e-38
0.19263239 -0.058819048 0.77200001 1.59173927e-38
0.19582668 -0.058895241 0.77300006 1.472064878e-38
0.19877145 -0.058895241 0.77300006 1.462701962e-38
0.2017162 -0.058895241 0.77300006 1.536600697e-38
0.20466097 -0.058895241 0.77300006 1.665099486e-38
0.20814286 -0.059047621 0.77500004 1.609890429e-38
0.21164 -0.0592 0.77700001 1.591558222e-38
0.2146 -0.0592 0.77700001 1.563649822e-38
0.21812001 -0.059352383 0.77900004 1.646407566e-38
0.22052 -0.0592 0.77700001 1.260086255e-38
0.22290477 -0.059047621 0.77500004 1.232536447e-38
0.22527431 -0.058895241 0.77300006 1.279244107e-38
0.22792381 -0.058819048 0.77200001 1.334419253e-38
0.23086476 -0.058819048 0.77200001 1.417070499e-38
0.23259428 -0.058514286 0.76800001 1.325162556e-38
0.23521332 -0.058438096 0.76700002 1.370971983e-38
0.23813525 -0.058438096 0.76700002 1.3613204e-38
0.24042858 -0.058285717 0.76500005 1.21452836e-38
0.24270667 -0.058133334 0.76300001 1.260807083e-38
0.24496953 -0.057980955 0.76100004 1.352571673e-38
0.24754287 -0.057904765 0.76000005 1.41696372e-38
0.25043812 -0.057904765 0.76000005 1.536530913e-38
0.25333336 -0.057904765 0.76000005 1.490757358e-38
0.25656572 -0.057980955 0.76100004 1.518415066e-38
0.25946477 -0.057980955 0.76100004 1.573660978e-38
0.26236382 -0.057980955 0.76100004 1.61043133e-38
0.26526284 -0.057980955 0.76100004 1.619828578e-38
0.26816192 -0.057980955 0.76100004 1.601316444e-38
0.27177334 -0.058133334 0.76300001 1.527848608e-38
0.27612001 -0.058438096 0.76700002 1.500371247e-38
0.27904192 -0.058438096 0.76700002 1.50040698e-38
0.28196383 -0.058438096 0.76700002 1.610534886e-38
0.12110476 -0.055565715 0.74800003 1.296646552e-38
0.12378858 -0.055491429 0.74700004 1.26930764e-38
0.12663428 -0.055491429 0.74700004 1.343028831e-38
0.12965333 -0.055565715 0.74800003 1.398057541e-38
0.13250287 -0.055565715 0.74800003 1.443903403e-38
0.13535239 -0.055565715 0.74800003 1.480602008e-38
0.13857144 -0.055714291 0.75000006 1.44386809e-38
0.14180572 -0.055862859 0.75200003 1.480961021e-38
0.14467049 -0.055862859 0.75200003 1.545532294e-38
0.14773144 -0.055937145 0.75300002 1.48128374e-38
0.1506 -0.055937145 0.75300002 1.518125978e-38
0.1538762 -0.056085717 0.75500005 1.527273375e-38
0.15737525 -0.056308571 0.75800002 1.555039403e-38
0.16068573 -0.056457143 0.76000005 1.554860177e-38
0.16422667 -0.056679998 0.76300001 1.49990041e-38
0.16757144 -0.056828573 0.76500005 1.444690232e-38
0.17048572 -0.056828573 0.76500005 1.324047262e-38
0.1734 -0.056828573 0.76500005 1.240929944e-38
0.17677523 -0.056977142 0.76700002 1.388946299e-38
0.17993143 -0.057051428 0.76800001 1.361575436e-38
0.18333335 -0.0572 0.77000004 1.370543606e-38
0.18675047 -0.057348572 0.77200001 1.4165324e-38
0.18993716 -0.057422861 0.77300006 1.453984204e-38
0.19288191 -0.057422861 0.77300006 1.481427934e-38
0.19633333 -0.057571433 0.77500004 1.42603965e-38
0.19928573 -0.057571433 0.77500004 1.370831293e-38
0.2017162 -0.057422861 0.77300006 1.509158509e-38
0.20466097 -0.057422861 0.77300006 1.610071056e-38
0.20814286 -0.057571433 0.77500004 1.619111253e-38
0.21164 -0.057719998 0.77700001 1.591487036e-38
0.2146 -0.057719998 0.77700001 1.58180056e-38
0.21812001 -0.057868574 0.77900004 1.637760854e-38
0.22052 -0.057719998 0.77700001 1.333698425e-38
0.22290477 -0.057571433 0.77500004 1.205201037e-38
0.22527431 -0.057422861 0.77300006 1.260877288e-38
0.22792381 -0.057348572 0.77200001 1.315910062e-38
0.23026668 -0.0572 0.77000004 1.389306713e-38
0.23259428 -0.057051428 0.76800001 1.343352671e-38
0.23521332 -0.056977142 0.76700002 1.371081705e-38
0.23813525 -0.056977142 0.76700002 1.43514837e-38
0.24042858 -0.056828573 0.76500005 1.324623476e-38
0.24270667 -0.056679998 0.76300001 1.315944954e-38
0.24496953 -0.056531429 0.76100004 1.398525715e-38
0.24754287 -0.056457143 0.76000005 1.416999593e-38
0.25043812 -0.056457143 0.76000005 1.499725809e-38
0.25333336 -0.056457143 0.76000005 1.48135969e-38
0.25656572 -0.056531429 0.76100004 1.509232217e-38
0.25946477 -0.056531429 0.76100004 1.564477989e-38
0.26236382 -0.056531429 0.76100004 1.601284074e-38
0.26526284 -0.056531429 0.76100004 1.619757111e-38
0.26816192 -0.056531429 0.76100004 1.583022212e-38
0.27177334 -0.056679998 0.76300001 1.536997825e-38
0.27540001 -0.056828573 0.76500005 1.509376831e-38
0.27831429 -0.056828573 0.76500005 1.500443834e-38
0.28122857 -0.056828573 0.76500005 1.536996144e-38
0.12094286 -0.054068573 0.74700004 1.168146782e-38
0.12378858 -0.054068573 0.74700004 1.25094054e-38
0.12663428 -0.054068573 0.74700004 1.333917448e-38
0.12948 -0.054068573 0.74700004 1.416568274e-38
0.13232571 -0.054068573 0.74700004 1.434826632e-38
0.13535239 -0.054140955 0.74800003 1.444011163e-38
0.13857144 -0.054285716 0.75000006 1.43490006e-38
0.14180572 -0.054430481 0.75200003 1.481034029e-38
0.14467049 -0.054430481 0.75200003 1.59141543e-38
0.14753523 -0.054430481 0.75200003 1.508870963e-38
0.1506 -0.054502856 0.75300002 1.508942849e-38
0.15346856 -0.054502856 0.75300002 1.518161712e-38
0.15675239 -0.054647624 0.75500005 1.564116034e-38
0.16026285 -0.054864764 0.75800002 1.564116174e-38
0.16358095 -0.055009525 0.76000005 1.545818999e-38
0.16669525 -0.055081908 0.76100004 1.50897634e-38
0.17004001 -0.055226665 0.76300001 1.472205428e-38
0.1734 -0.05537143 0.76500005 1.407813241e-38
0.17631429 -0.05537143 0.76500005 1.49014457e-38
0.17969714 -0.055516191 0.76700002 1.379799183e-38
0.18333335 -0.055733338 0.77000004 1.315406295e-38
0.18675047 -0.055878095 0.77200001 1.379654289e-38
0.18969144 -0.055878095 0.77200001 1.379690162e-38
0.19338095 -0.056095239 0.77500004 1.379510796e-38
0.19684 -0.05624 0.77700001 1.379798202e-38
0.19928573 -0.056095239 0.77500004 1.27892419e-38
0.2017162 -0.055950481 0.77300006 1.4815001e-38
0.20466097 -0.055950481 0.77300006 1.564044707e-38
0.20814286 -0.056095239 0.77500004 1.628401441e-38
0.21164 -0.05624 0.77700001 1.600705057e-38
0.2146 -0.05624 0.77700001 1.60992378e-38
0.21812001 -0.056384765 0.77900004 1.628541291e-38
0.22052 -0.05624 0.77700001 1.407418495e-38
0.22290477 -0.056095239 0.77500004 1.186547513e-38
0.22527431 -0.055950481 0.77300006 1.242007823e-38
0.22792381 -0.055878095 0.77200001 1.306617351e-38
0.23026668 -0.055733338 0.77000004 1.361754662e-38
0.23259428 -0.055588569 0.76800001 1.361575436e-38
0.23521332 -0.055516191 0.76700002 1.379906102e-38
0.2375143 -0.05537143 0.76500005 1.517549624e-38
0.24042858 -0.05537143 0.76500005 1.444152554e-38
0.24207048 -0.055081908 0.76100004 1.371008277e-38
0.24464762 -0.055009525 0.76000005 1.453697078e-38
0.24754287 -0.055009525 0.76000005 1.426110696e-38
0.25043812 -0.055009525 0.76000005 1.462882309e-38
0.25333336 -0.055009525 0.76000005 1.481357588e-38
0.25656572 -0.055081908 0.76100004 1.500011954e-38
0.25912383 -0.055009525 0.76000005 1.555258006e-38
0.26201907 -0.055009525 0.76000005 1.592064371e-38
0.26491427 -0.055009525 0.76000005 1.619650052e-38
0.26816192 -0.055081908 0.76100004 1.573767477e-38
0.27177334 -0.055226665 0.76300001 1.555294159e-38
0.27540001 -0.05537143 0.76500005 1.527744631e-38
0.27831429 -0.05537143 0.76500005 1.509555637e-38
0.28196383 -0.055516191 0.76700002 1.472890803e-38
0.11968 -0.052716192 0.74800003 1.17775955e-38
0.12236572 -0.052645717 0.74700004 1.186619259e-38
0.12521143 -0.052645717 0.74700004 1.26023241e-38
0.12805715 -0.052645717 0.74700004 1.343210859e-38
0.13090287 -0.052645717 0.74700004 1.389014682e-38
0.13374858 -0.052645717 0.74700004 1.39816446e-38
0.13677713 -0.052716192 0.74800003 1.416460934e-38
0.14000002 -0.052857146 0.75000006 1.44429997e-38
0.14285715 -0.052857146 0.75000006 1.49032786e-38
0.14610286 -0.052998096 0.75200003 1.4996514e-38
0.14896762 -0.052998096 0.75200003 1.481393602e-38
0.15183239 -0.052998096 0.75200003 1.499794752e-38
0.15490286 -0.053068571 0.75300002 1.545784527e-38
0.15819047 -0.053209525 0.75500005 1.582520688e-38
0.16128001 -0.053280003 0.75600004 1.57337147e-38
0.16459429 -0.053420953 0.75800002 1.545783406e-38
0.16792381 -0.053561911 0.76000005 1.518089965e-38
0.17104381 -0.053632382 0.76100004 1.499649438e-38
0.17439999 -0.053773336 0.76300001 1.517945351e-38
0.17777143 -0.05391429 0.76500005 1.517660467e-38
0.1811581 -0.05405524 0.76700002 1.471527059e-38
0.18431999 -0.054125715 0.76800001 1.407133611e-38
0.18822095 -0.054407619 0.77200001 1.361285928e-38
0.19240001 -0.054760002 0.77700001 1.250474889e-38
0.19536 -0.054760002 0.77700001 1.149596674e-38
0.19780953 -0.054619048 0.77500004 1.168255103e-38
0.20024382 -0.054478098 0.77300006 1.342958766e-38
0.20318858 -0.054478098 0.77300006 1.527308968e-38
0.20613335 -0.054478098 0.77300006 1.591702696e-38
0.2090781 -0.054478098 0.77300006 1.61921649e-38
0.21312 -0.054760002 0.77700001 1.6191404e-38
0.21608 -0.054760002 0.77700001 1.610031399e-38
0.21904001 -0.054760002 0.77700001 1.545888504e-38
0.222 -0.054760002 0.77700001 1.314759876e-38
0.22380193 -0.054478098 0.77300006 1.186475766e-38
0.22645333 -0.054407619 0.77200001 1.242115443e-38
0.2288 -0.054266669 0.77000004 1.306687837e-38
0.23113143 -0.054125715 0.76800001 1.352390626e-38
0.23375238 -0.05405524 0.76700002 1.370436127e-38
0.23605716 -0.05391429 0.76500005 1.397841321e-38
0.23897144 -0.05391429 0.76500005 1.416459112e-38
0.24125335 -0.053773336 0.76300001 1.380080984e-38
0.24320002 -0.053561911 0.76000005 1.389374255e-38
0.24609526 -0.053561911 0.76000005 1.416746519e-38
0.24899048 -0.053561911 0.76000005 1.426074822e-38
0.25188571 -0.053561911 0.76000005 1.453733091e-38
0.25511619 -0.053632382 0.76100004 1.481427513e-38
0.25767621 -0.053561911 0.76000005 1.509232077e-38
0.26057142 -0.053561911 0.76000005 1.564476728e-38
0.26346669 -0.053561911 0.76000005 1.619615861e-38
0.26636192 -0.053561911 0.76000005 1.610430349e-38
0.26961145 -0.053632382 0.76100004 1.564405262e-38
0.27322668 -0.053773336 0.76300001 1.546041385e-38
0.27685714 -0.05391429 0.76500005 1.518596815e-38
0.28050286 -0.05405524 0.76700002 1.482004007e-38
0.28342476 -0.05405524 0.76700002 1.445339453e-38
0.12236572 -0.051222861 0.74700004 1.158707776e-38
0.12521143 -0.051222861 0.74700004 1.232680641e-38
0.12805715 -0.051222861 0.74700004 1.315693702e-38
0.13090287 -0.051222861 0.74700004 1.352317338e-38
0.13374858 -0.051222861 0.74700004 1.37068752e-38
0.13677713 -0.051291432 0.74800003 1.388874552e-38
0.14000002 -0.051428575 0.75000006 1.426003637e-38
0.1432381 -0.051565714 0.75200003 1.45359142e-38
0.14610286 -0.051565714 0.75200003 1.453877004e-38
0.14896762 -0.051565714 0.75200003 1.453985605e-38
0.15183239 -0.051565714 0.75200003 1.490610782e-38
0.15490286 -0.051634289 0.75300002 1.54571236e-38
0.15777142 -0.051634289 0.75300002 1.600885685e-38
0.16106668 -0.051771432 0.75500005 1.600957431e-38
0.16416001 -0.051840004 0.75600004 1.573334756e-38
0.16792381 -0.052114289 0.76000005 1.554788571e-38
0.17081906 -0.052114289 0.76000005 1.563792894e-38
0.17394286 -0.052182861 0.76100004 1.582158872e-38
0.17730667 -0.05232 0.76300001 1.609963436e-38
0.1811581 -0.052594289 0.76700002 1.591773742e-38
0.18431999 -0.052662857 0.76800001 1.462737134e-38
0.18846478 -0.053005718 0.77300006 1.341267959e-38
0.19240001 -0.05328 0.77700001 1.130799656e-38
0.19586286 -0.053417146 0.77900004 9.185357291e-39
0.19780953 -0.053142861 0.77500004 1.011702179e-38
0.20024382 -0.053005718 0.77300006 1.315156444e-38
0.20318858 -0.053005718 0.77300006 1.527488334e-38
0.20613335 -0.053005718 0.77300006 1.591846329e-38
0.2090781 -0.053005718 0.77300006 1.628292841e-38
0.21312 -0.05328 0.77700001 1.628289337e-38
0.21608 -0.05328 0.77700001 1.610067133e-38
0.21904001 -0.05328 0.77700001 1.573510899e-38
0.22142859 -0.053142861 0.77500004 1.333126976e-38
0.22380193 -0.053005718 0.77300006 1.158817218e-38
0.22645333 -0.052937143 0.77200001 1.223747363e-38
0.2288 -0.052800003 0.77000004 1.28835549e-38
0.23083048 -0.052594289 0.76700002 1.352390205e-38
0.23375238 -0.052594289 0.76700002 1.379475763e-38
0.23605716 -0.052457143 0.76500005 1.351959586e-38
