# .PCD v0.7 - Point Cloud Data file format
VERSION 0.7
FIELDS x y z rgb
SIZE 4 4 4 4
TYPE F F F F
COUNT 1 1 1 1
WIDTH 868
HEIGHT 1
VIEWPOINT 0 0 0 1 0 0 0
POINTS 868
DATA ascii
0.4391175722 0.09285118521 0.8666691601 1.168648587e-38
0.4396839057 0.08602507729 0.9059535246 1.159429445e-38
0.4484119392 0.0791729078 0.8719333079 1.150209321e-38
0.4361228417 0.06689199251 0.844481482 1.150208621e-38
0.459035803 0.09403433906 0.875760454 1.15020792e-38
0.4430806421 0.07830528625 0.8648659804 1.177757868e-38
0.4606223046 0.07962882234 0.858133033 1.205272223e-38
0.447523515 0.0912382135 0.879770718 1.177721014e-38
0.4599321846 0.08734320637 0.8749213157 1.15928357e-38
0.4476040586 0.08693341255 0.8883264067 1.223605692e-38
0.4606074421 0.07650567983 0.8885873916 1.287710892e-38
0.4568404573 0.0879640189 0.8790343513 1.214134595e-38
0.4539645058 0.09651787745 0.8814848619 1.149777862e-38
0.3870895454 0.108660548 0.913677615 6.996407177e-39
0.3726740504 0.08498612731 0.905982716 7.64139263e-39
0.3798878333 0.08166759341 0.9015048919 7.267579449e-39
0.3786171093 0.07407027978 0.8907272558 6.894141816e-39
0.405667593 0.09274050388 0.8952114311 6.160895579e-39
0.3928756705 0.07425984313 0.9032045688 5.519483437e-39
0.4030398295 0.09204942067 0.8975426309 6.16197598e-39
0.3990355745 0.08716672107 0.8846529282 6.896292809e-39
0.3910056161 0.1002037191 0.8748243225 6.989197496e-39
0.3902288691 0.09872664319 0.8788518952 7.173947488e-39
0.4127483017 0.09527828697 0.8713690487 7.450891709e-39
0.3797461133 0.08489786498 0.8794506242 7.728191859e-39
0.3866154588 0.1073718399 0.8740876525 7.910427922e-39
0.419253173 0.09228172185 0.8866185182 8.18450929e-39
0.3818065748 0.09766950131 0.8731420367 8.277430792e-39
0.3935334988 0.08007866131 0.8830252984 8.370688607e-39
0.3915150708 0.1029310176 0.8955847769 8.278840499e-39
0.3841285513 0.1084551895 0.8862302851 8.279211843e-39
0.3842915935 0.09449405793 0.8786023937 8.554730943e-39
0.4007970897 0.08985464973 0.8757915375 8.92207573e-39
0.4002395491 0.1002183098 0.8698073798 9.106108257e-39
0.4054845547 0.09014464702 0.8786491297 9.290492511e-39
0.4089902764 0.06451278117 0.8746714583 9.382682535e-39
0.4138814551 0.09558521137 0.8722228412 9.567075196e-39
0.4174685364 0.07792677548 0.8735888641 9.751110526e-39
0.407133741 0.09069935784 0.8821333468 1.002733168e-38
0.4133881845 0.07801399651 0.8846485532 1.01195245e-38
0.4159563794 0.091645478 0.8743661323 1.030391717e-38
0.4307624845 0.09705117269 0.8557400252 1.048795109e-38
0.4266740051 0.06635857544 0.8650383887 1.067233114e-38
0.4376999882 0.09575779891 0.8658553491 1.085599513e-38
0.4182096809 0.07434037446 0.8733907323 1.113151143e-38
0.409562676 0.07650104148 0.8846442687 1.122443293e-38
0.4353143276 0.08574710791 0.8709694023 1.131877535e-38
0.4117545111 0.08009563236 0.8657065564 1.131877114e-38
0.4118871732 0.08048683624 0.8746645538 1.131660474e-38
0.430226248 0.09966485955 0.8837513785 1.149918552e-38
0.4439823859 0.09627769378 0.8663360741 1.168179012e-38
0.4438239454 0.09277120711 0.87563069 1.149812894e-38
0.4367069589 0.09986945109 0.857763231 1.131446916e-38
0.4343334539 0.08530488039 0.8861532903 1.131555797e-38
0.4462099145 0.09216751766 0.8718458376 1.140846966e-38
0.4543116736 0.08080993476 0.8578628195 1.104292134e-38
0.4574690225 0.08765076486 0.8768584702 1.076777078e-38
0.4421008077 0.09355616902 0.8730113891 1.104291713e-38
0.4480419758 0.08474331604 0.8787017822 1.131841521e-38
0.4548589396 0.08814263676 0.8700088378 1.140988497e-38
0.4362517028 0.09657249802 0.8753039213 1.150136174e-38
0.4498191809 0.07956915473 0.8865986479 1.122549651e-38
0.4511017172 0.08040922725 0.8781334859 1.09496397e-38
0.4758818698 0.08079814767 0.8787922861 1.150030376e-38
0.4597763269 0.1022733622 0.8788581145 1.214314242e-38
0.4470880206 0.1112286954 0.8686080573 1.177471583e-38
0.4567842056 0.1005215937 0.8807260401 1.140522285e-38
0.3772851805 0.08996457694 0.8975585987 8.014861091e-39
0.3676514457 0.07865218262 0.9083344926 7.556042343e-39
0.3829337045 0.08565010974 0.9156224515 7.086440603e-39
0.385944254 0.0980407775 0.9002224461 5.698844035e-39
0.3922107843 0.08945274269 0.8839640057 4.321670325e-39
0.4029519229 0.07628108104 0.8977126517 5.424412342e-39
0.4120905773 0.09344643801 0.8927976628 6.530021416e-39
0.3862928849 0.0917580083 0.8824757839 6.621492575e-39
0.3851948581 0.07245810436 0.8886135102 6.715483268e-39
0.3826299207 0.1099126585 0.8968846848 7.083905654e-39
0.399488629 0.08842040223 0.9043730987 7.542728606e-39
0.376787331 0.08543077865 0.885477734 7.726405204e-39
0.3705552203 0.08643643295 0.8722721198 7.910083203e-39
0.3937024368 0.08188735445 0.8834431887 8.093761201e-39
0.4053964156 0.09079277909 0.867216194 8.278139849e-39
0.415673462 0.08810350091 0.8930071789 8.187012009e-39
0.3959378703 0.08820230369 0.8875081915 8.095546456e-39
0.4030656417 0.08325628861 0.8638227224 8.371064154e-39
0.3976172591 0.09816632129 0.9147280715 8.738401935e-39
0.4001393988 0.09288498462 0.8733499619 9.014981818e-39
0.4014887034 0.09154518017 0.8887000811 9.382319599e-39
0.3979761838 0.0797893476 0.8799551472 9.382674128e-39
0.4040346923 0.08758939329 0.8866937991 9.475588624e-39
0.412723786 0.09992046523 0.869447839 9.752175513e-39
0.4039598149 0.1055136059 0.8778557576 1.0027682e-38
0.4080290262 0.08797447741 0.8705660239 1.0027682e-38
0.4142429888 0.08586104479 0.8798043538 1.011952871e-38
0.4206773339 0.08573285651 0.8745319583 1.021137401e-38
0.4160031773 0.0883165622 0.8820571957 1.039754632e-38
0.4140006758 0.07347464996 0.8762746107 1.067447793e-38
0.4281273052 0.09831835779 0.8535924795 1.10404018e-38
0.4159675516 0.1012025902 0.8689329563 1.103934242e-38
0.4353527998 0.0726826031 0.858008235 1.104112627e-38
0.4192270574 0.08627494259 0.8523080113 1.104255139e-38
0.4238468418 0.08746954578 0.8779277591 1.113259043e-38
0.4430018072 0.09307314472 0.8692265897 1.149921354e-38
0.4240137002 0.09205739688 0.8756347952 1.186583806e-38
0.4436527114 0.09550458653 0.8997845189 1.149813875e-38
0.4474084953 0.1040586433 0.8721728522 1.122263646e-38
0.4520620414 0.08638609772 0.8546854892 1.11322401e-38
0.4403981105 0.08460134615 0.8779487978 1.113295757e-38
0.4558035238 0.08952327658 0.8741655543 1.058338092e-38
0.4418787562 0.08216781141 0.8617134453 1.012527543e-38
0.439308198 0.08822234867 0.896678708 1.058445011e-38
0.4261259569 0.0762462747 0.8631122839 1.113437848e-38
0.4537002534 0.08966565755 0.8942416653 1.104253458e-38
0.4426751963 0.08329062398 0.8610337377 1.094998022e-38
0.4574402157 0.08901134357 0.8720629799 1.058478923e-38
0.4527726221 0.1064027966 0.8769560297 1.030893101e-38
0.4530433579 0.08850399239 0.8650742083 1.085959086e-38
0.4529900351 0.1066423535 0.8951592276 1.140952624e-38
0.4666794075 0.07331465809 0.8814912395 1.140844724e-38
0.4459073329 0.0760640171 0.8845550512 1.140845004e-38
0.3838557579 0.1014297672 0.9054656787 9.119440211e-39
0.4013150081 0.09918999493 0.8869269992 9.303067763e-39
0.3788778038 0.1056305532 0.9041264657 7.822895813e-39
0.3856326645 0.1050394211 0.9096818528 6.251284935e-39
0.4084785415 0.09576829477 0.89432489 6.525712424e-39
0.3918922112 0.08956368275 0.8994604389 6.806955828e-39
0.3898475655 0.09705214365 0.8813733198 6.623642167e-39
0.4193173297 0.09103619311 0.8919767784 6.440691442e-39
0.3808465061 0.09010646586 0.8835731842 6.808396363e-39
0.3957392856 0.09169380014 0.8746488278 7.265431258e-39
0.3742623668 0.1029219699 0.8949394223 7.357994028e-39
0.382197041 0.08086660799 0.8789429816 7.541310492e-39
0.4000827849 0.07806384023 0.8885733466 8.001209642e-39
0.3881723242 0.08886416149 0.8649249016 8.459662651e-39
0.39890569 0.1043701263 0.8834171559 8.186661684e-39
0.3999357949 0.09152019944 0.8907985314 7.912239801e-39
0.3877544101 0.09060370375 0.8896110354 8.187397366e-39
0.3941411691 0.1104734919 0.8666656882 8.371058549e-39
0.4073985267 0.09254533184 0.8801024033 8.739827056e-39
0.4258988339 0.09089161229 0.8824784124 9.016762869e-39
0.3953571815 0.0757860212 0.8632434408 9.108594161e-39
0.4129204964 0.09595349036 0.8716211248 9.200431058e-39
0.4053385939 0.1231611206 0.8556669531 9.476657814e-39
0.4177414061 0.1084633331 0.8725143409 9.844361334e-39
0.4119090972 0.07842301589 0.883945812 9.9358409e-39
0.4159273225 0.1083975947 0.8544816664 1.002769321e-38
0.4030957466 0.09178109552 0.8687315263 1.021173975e-38
0.4225810307 0.1004381405 0.8694659232 1.039826799e-38
0.4263535356 0.089737098 0.8602331957 1.058192637e-38
0.426577828 0.09976666739 0.866989056 1.085745668e-38
0.4041652865 0.1016252317 0.8768156917 1.076457021e-38
0.4348715956 0.09798963685 0.8667291774 1.07645534e-38
0.4078436445 0.1053540716 0.8558297457 1.076453798e-38
0.4206116637 0.08994380472 0.8705261284 1.085674202e-38
0.4411650371 0.08344736699 0.9025516659 1.104042282e-38
0.4331424981 0.08750080566 0.864552941 1.131663837e-38
0.4217962426 0.09101971718 0.8740788665 1.122371827e-38
0.4279681568 0.07926224581 0.8864808624 1.11311625e-38
0.4468151236 0.08188302748 0.8831206406 1.094928237e-38
0.4388271799 0.1011996061 0.8547889347 1.085780561e-38
0.4445923281 0.07881339151 0.8773437891 1.058337672e-38
0.4378845177 0.08469914969 0.8477331743 1.040113645e-38
0.448976293 0.0938753563 0.8662004871 1.095142776e-38
0.4528150399 0.08708236666 0.8679467846 1.150171346e-38
0.4428454706 0.1149234939 0.8778368495 1.122583983e-38
0.4610377277 0.09462727274 0.876635004 1.094961308e-38
0.4669945746 0.0911791586 0.8709405546 1.076845041e-38
0.4369852285 0.08995526777 0.8842006515 1.067769391e-38
0.4531502864 0.08077336349 0.8829809599 1.095212841e-38
0.4563681748 0.07835603205 0.8967643261 1.131875713e-38
0.4603519442 0.07639491877 0.870062166 1.131696907e-38
0.4474134774 0.1041407031 0.8828090545 1.140844864e-38
0.390145832 0.1027191331 0.9047780282 1.160437539e-38
0.4012396644 0.09314074389 0.9099067155 9.945931651e-39
0.3987660177 0.09775961928 0.9043938701 8.281019518e-39
0.3831047698 0.09406243974 0.8813083221 7.719209536e-39
0.3857750368 0.08899506292 0.8849896362 7.171782482e-39
0.3868214443 0.08878395147 0.8773367157 6.623998097e-39
0.3838552621 0.0943298847 0.8847876617 6.165183552e-39
0.3837487261 0.0967820145 0.9003362553 6.533247206e-39
0.3969802358 0.09788810172 0.8867330163 6.991712827e-39
0.3905132783 0.1005529223 0.8803645893 7.083195196e-39
0.3983849396 0.07780430905 0.9022454657 7.266874596e-39
0.3974950274 0.1024615048 0.8884570042 7.910090209e-39
0.3961147507 0.09737163671 0.8819115978 8.645125904e-39
0.3861630306 0.09256120556 0.8979144806 8.186301551e-39
0.3831546193 0.1043049117 0.8656630656 7.819689643e-39
0.3940352317 0.08657426534 0.8774552133 7.912255215e-39
0.3990209692 0.09356178641 0.8712336595 8.096631061e-39
0.416691913 0.1117075512 0.9109291954 8.372842402e-39
0.3993180602 0.09091177884 0.8719589717 8.740534711e-39
0.4112701905 0.09485399542 0.8717705841 8.833079265e-39
0.4112351059 0.09641343537 0.8591574251 9.01675306e-39
0.4007212073 0.09359639489 0.8771961998 9.292979815e-39
0.4086524215 0.09358120793 0.8726345736 9.660324603e-39
0.4120713541 0.09680535159 0.869500758 9.752521634e-39
0.4248917589 0.08390095241 0.8822865864 9.93619683e-39
0.4165273033 0.09819307386 0.877464056 1.012023216e-38
0.4203268362 0.0973895035 0.8790999079 1.039537992e-38
0.4365941573 0.08027968273 0.8725538968 1.048721681e-38
0.4206642455 0.09061698035 0.8749421637 1.067197942e-38
0.4429760872 0.07595757056 0.8759106103 1.058123693e-38
0.4351951031 0.09162864732 0.8696659587 1.058158446e-38
0.4261439885 0.09309929564 0.8782486526 1.058193338e-38
0.4247321181 0.0870272526 0.8763557324 1.058158165e-38
0.4329949112 0.09537135506 0.8817992094 1.067342556e-38
0.4336780581 0.08033108211 0.8476104044 1.076561138e-38
0.4379279177 0.08422970442 0.8748042163 1.08577972e-38
0.4339143311 0.08647842025 0.8757784395 1.104182692e-38
0.4440665631 0.09040192011 0.8929289132 1.076667917e-38
0.4382626651 0.09554788231 0.8874731089 1.058265084e-38
0.434034701 0.08990216732 0.8876909964 1.058336971e-38
0.4473407581 0.1071011717 0.8564248362 1.067413041e-38
0.4425423536 0.08144580728 0.8756493866 1.122406999e-38
0.4520535797 0.1092726813 0.8819380569 1.186763313e-38
0.4692850935 0.09909827523 0.8791841675 1.140952904e-38
0.4390250327 0.1014696751 0.8761081662 1.104109404e-38
0.4541467788 0.09405239126 0.8791142631 1.104430582e-38
0.4529323652 0.09593461566 0.8809126224 1.104431563e-38
0.4609150082 0.09624552177 0.8866096459 1.113651967e-38
0.4479967173 0.1012609102 0.8712022315 1.131876694e-38
0.4696313721 0.100791569 0.8681461853 1.131734322e-38
0.4763232456 0.0793767895 0.8395947779 1.140917171e-38
0.3928748913 0.08835219051 0.9029441928 1.069251825e-38
0.3968205361 0.09449388422 0.9030186996 1.031907081e-38
0.3860493651 0.1003512868 0.8998333105 9.851935352e-39
0.4107288693 0.1063725768 0.9031765473 8.279186619e-39
0.3834250971 0.1069111096 0.9129065248 6.618255576e-39
0.3870804986 0.09672048844 0.8874205908 6.530007404e-39
0.3912340277 0.08787684908 0.8798032079 6.442841034e-39
0.4063009985 0.09162372859 0.8880548003 6.440335512e-39
0.396699514 0.09293975695 0.892930559 6.440336913e-39
0.3953630247 0.1140244044 0.8865943252 6.62293311e-39
0.3924768433 0.1017563682 0.8893648181 6.896657147e-39
0.3983348163 0.08582539284 0.8802450757 7.447682735e-39
0.3816501839 0.07810679589 0.8744402547 7.999048839e-39
0.4034187943 0.1040334996 0.8887526502 7.816448439e-39
0.4053642066 0.08961261266 0.8928549889 7.633869058e-39
0.3943291131 0.0885881896 0.8847111747 7.72572137e-39
0.4104317623 0.08463769639 0.8858792948 7.817898783e-39
0.4081826486 0.1047647139 0.8764844492 8.095542252e-39
0.4033016737 0.1215061298 0.887221679 8.464665287e-39
0.41785555 0.106798444 0.8748837004 8.648323667e-39
0.417671777 0.09264731456 0.8881231037 8.740520699e-39
0.4400147521 0.08099299677 0.88776394 9.016031391e-39
0.4216375062 0.08215628648 0.8652078478 9.291540682e-39
0.416278461 0.0929440636 0.877445983 9.475573209e-39
0.4276171646 0.08198716602 0.8553173468 9.751431424e-39
0.4138373304 0.08067058315 0.8680151304 9.844336111e-39
0.3999607468 0.05797005159 0.8671126138 1.002622745e-38
0.4234020507 0.08719067999 0.8833047477 1.021098866e-38
0.4207629843 0.09297025063 0.8782374887 1.039574285e-38
0.438029124 0.06577725173 0.8698273282 1.030570943e-38
0.4353383389 0.09586024651 0.8835540395 1.021494592e-38
0.4150571728 0.08376818036 0.8878135853 1.021494172e-38
0.4364742143 0.08923671271 0.8637121224 1.012346916e-38
0.4497418111 0.07716174579 0.8865706093 1.030606956e-38
0.4420433697 0.09183906706 0.8753187947 1.049152581e-38
0.4248226555 0.08434926759 0.8710179447 1.058155923e-38
0.4340758927 0.1016413195 0.8856504992 1.067375626e-38
0.4523871834 0.08827570765 0.8923520736 1.05822823e-38
0.4288660554 0.09546988351 0.8692638904 1.049080694e-38
0.4352862853 0.1014805199 0.8860706954 1.021637945e-38
0.4490091759 0.08793905026 0.8747320907 1.003056447e-38
0.4465163369 0.1098121554 0.8716053285 1.067234656e-38
0.4396754157 0.08040216139 0.8955996825 1.13137629e-38
0.453502099 0.1056808759 0.8918844745 1.103969415e-38
0.4353504587 0.1065819505 0.8871717399 1.085742726e-38
0.4643807165 0.09825492729 0.8682894807 1.094995079e-38
0.4478962755 0.09559873563 0.8839334901 1.104251917e-38
0.4540150829 0.08863681517 0.9065716805 1.113257641e-38
0.4674364935 0.1019135878 0.8860123471 1.11311597e-38
0.4575024202 0.09502059768 0.9000535906 1.122444834e-38
0.4555033076 0.08713807759 0.8941762405 1.131734322e-38
0.3912877809 0.09599457718 0.8980829097 8.839215551e-39
0.3993958166 0.09628473359 0.8891110233 6.168070227e-39
0.380874763 0.0883784592 0.9053209866 6.436019513e-39
0.3971597106 0.09675498046 0.8729309969 6.805157962e-39
0.3898349958 0.1027531169 0.8971397384 6.347778347e-39
0.4015742487 0.09170937752 0.9020830661 5.887887606e-39
0.4123147669 0.09361738777 0.8890007645 6.254514928e-39
0.4111849855 0.1041708079 0.8813936722 6.62186532e-39
0.3992280508 0.1243279327 0.8847261831 6.989573044e-39
0.383395775 0.09735213886 0.8849463683 7.356547888e-39
0.4119478642 0.09473575915 0.8745702098 7.356180748e-39
0.404177523 0.1060388271 0.9001187618 7.450182652e-39
0.3984787795 0.09929424625 0.8875813191 7.449480601e-39
0.4193848137 0.0706448246 0.8857743634 7.542386689e-39
0.4004970562 0.09625931063 0.8857800237 7.910081801e-39
0.4079626044 0.08801551141 0.8812993429 8.278131442e-39
0.3999378853 0.09183240568 0.8728878322 8.371034727e-39
0.4043897591 0.08990369262 0.8803601767 8.556140649e-39
0.4057235408 0.1036380152 0.8813041618 8.74124517e-39
0.4205047348 0.08079551126 0.874484126 8.924560232e-39
0.4130599402 0.09306448523 0.8932012172 9.200069523e-39
0.3937732389 0.1002107083 0.8778649256 9.567777247e-39
0.4213856591 0.0973143363 0.8806047646 9.568861852e-39
0.3946355197 0.1013476332 0.8643053891 9.658900883e-39
0.4247707384 0.1014827085 0.8880496953 9.843287939e-39
0.4266671795 0.08816896901 0.8839505704 1.011987483e-38
0.4287320261 0.07973552401 0.8734631365 1.003019733e-38
0.4261030097 0.0860222843 0.8645568052 9.938719167e-39
0.4287328176 0.1011512219 0.8675729226 9.847599735e-39
0.4231950184 0.09941022763 0.8734231931 9.755415315e-39
0.4418087944 0.09917583231 0.8833951922 9.939097518e-39
0.4255386368 0.07786709462 0.878210664 1.021423266e-38
0.4312361195 0.09262876685 0.8915893867 1.021386132e-38
0.4419518199 0.1100576323 0.8873136774 1.030605555e-38
0.4470010639 0.07916875633 0.8815226215 1.030641288e-38
0.4453852508 0.08110725828 0.8831944904 1.039824978e-38
0.460048078 0.1060141979 0.8862314961 9.94122609e-39
0.4313582501 0.1057244074 0.8905414223 9.479187158e-39
0.4360974138 0.1014942187 0.8741301139 1.012096784e-38
0.4360915471 0.09802679355 0.8682614845 1.076345618e-38
0.4341868414 0.07449020371 0.8786595343 1.067162068e-38
0.4574335617 0.08559777488 0.8641933518 1.067376047e-38
0.4499800523 0.08902528796 0.8834232458 1.085634265e-38
0.4785223405 0.1017421795 0.8699813893 1.113149601e-38
0.462146308 0.08895248119 0.873739489 1.103966752e-38
0.4531433071 0.09330150244 0.8854406098 1.103967453e-38
0.4482657491 0.08976796698 0.8795849175 1.113187576e-38
0.4529758179 0.1007037367 0.8653734334 1.122441892e-38
0.4045607742 0.1125991457 0.9086044718 8.930692314e-39
0.3963416216 0.09431475705 0.8902781753 7.637773076e-39
0.4020880754 0.1099406845 0.898767137 6.342033024e-39
0.3813184162 0.09563821778 0.8972002519 5.610939181e-39
0.4051637408 0.09262269441 0.8933324127 4.881283071e-39
0.4025728556 0.1084427742 0.8785006567 5.610950391e-39
0.4127926329 0.09547176771 0.902661144 6.347789558e-39
0.3931273097 0.09756145786 0.8744002772 6.713700817e-39
0.4006385139 0.08503102979 0.8807015893 7.079237929e-39
0.4029230509 0.07864892296 0.8917707527 7.081379113e-39
0.4032769257 0.1014531899 0.8737639214 7.082826654e-39
0.4164116735 0.10880263 0.8836368709 7.266510258e-39
0.4108787756 0.08339760324 0.896825703 7.450544187e-39
0.4086313634 0.09389766393 0.8876354908 7.726415013e-39
0.4017784874 0.1015563757 0.8801554904 8.092675195e-39
0.421345061 0.08779380732 0.8950299571 8.185582685e-39
0.417139168 0.1003165982 0.8841961634 8.371759199e-39
0.4130477589 0.1084100593 0.8698010451 8.464666688e-39
0.4217546113 0.1036087657 0.8756343039 8.649415279e-39
0.4239068205 0.1033128658 0.8887100247 8.833089074e-39
0.4240709953 0.1005311707 0.8751682733 9.108617983e-39
0.427672343 0.1190050998 0.8921083137 9.016446175e-39
0.4355513945 0.1109591098 0.8887789864 8.832756966e-39
0.4235785837 0.09782582401 0.8832212366 9.384469191e-39
0.4182639403 0.09291533524 0.8849002592 9.844366939e-39
0.4398774987 0.1049290368 0.8730445224 9.752534246e-39
0.427024293 0.07934368559 0.8801443394 9.660700151e-39
0.416737575 0.0939926478 0.8923437857 9.662136482e-39
0.4267187722 0.1026788269 0.8858728679 9.662151896e-39
0.4351194965 0.1115858164 0.8727764626 9.84547957e-39
0.4076612002 0.1071022081 0.8809135661 1.002913375e-38
0.4292923466 0.1002847048 0.8900026824 1.012167129e-38
0.4295062175 0.09086346085 0.8742045072 1.030569681e-38
0.4369812713 0.07987932068 0.890370954 1.04893636e-38
0.4232812846 0.09548401444 0.8890674685 1.067339333e-38
0.4421315676 0.1151615654 0.8771200104 1.030569401e-38
0.4555376564 0.0937938529 0.8782338604 9.938359034e-39
0.4441912175 0.09733825424 0.889595389 1.058085578e-38
0.4613381043 0.08653639458 0.873857758 1.122370005e-38
0.4365565223 0.09057628538 0.8791091936 1.094890682e-38
0.4509131588 0.1053273492 0.8707507045 1.0674122e-38
0.4559628525 0.1042208163 0.8680450327 1.085600494e-38
0.4286807843 0.1098972505 0.8902932389 1.104039059e-38
0.4491856194 0.1054545739 0.8657260289 1.104038779e-38
0.4493018334 0.08695760189 0.8647967338 1.113257781e-38
0.4579898855 0.09931852603 0.8865348185 1.131660474e-38
0.4483937818 0.09554940956 0.8777526136 1.150098899e-38
0.4060945828 0.1197225641 0.9048065264 1.178839671e-38
0.3959475824 0.1095032881 0.9026783248 8.839584092e-39
0.4016781181 0.09629692759 0.8970406421 5.98440484e-39
0.3972891928 0.08933973338 0.8913933774 4.965935511e-39
0.3877108271 0.10062761 0.9025974047 3.956468123e-39
0.3862876962 0.09910948589 0.8823991952 5.059217147e-39
0.382946463 0.1019038689 0.9100636104 6.164121368e-39
0.40536449 0.09571858134 0.8865459517 6.437844004e-39
0.3904918641 0.09828294348 0.8993103185 6.805890841e-39
0.4056572494 0.1055212193 0.8949936795 6.806594293e-39
0.4135194091 0.1057797776 0.8862913184 6.807676096e-39
0.4092708379 0.09613348957 0.8866227392 7.083548323e-39
0.4063580861 0.1037472796 0.9044965145 7.450894511e-39
0.4065253921 0.1192971212 0.8849023983 7.634569708e-39
0.4090835673 0.08836897958 0.8885422817 7.908639865e-39
0.4190092559 0.1195239233 0.8807684046 8.00047396e-39
0.4263444573 0.1086183674 0.8837712936 8.18736934e-39
0.4090169153 0.1042921462 0.8789695456 8.28027683e-39
0.4249464923 0.09786179963 0.8756388939 8.373905988e-39
0.4052192354 0.07279705409 0.8762441869 8.557578381e-39
0.4111829255 0.1099185622 0.893332427 8.740906056e-39
0.4164999875 0.08866244466 0.8720171529 8.373220753e-39
0.4075208798 0.08398379101 0.8927541957 8.098417716e-39
0.4418350348 0.100292595 0.8770667139 8.83416387e-39
0.4099827904 0.09559356268 0.8803347602 9.659974278e-39
0.4276871713 0.1021392076 0.8744284441 9.567429725e-39
0.4391993579 0.1114717475 0.8750749845 9.475948757e-39
0.4348810247 0.08506725167 0.8751565377 9.570649909e-39
0.4327510549 0.08543205278 0.8765916087 9.661777749e-39
0.4315534695 0.0875368384 0.8589264398 9.752904188e-39
0.4294173897 0.1234892814 0.9009316667 9.845087207e-39
0.4266026426 0.08906653514 0.8737806959 1.002982459e-38
0.4317243671 0.1179593245 0.8564338039 1.030425628e-38
0.4366899579 0.09621578197 0.8672361096 1.05790467e-38
0.4240963845 0.1022099538 0.8860082391 1.094639009e-38
0.4427028955 0.08448644296 0.872322826 1.067124374e-38
0.4485006569 0.08875863511 0.8776634618 1.048794128e-38
0.4322248391 0.09149729737 0.8915653872 1.113367083e-38
0.4364118525 0.1170358826 0.8806566434 1.177435009e-38
0.4416341868 0.09918727802 0.8733875884 1.122475523e-38
0.4568329463 0.09646281396 0.8829952042 1.076487009e-38
0.4597967638 0.1012479369 0.8711119013 1.085599933e-38
0.4629668469 0.1138922164 0.8759809326 1.094963129e-38
0.4695304451 0.1044245415 0.8728701403 1.104290452e-38
0.4595516331 0.09561958202 0.8928838723 1.122441191e-38
0.4516056394 0.1016744467 0.8846230041 1.150062465e-38
0.444551723 0.09360795746 0.8826328929 1.18686785e-38
0.3700483165 0.1195523912 0.9094898313 1.189139495e-38
0.4083193342 0.1036826126 0.8967979916 1.078146006e-38
0.4023665906 0.08898417717 0.9089413534 9.671484544e-39
0.3928687058 0.09156783094 0.8898666119 7.637773076e-39
0.3949315273 0.1080776188 0.8865551935 5.514798896e-39
0.3953570617 0.09783088008 0.9041057257 6.160881566e-39
0.4069624229 0.1038545733 0.884740036 6.806974045e-39
0.3814963918 0.08625181146 0.8826865011 6.713360301e-39
0.4175322025 0.1098167883 0.8944944698 6.715856014e-39
0.4118584715 0.1012643618 0.8939200602 6.806599898e-39
0.3884418667 0.09662412861 0.8909590925 6.899868923e-39
0.3980600562 0.1029712315 0.8917629988 7.083181183e-39
0.4071957488 0.09674934268 0.8888617891 7.357973009e-39
0.404487014 0.1036666855 0.8874055056 7.541289473e-39
0.4163422223 0.1032014241 0.8771803678 7.724603134e-39
0.3954111248 0.1006362534 0.9047116562 7.816800165e-39
0.3973344953 0.1151066377 0.8816252674 8.00297808e-39
0.4194273347 0.09302845724 0.869747597 8.004410207e-39
0.3991867908 0.0971645334 0.8931091415 8.098396697e-39
0.4167427017 0.08981000486 0.8894644258 8.282785154e-39
0.4090104932 0.09768384174 0.8735178295 8.559017515e-39
0.4143428937 0.1178190474 0.8601277646 8.467190427e-39
0.4145403508 0.1165039815 0.8817749264 8.46753935e-39
0.4359852238 0.09433302533 0.883739181 8.925272092e-39
0.4331301388 0.1121541943 0.8501542174 9.383387388e-39
0.4398777186 0.1000602425 0.877603664 9.38304407e-39
0.4287573354 0.09158109123 0.8833002851 9.291198765e-39
0.4358580738 0.1176786567 0.8648653986 9.477371075e-39
0.4321922849 0.09197492889 0.8535145479 9.661762335e-39
0.4187920919 0.08742532882 0.8788775823 9.753241901e-39
0.4219001513 0.09981912668 0.8620080537 9.936548556e-39
0.4241251291 0.09829916851 0.8774304169 9.936184218e-39
0.4347033809 0.09007389246 0.8846563767 1.002659179e-38
0.4367060698 0.1063644177 0.8712607941 1.021098866e-38
0.4578183949 0.1031434092 0.8705425868 1.048757274e-38
0.4567456361 0.09896073101 0.8823627311 1.030390315e-38
0.4455706122 0.09624683661 0.8652742222 1.02113642e-38
0.4474985746 0.09340233832 0.8860686084 1.067127456e-38
0.4425913462 0.0992544429 0.8796932768 1.113149741e-38
0.4453987394 0.09948919629 0.8587767604 1.08559615e-38
0.4445192397 0.08198069714 0.8731641009 1.067230592e-38
0.4567943257 0.1030576952 0.8681357246 1.07648757e-38
0.4366024742 0.09420215085 0.8751070986 1.095106622e-38
0.4438913023 0.1033183566 0.8886564548 1.104183393e-38
0.462632273 0.1112722134 0.8734155579 1.113293374e-38
0.4601634111 0.1110534409 0.8789619158 1.131694525e-38
0.4656292682 0.1002817401 0.8777823449 1.150204417e-38
0.4026652367 0.1034669119 0.9018300436 1.27265408e-38
0.4047890299 0.1091336906 0.9180740603 1.34464691e-38
0.3948543745 0.09868859138 0.9011256501 1.030966529e-38
0.3996244639 0.1109375413 0.8896183923 7.175755163e-39
0.4023188525 0.1135864535 0.9087487909 7.256444731e-39
0.4183690712 0.1070475803 0.8892674729 7.444070188e-39
0.4105025829 0.1106547423 0.8973792523 6.98884577e-39
0.4112458015 0.09335154646 0.8932062759 6.622214244e-39
0.4136208753 0.09033866101 0.9092428218 6.806595694e-39
0.3861199979 0.09977610466 0.9000788046 6.99062682e-39
0.397181271 0.1120435796 0.8930937343 7.08282245e-39
0.4271565039 0.09579240365 0.8821146817 7.26613471e-39
0.4040174849 0.08628663458 0.8962542005 7.44944697e-39
0.416012793 0.1074810443 0.8735662978 7.633120765e-39
0.4118081344 0.1093376795 0.8913489247 7.725317796e-39
0.4095324101 0.1145481813 0.8815396289 7.818946954e-39
0.4169010777 0.1117419636 0.8680287215 7.820742018e-39
0.4275095499 0.09812034817 0.9013727875 7.821459483e-39
0.4157647452 0.1145573308 0.8831936037 8.09983583e-39
0.4154100776 0.09604019005 0.9027076239 8.467190427e-39
0.4231324826 0.1081322107 0.8765491222 8.650875432e-39
0.4153442105 0.1131854861 0.8896506934 8.833454813e-39
0.4227809015 0.09995768773 0.897863529 9.016392926e-39
0.4375443598 0.08483928241 0.8730496281 9.19936467e-39
0.4470191274 0.1060272351 0.8818944163 9.198664021e-39
0.4177356704 0.100135878 0.9039706051 9.199370275e-39
0.4306217492 0.09556756653 0.8721059259 9.384464987e-39
0.4343526217 0.1152587542 0.8786858467 9.659614144e-39
0.428714021 0.1137988698 0.8580039183 9.843285137e-39
0.4351153006 0.1105987307 0.8859052074 1.002730645e-38
0.4295602669 0.1091252209 0.8676749594 9.936178613e-39
0.4222317854 0.07474987023 0.8819841566 9.842916595e-39
0.4291628372 0.09756663222 0.8845003363 9.934401767e-39
0.4272335373 0.09693480794 0.866982637 1.002802952e-38
0.4663642828 0.11668468 0.8817670005 9.936551359e-39
0.4597779889 0.1016055572 0.8641900179 9.936924104e-39
0.4546134087 0.09778637774 0.8818573782 1.021280334e-38
0.4459714473 0.09459902077 0.8700466633 1.048828881e-38
0.4367081034 0.09312852306 0.8768356837 1.048755032e-38
0.4442798309 0.106945055 0.8855958539 1.057976137e-38
0.4322876339 0.09564042144 0.857128393 1.07659617e-38
0.4497987954 0.09222855206 0.8767038692 1.094928657e-38
0.4496386448 0.09946943433 0.8741052892 1.104077595e-38
0.45512517 0.094247641 0.870585809 1.113294916e-38
0.4645469322 0.09542311564 0.8968581656 1.113328687e-38
0.4735852064 0.1084162464 0.8882572491 1.113436307e-38
0.3992064414 0.08740079175 0.9009633342 1.327252732e-38
0.4007667897 0.1136957873 0.9098497193 1.197782563e-38
0.4101630116 0.09892960111 0.8811890158 1.077529996e-38
0.3873723943 0.09162069311 0.8950944618 8.827688469e-39
0.4012216731 0.1055048068 0.9019909574 6.89017474e-39
0.3898898879 0.1071532948 0.8889090149 6.158001898e-39
0.4055807776 0.103386102 0.8979131548 5.517665953e-39
0.403149409 0.09933497153 0.8766224448 6.160515827e-39
0.4081844369 0.1021576108 0.8855123328 6.711890339e-39
0.3906583121 0.109739788 0.8831104123 6.712610606e-39
0.4143736518 0.114038104 0.9021144673 6.713323867e-39
0.4168475293 0.08822800768 0.8733054548 6.990262483e-39
0.4284480823 0.1116315929 0.8843702169 7.357966002e-39
0.4066201635 0.1028984807 0.8811178904 7.357611474e-39
0.4042250238 0.1101853033 0.8909230191 7.448016244e-39
0.4195639603 0.1082128944 0.861435969 7.542368473e-39
0.4186706968 0.1112999383 0.8858422893 7.636715096e-39
0.4149542866 0.1128846055 0.8719558165 7.911864253e-39
0.435077175 0.1187083121 0.8816471247 8.187388958e-39
0.4255415909 0.1044461741 0.8850122306 8.371078167e-39
0.4075363797 0.096048686 0.8824733684 8.462892644e-39
0.4324362761 0.1098527215 0.8835723907 8.648696413e-39
0.4206985357 0.1023810373 0.8929964429 8.831669558e-39
0.4350251188 0.1194492697 0.8882009204 8.923526074e-39
0.4311067148 0.106960801 0.9035189573 9.016066423e-39
0.4205709753 0.09734344228 0.8814401845 9.200442269e-39
0.4341380821 0.1090974317 0.8860289053 9.475588624e-39
0.4232270881 0.1147997533 0.8717898782 9.842929207e-39
0.4345807848 0.1062169566 0.8872681688 1.030245281e-38
0.4429029238 0.1119839713 0.8796144709 1.002657498e-38
0.4151240594 0.09746146968 0.8690070016 9.751076895e-39
0.4348885614 0.1033293273 0.8877426068 9.842562067e-39
0.4644947225 0.1118066357 0.8754546948 9.843992792e-39
0.4505961424 0.1172947833 0.8791711813 9.936541549e-39
0.435575802 0.09679346938 0.8818859534 1.002910712e-38
0.4305347368 0.1063153323 0.8876981364 1.012095663e-38
0.4356296919 0.1003181823 0.8673933705 1.021278092e-38
0.4695838499 0.10776333 0.8723005948 1.030352901e-38
0.4573144384 0.1276379161 0.8784573433 1.039538272e-38
0.4558318932 0.1052026698 0.8631209548 1.057835446e-38
0.4481814215 0.1041892658 0.8715339826 1.066984804e-38
0.4363315102 0.1033227061 0.8974204836 1.076277655e-38
0.4734248077 0.1074542154 0.872892885 1.085566442e-38
0.4537177535 0.1192137559 0.8871793648 1.085635807e-38
0.4638742259 0.1033033744 0.8910870526 1.095035296e-38
0.4058596971 0.1188966444 0.9033998141 1.373423275e-38
0.4008072983 0.09383623017 0.9245305123 1.436411641e-38
0.4073372611 0.1197485125 0.9014136829 1.03075213e-38
0.398389007 0.1039385473 0.9058099708 6.347802169e-39
0.4059375834 0.1143466112 0.8852341429 5.419013139e-39
0.4014476431 0.1250202057 0.8835718873 4.503170706e-39
0.3906892934 0.1232978667 0.9046626982 5.516232424e-39
0.4156468436 0.1254006396 0.8932218032 6.526784417e-39
0.4092109355 0.09329906973 0.8979579832 6.34347496e-39
0.4192073676 0.1100492297 0.9068223921 6.161953559e-39
0.3950506661 0.1174476894 0.9017689269 6.622921899e-39
0.4136281205 0.1095267888 0.9008156788 7.082102183e-39
0.421448858 0.1210410304 0.8765876899 7.081747654e-39
0.3999806089 0.109876249 0.8943934072 7.172151023e-39
0.3999632591 0.1084961675 0.8758904829 7.264706787e-39
0.4240916587 0.1020579683 0.9091559177 7.449452575e-39
0.400455118 0.1084251467 0.8842136561 7.726391191e-39
0.4279872859 0.1055879736 0.8758424575 8.003343819e-39
0.4132856824 0.1199370367 0.8737124945 8.092322068e-39
0.423410564 0.1034914109 0.9011133437 8.187017614e-39
0.4194437999 0.1057720921 0.8760289208 8.372831192e-39
0.409353984 0.09991603529 0.8935945734 8.55615186e-39
0.4163765587 0.0978347794 0.8780921199 8.648354496e-39
0.4402377034 0.09403250948 0.8586328558 8.832021284e-39
0.4280077248 0.08511394802 0.8701886853 9.109317231e-39
0.4265695287 0.09965793096 0.8769117045 9.383031459e-39
0.4245778947 0.1103066956 0.8854716384 9.934045837e-39
0.4463322023 0.1079562215 0.8762507896 1.057653698e-38
0.4316950881 0.09680891424 0.8705881667 1.01173609e-38
0.4233091675 0.1126909857 0.8795218421 9.750377647e-39
0.4285563666 0.09748534145 0.8795523711 9.750737781e-39
0.4484345938 0.1131363576 0.854020162 9.750733577e-39
0.4380163826 0.1015607357 0.8913363415 9.934759098e-39
0.4296514767 0.1027937266 0.8785755521 1.011915877e-38
0.4361623167 0.1044585612 0.8957991523 1.002841068e-38
0.4398679202 0.1166396597 0.8661870237 1.002911693e-38
0.4666267259 0.09473894294 0.8676639787 1.011986642e-38
0.4642838971 0.09850181044 0.8885142032 1.030390595e-38
0.4634404923 0.09478671979 0.8838726263 1.03939576e-38
0.4654330686 0.1055991555 0.8916591726 1.048616584e-38
0.4798613109 0.1018873575 0.8692367336 1.057837408e-38
0.4749609552 0.1040161546 0.8939818466 1.067162629e-38
0.4681357056 0.1028769237 0.8830057695 1.067160947e-38
0.4641782272 0.0982860336 0.8805768457 1.076380791e-38
0.4063164685 0.1075832179 0.9156670807 1.446354414e-38
0.4021168319 0.1318109225 0.9161985341 1.252849669e-38
0.4127511909 0.09248013946 0.9009310087 1.059343103e-38
0.43061689 0.112903231 0.9028226584 8.833069456e-39
0.4078093706 0.1254944596 0.9059836456 7.073129669e-39
0.3906297267 0.1089215519 0.89252928 6.432434991e-39
0.4187611969 0.1089218469 0.8945612509 5.794970307e-39
0.4046678687 0.09036699595 0.9069989065 6.067968471e-39
0.4019564267 0.1231302826 0.9027280622 6.437460048e-39
0.42089277 0.0992840782 0.879371111 6.714041332e-39
0.4031880727 0.09503464313 0.895417116 6.990268088e-39
0.4154112529 0.09260869155 0.8954893444 7.081031591e-39
0.4132994921 0.1044391284 0.8885664011 7.172151023e-39
0.4130291823 0.1042267979 0.8727015517 7.264705386e-39
0.4121930704 0.1166969479 0.8762955224 7.449805702e-39
0.4393389487 0.09859685187 0.8800406349 7.633831223e-39
0.4285867946 0.09313414464 0.8883842999 7.819658814e-39
0.4184174949 0.1050439675 0.8554082922 7.819305687e-39
0.4278608373 0.1063894894 0.8730913665 7.911141183e-39
0.4149166524 0.1082183473 0.8776233719 8.096607239e-39
0.4356561645 0.1160254456 0.8814193673 8.280632759e-39
0.4368943853 0.1019179846 0.8846950059 8.372465453e-39
0.4320035942 0.1075460346 0.8878567078 8.556499382e-39
0.4253507075 0.1189252128 0.8923696999 8.831651342e-39
0.4405140235 0.1117518248 0.8717988131 9.107162034e-39
0.4295718272 0.107585018 0.8954868565 9.474866955e-39
0.4154458824 0.1033973776 0.8747274415 9.842224354e-39
0.4273026946 0.1032670536 0.8628953748 9.657851311e-39
0.4409613292 0.1032662554 0.859766697 9.565291343e-39
0.4328959139 0.1034392294 0.8826988394 9.658913495e-39
0.4378647708 0.1037130522 0.8799988316 9.74966859e-39
0.4393884286 0.1014820675 0.8654873169 9.841501284e-39
0.436326075 0.1011559028 0.8925016515 9.933345188e-39
0.4609354618 0.1317637399 0.8877913268 9.843671895e-39
0.4395451342 0.1109875808 0.8735037302 9.845454347e-39
0.452100986 0.09521179187 0.8881797086 9.937280034e-39
0.4383695213 0.1161562459 0.8858084407 1.012095243e-38
0.4639996734 0.1317501303 0.8930368443 1.01205965e-38
0.4601581931 0.111379323 0.883033707 1.021208307e-38
0.4691293964 0.1052934338 0.87216326 1.030500597e-38
0.4494498586 0.1191495446 0.8861219854 1.039790646e-38
0.4689741286 0.09876823777 0.891595154 1.048757975e-38
0.4692418344 0.1070084942 0.8809110244 1.058013411e-38
0.4037017039 0.08717293735 0.9010699984 1.474120302e-38
0.3969983981 0.1104361626 0.9003815841 1.491692585e-38
0.4053407498 0.0969951293 0.9029890442 1.224610563e-38
0.4050254905 0.1126757687 0.8892082124 9.659616947e-39
0.3938748604 0.122250878 0.9007464208 7.348636157e-39
0.414961345 0.1264796557 0.9090051448 5.055261281e-39
0.4057783324 0.1182572013 0.9031799059 5.884293275e-39
0.4095073647 0.1189001371 0.8925526115 6.712605001e-39
0.4126634102 0.1090455617 0.883365779 6.805157962e-39
0.4183127166 0.1060248794 0.905877251 6.896641732e-39
0.4188169501 0.1033901738 0.8906331135 7.080319731e-39
0.4100454842 0.1122711309 0.8967608856 7.263629189e-39
0.4276430594 0.1094043725 0.8897323478 7.356898213e-39
0.420596969 0.1169771711 0.8866944295 7.449086836e-39
0.4256826182 0.09475080865 0.8700749594 7.541276861e-39
0.4172687829 0.1092981097 0.8819724778 7.633475294e-39
0.4191283008 0.09840295365 0.9013931581 7.63383823e-39
0.4131727259 0.1064095261 0.8830314704 7.634565504e-39
0.4267609328 0.1244892896 0.8701451702 7.8203987e-39
0.4279007315 0.1113491945 0.88734484 8.004777348e-39
0.4355296705 0.09397143629 0.8931246839 8.190233594e-39
0.4416282273 0.1126833838 0.9004372683 8.372110924e-39
0.4324744136 0.0952618527 0.8892940489 8.647618814e-39
0.4227925552 0.1087866852 0.8887214753 8.923128105e-39
0.4246225585 0.1103377084 0.8840254941 9.016042601e-39
0.4272114733 0.1104424304 0.8616908299 9.19900874e-39
0.4466005307 0.1017315826 0.8809591511 9.290137982e-39
0.442990133 0.09827466202 0.8720193632 9.381250408e-39
0.4473690163 0.112805228 0.89360652 9.56706819e-39
0.4448740472 0.1253602136 0.8903974892 9.841854411e-39
0.444988629 0.1148279706 0.8741872291 9.749658781e-39
0.4450655436 0.1085275506 0.8673125808 9.75002452e-39
0.4449338276 0.09256399379 0.877238537 9.751107724e-39
0.4675731824 0.09306034098 0.883849218 9.752174112e-39
0.4480303914 0.098150619 0.873084256 9.845075996e-39
0.4497408924 0.1112122222 0.8875114809 9.937273027e-39
0.4590655861 0.1342294731 0.8686142099 9.937635964e-39
0.4538740941 0.1138243749 0.9029993933 9.93764297e-39
0.469926839 0.1192751318 0.8741876971 1.002984561e-38
0.4577414124 0.1008055963 0.8796503759 1.012132097e-38
0.4608291571 0.125859206 0.8602556603 1.030391436e-38
0.4466088885 0.1066596617 0.8908504288 1.048758115e-38
0.4035799707 0.1029944392 0.9040510577 1.428919458e-38
0.4079561797 0.1166529831 0.8883265471 1.317743241e-38
0.3993736148 0.1084008401 0.9146963321 1.215749872e-38
0.3761012768 0.1142785908 0.881462399 9.661023851e-39
0.41304514 0.1154209549 0.9105711834 7.166757426e-39
0.40647262 0.1089938086 0.9040891196 6.526420079e-39
0.4126659114 0.1117535466 0.8955937928 5.794248638e-39
0.4145179837 0.1250332964 0.8931809438 6.343110622e-39
0.4193998142 0.1112474097 0.8947169005 6.98381651e-39
0.4151271791 0.1225848944 0.8979387664 6.987054911e-39
0.4207400798 0.1120213291 0.8971597499 7.079960999e-39
0.4149190949 0.1242638607 0.8850062343 7.17179089e-39
0.409305556 0.1161443815 0.8976611993 7.355816411e-39
0.4338670186 0.1062652739 0.8817140732 7.357964601e-39
0.4174852177 0.1097294322 0.89952015 7.359043601e-39
0.4229246455 0.1147289738 0.9000966501 7.358687671e-39
0.4257837862 0.1009785255 0.8837195116 7.358347156e-39
0.4180407821 0.1190861238 0.8898823599 7.544190161e-39
0.4213978092 0.1199298676 0.8955589339 7.728923337e-39
0.4224399354 0.1176730865 0.8874085177 7.912580316e-39
0.4463023784 0.1222571624 0.8719686317 8.096247105e-39
0.4157337297 0.1066176158 0.8839340649 8.279915295e-39
0.4397719713 0.1156599853 0.8803632049 8.555423184e-39
0.445717101 0.1179425267 0.8818223164 8.647261483e-39
0.4421817284 0.1049203756 0.879521831 8.739464119e-39
0.4491562167 0.1195816149 0.8854242034 8.922426055e-39
0.4364193214 0.114111224 0.8732809094 9.105732709e-39
0.4488898329 0.1083127467 0.8628409319 9.290834428e-39
0.436099478 0.1117386777 0.8636165519 9.475940349e-39
0.4360060035 0.120967442 0.868747924 9.474864152e-39
0.4614415241 0.09079925365 0.8725208403 9.474868356e-39
0.4415988675 0.109158116 0.8835609013 9.56706819e-39
0.4457041952 0.1085623919 0.8783030666 9.567417113e-39
0.4710957709 0.1064034879 0.8759626463 9.659601533e-39
0.4434659606 0.1247350759 0.8826124409 9.751801366e-39
0.4739099778 0.1082562036 0.8807971847 9.753241901e-39
0.4592573397 0.1055093932 0.8795461066 9.754681035e-39
0.4568282393 0.1209810069 0.8654098123 9.84580327e-39
0.4576145542 0.1061305971 0.8807742654 9.937288442e-39
0.4653511661 0.1144863872 0.8809421965 1.002877361e-38
0.476226822 0.1176757243 0.8825561177 1.01195217e-38
0.4024615367 0.1265211715 0.9009336779 1.410587952e-38
0.3999834193 0.1322952624 0.8997974004 1.464358016e-38
0.4229748442 0.1211455565 0.8991005404 1.197206209e-38
0.4059103473 0.1178478373 0.908918219 9.384124471e-39
0.4156831533 0.1363297163 0.9136629864 7.163528834e-39
0.4075191279 0.11592911 0.9144370605 4.960194391e-39
0.4175439302 0.1248832272 0.9129975916 5.971462447e-39
0.4250321273 0.1070374905 0.8883692496 7.075649203e-39
0.4116597064 0.1108377997 0.9028219685 6.985975911e-39
0.4290457648 0.1096218103 0.8802258218 6.987047904e-39
0.430736731 0.1185600751 0.8822257521 7.078520464e-39
0.4271072226 0.10492248 0.9037201239 7.262187252e-39
0.4227151363 0.1025680414 0.8812979905 7.174653743e-39
0.4100012824 0.1159561111 0.8741289804 7.175012475e-39
0.4529598824 0.1095514998 0.8695802987 7.176806137e-39
0.4237536871 0.1065496577 0.8889916133 7.176458615e-39
0.423151921 0.1161197962 0.8736133673 7.268306723e-39
0.4446769839 0.114854395 0.8700908395 7.452329441e-39
0.4253135391 0.09996367483 0.8824535879 7.636353561e-39
0.405915014 0.1175485104 0.8926628592 7.912213176e-39
0.4402260933 0.1048735684 0.8697666579 8.004403201e-39
0.4341028936 0.1219764313 0.8881547705 8.187360932e-39
0.4205619916 0.1308820654 0.8822911734 8.278843301e-39
0.4339487278 0.1127193262 0.8796518763 8.369249473e-39
0.4188973728 0.1251549256 0.9022699364 8.643686771e-39
0.4438614512 0.1157104495 0.8731285952 8.920619781e-39
0.4381866547 0.124253785 0.8917628527 9.014600665e-39
0.4391469329 0.102439395 0.8799334208 9.107156429e-39
0.438324779 0.1235829016 0.8626377376 9.199713594e-39
0.4360168759 0.120599565 0.8815180623 9.290833026e-39
0.4295237754 0.1157202096 0.8863958636 9.38195386e-39
0.4617564342 0.1059264772 0.8897436514 9.475580216e-39
0.4702298078 0.142810715 0.8806455778 9.475577413e-39
0.4269310795 0.1208637029 0.8689268872 9.567059782e-39
0.4610365479 0.1028017147 0.8812965415 9.567065387e-39
0.4550140653 0.1173520777 0.8709870406 9.661413412e-39
0.4618872857 0.1171267474 0.8605640313 9.661773545e-39
0.4462919789 0.1130364922 0.8771039842 9.753627258e-39
0.4643309841 0.1192918155 0.8954394059 9.753645475e-39
0.4571754107 0.1065463029 0.8760463196 9.752192329e-39
0.413590967 0.1102236639 0.9230219138 1.465046334e-38
0.4180118626 0.129467526 0.9132783419 1.345084255e-38
0.4100998663 0.1194206214 0.9265914098 1.225115591e-38
0.4203402192 0.09348810612 0.9012707452 1.02116781e-38
0.4106481411 0.130938834 0.9102607711 8.173719292e-39
0.427991182 0.1327979281 0.9164745577 6.980575307e-39
0.403370089 0.1142058677 0.8945542234 5.790309588e-39
0.4047073365 0.1292026182 0.8909862887 6.250931808e-39
0.4258558747 0.1172627548 0.9059483525 6.803735644e-39
0.4235435048 0.1258893258 0.9151498872 6.710462416e-39
0.4249167131 0.1122957435 0.8977261507 6.709382015e-39
0.4150638402 0.1083815183 0.9100899577 6.712607804e-39
0.4346340919 0.1376842163 0.8890872297 6.71547486e-39
0.4187943879 0.1140729439 0.8917857239 6.715832192e-39
0.4349640879 0.1269407461 0.8845032734 6.808389356e-39
0.4144535989 0.102318646 0.8839540461 6.992423285e-39
0.4242189172 0.1305372534 0.891811886 7.268289907e-39
0.428574435 0.1114149813 0.8888727248 7.452321033e-39
0.4367507252 0.09735794188 0.8789957096 7.634191357e-39
0.4238701546 0.1222424064 0.8832995303 7.817856744e-39
0.4416836145 0.117731378 0.9000595411 8.001893475e-39
0.4390785915 0.126856964 0.8746628062 8.00297808e-39
0.4434460875 0.1182550498 0.8959276955 8.092306654e-39
0.4246801389 0.1254657796 0.8805091042 8.275983251e-39
0.4239184958 0.1052951792 0.8732093568 8.551837262e-39
0.4391208584 0.1182546331 0.9001872071 8.737649438e-39
0.4114093574 0.09349805202 0.8677062126 8.922403634e-39
0.4352422526 0.1063649165 0.8794631341 9.014604869e-39
0.4508527539 0.1266797291 0.886544882 9.106797696e-39
0.4505973985 0.1069511317 0.8822093437 9.199350657e-39
0.453265078 0.1185161421 0.8832940209 9.292266555e-39
0.4581384704 0.1143679284 0.8909786778 9.383747522e-39
0.4442572676 0.1096471247 0.8699617951 9.474871159e-39
0.4406388104 0.1022548048 0.8869282761 9.567429725e-39
0.4469100995 0.09789484596 0.8654454977 9.660340017e-39
0.448866265 0.1058996431 0.8836204846 9.660697348e-39
0.4824588792 0.102215983 0.8730739971 9.661084106e-39
0.4600354517 0.1242211577 0.880095704 9.385246912e-39
0.4659732511 0.1098648017 0.875145265 9.201549295e-39
0.4158520557 0.1135136967 0.8956681665 1.465083188e-38
0.4004551187 0.1095751498 0.9157126935 1.484274811e-38
0.4107078513 0.1161699435 0.9171451319 1.510421219e-38
0.407559663 0.1161648735 0.9004247656 1.326027717e-38
0.425194766 0.1304916219 0.9096421573 1.140558439e-38
0.4230168751 0.1158004134 0.9117391976 7.990048299e-39
0.4284682525 0.1435804208 0.909151468 4.592497878e-39
0.4107022025 0.1272670502 0.9085610975 5.603410004e-39
0.4059975567 0.1311572646 0.8971576623 6.615035392e-39
0.4125565715 0.1136061996 0.8872127547 6.340963833e-39
0.4261330665 0.1287536463 0.8943618706 6.15764877e-39
0.4422980201 0.09508761424 0.8797980499 6.159080897e-39
0.4278923804 0.1151126073 0.8803561467 6.253068788e-39
0.4342426485 0.1174800172 0.8966818436 6.347415411e-39
0.4284006874 0.1088956748 0.876961761 6.439971175e-39
0.4283276495 0.115636565 0.8923296424 6.808752293e-39
0.4354463608 0.1099586636 0.8914844706 7.17646422e-39
0.4257965459 0.1335194462 0.9051169008 7.268310927e-39
0.4223189001 0.1248055476 0.8806367082 7.450175645e-39
0.4447844017 0.134698918 0.8893190966 7.634551491e-39
0.4398382456 0.1280571137 0.8903340465 7.910420916e-39
0.4540663117 0.1100093006 0.8849767809 7.818948356e-39
0.4249469299 0.1232131221 0.896826411 7.818598031e-39
0.4284922739 0.1180333054 0.8880575693 8.001918699e-39
0.4510274059 0.09941478213 0.8787800973 8.277413977e-39
0.4324763277 0.1251392898 0.8875995972 8.552910656e-39
0.4458045734 0.1138306786 0.8887659657 8.828061215e-39
0.4437088088 0.1260748194 0.8884865926 8.828065419e-39
0.4536783699 0.1213138608 0.8767061319 8.923488239e-39
0.4421555371 0.1091615313 0.8953113555 9.016758665e-39
0.4503608185 0.1005676883 0.8931717765 9.20043246e-39
0.4400618043 0.1224704461 0.8932442625 9.291912026e-39
0.4591193181 0.1183118478 0.8540235549 9.474869757e-39
0.4482810696 0.1151813749 0.8930575686 9.568144387e-39
0.4642825754 0.1125582063 0.8892104778 9.659261017e-39
0.4454480178 0.1239821587 0.8774172035 9.658542151e-39
0.4676994309 0.1176355835 0.8757158058 9.659276431e-39
0.4491179932 0.1203198484 0.8894203364 9.109357869e-39
0.4756288379 0.125195034 0.8873066064 8.649803439e-39
0.4905801179 0.1159229166 0.8953098897 9.016768474e-39
0.4158236732 0.1216315622 0.9169835719 1.419203135e-38
0.4087417353 0.1223589342 0.9135059463 1.446752102e-38
0.412915359 0.1266955452 0.9086802941 1.39139801e-38
0.4186910796 0.1248897293 0.9075382581 1.336036351e-38
0.4017506461 0.1132136493 0.9058711136 1.086385361e-38
0.4233315608 0.1174397814 0.9221372039 8.459270288e-39
0.4409662783 0.1176501143 0.9095421865 7.07492193e-39
0.434220036 0.1115774936 0.8866361047 5.605555392e-39
0.4302172035 0.1147662889 0.8932688202 5.513722699e-39
0.4145526496 0.1268567108 0.8916917344 5.51408003e-39
0.432132453 0.118814051 0.9165577307 5.790661314e-39
0.4439805244 0.1127252212 0.9070150893 6.159080897e-39
0.4475030453 0.1299852014 0.8947395112 6.161234693e-39
0.4124379136 0.109362231 0.8952639606 6.16338989e-39
0.4373753067 0.1307881853 0.9011097626 6.532529741e-39
0.4212922306 0.1358093698 0.8775864827 6.901327674e-39
0.42995317 0.09829504235 0.8926462436 6.900272497e-39
0.4186111933 0.1224621212 0.8769355605 6.898817949e-39
0.4358411265 0.1120686832 0.8936999899 7.176098481e-39
0.4446750707 0.1166049136 0.890939108 7.544516663e-39
0.4293614169 0.1151939863 0.8853604227 7.635636096e-39
0.4309513576 0.1151256064 0.915545664 7.728917732e-39
0.4655214683 0.1296872593 0.8943836416 7.818613445e-39
0.4409450949 0.1285881735 0.9055602428 8.001557164e-39
0.4543638955 0.1190161917 0.8741123751 8.277412576e-39
