# .PCD v0.7 - Point Cloud Data file format
VERSION 0.7
FIELDS x y z rgb
SIZE 4 4 4 4
TYPE F F F F
COUNT 1 1 1 1
WIDTH 845
HEIGHT 1
VIEWPOINT 0 0 0 1 0 0 0
POINTS 845
DATA ascii
0.2239620275 -0.0665460199 0.7448368235 8.282787956e-39
0.1994093751 -0.05852803453 0.7432253477 8.283509625e-39
0.2169993729 -0.06462161637 0.7392655058 8.372833994e-39
0.2064879521 -0.07250146687 0.7226836119 8.465745688e-39
0.2215199669 -0.06771308592 0.7216837099 8.64941668e-39
0.2304819283 -0.06006959852 0.7334683257 9.016758665e-39
0.2157124249 -0.0825671063 0.7465903149 9.383018847e-39
0.2227564972 -0.06821579031 0.7547922162 9.932950022e-39
0.2207123925 -0.06745550674 0.7249972345 1.048468467e-38
0.2164734554 -0.05676120088 0.7300683325 1.076306522e-38
0.2164829948 -0.04343275481 0.7203541954 1.113041281e-38
0.2318923591 -0.06759188061 0.7260261919 1.131695927e-38
0.2495971685 -0.06847118574 0.7113045815 1.159283009e-38
0.2570808581 -0.05933644099 0.7187941989 1.140988217e-38
0.1975839841 -0.04318610144 0.7420114513 1.131626422e-38
0.2288101693 -0.059863741 0.721144584 1.11343981e-38
0.2407502837 -0.07502770757 0.7158655544 1.103969695e-38
0.2306008295 -0.06332081661 0.7062915068 1.122086242e-38
0.2426601209 -0.03757339536 0.7377814147 1.149709478e-38
0.2470415955 -0.06546982091 0.7237235833 1.177655573e-38
0.2354242363 -0.04808399828 0.7429297496 1.214459977e-38
0.2332530705 -0.05824600672 0.7208858636 1.26963148e-38
0.2235309886 -0.07086913998 0.7388965678 1.324768931e-38
0.2414259971 -0.0575265797 0.7165734244 1.361539283e-38
0.2445390342 -0.0698815205 0.7412568146 1.407707863e-38
0.2434622051 -0.05052324249 0.746606728 1.417142386e-38
0.238623084 -0.05707495975 0.7298951879 1.434969985e-38
0.2360701767 -0.0726037984 0.7169937276 1.306111903e-38
0.2562775821 -0.05598807504 0.755155392 1.177470742e-38
0.2486755902 -0.07106326532 0.7493250611 1.187120924e-38
0.2499692962 -0.03194701069 0.7477677855 1.205452571e-38
0.2615647417 -0.05524229458 0.7726525507 1.205453131e-38
0.2712675815 -0.05726561738 0.7422705531 1.205597185e-38
0.2716308449 -0.06031306308 0.7394407904 1.224144211e-38
0.2677994629 -0.05475898232 0.7628326015 1.242475016e-38
0.2803041054 -0.05960265024 0.7374466024 1.27960354e-38
0.2720914122 -0.05255885889 0.7458710142 1.31612306e-38
0.2823035186 -0.05782651358 0.7489333045 1.288572831e-38
0.2777065241 -0.06232867742 0.7607330125 1.270205872e-38
0.2655410007 -0.05600227542 0.7459953684 1.251838913e-38
0.2965100028 -0.0634999392 0.7644030507 1.242618649e-38
0.2820638919 -0.05792492263 0.7784509247 1.260985048e-38
0.2860875858 -0.05047697851 0.7840212037 1.279317395e-38
0.2950442593 -0.07346295564 0.7792601652 1.316052854e-38
0.2994872329 -0.06521245554 0.7791496917 1.352822226e-38
0.3112420515 -0.07973506129 0.7942189375 1.371224637e-38
0.3079566698 -0.04302495183 0.8009147255 1.398740254e-38
0.3045345305 -0.06206125756 0.7914043553 1.407924644e-38
0.2825521456 -0.06277796894 0.8070015741 1.41717924e-38
0.2973547571 -0.07285844137 0.8065838244 1.426433835e-38
0.3167227162 -0.0645264559 0.7920770311 1.444801355e-38
0.3212875722 -0.0549923955 0.7954289309 1.435653959e-38
0.3007638272 -0.06140463514 0.7973060511 1.426469849e-38
0.3021783007 -0.06720965829 0.7944288894 1.408066175e-38
0.3164305079 -0.07931155597 0.8042462644 1.398883046e-38
0.3260990505 -0.08828410368 0.803748111 1.380480494e-38
0.3123490176 -0.03410417058 0.8044256862 1.362148848e-38
0.3126024101 -0.06437533779 0.7911731683 1.316194946e-38
0.3125884028 -0.06029196608 0.8081981527 1.279424174e-38
0.3172245479 -0.06809381226 0.8199046877 1.251478219e-38
0.1930274585 -0.0534604979 0.7957654149 1.040224348e-38
0.1927207396 -0.06703771476 0.7637677789 9.299868599e-39
0.1932773308 -0.0592478884 0.7829231369 8.197855257e-39
0.1916547138 -0.04779908607 0.7886423514 9.395676776e-39
0.2058110052 -0.05921286163 0.7721987633 1.059133189e-38
0.1999589162 -0.07231670896 0.7957962814 1.123956135e-38
0.1996878705 -0.05560784361 0.7824247327 1.188597613e-38
0.2114105069 -0.06210472835 0.788474392 1.105369732e-38
0.1999946518 -0.0698199641 0.739754988 1.022178986e-38
0.216998408 -0.0632576343 0.7517807308 9.117247179e-39
0.2044073419 -0.05034785355 0.7413219622 8.013063225e-39
0.2016044402 -0.06534111354 0.7340686349 7.824724508e-39
0.1948768098 -0.04878669163 0.7525671223 7.728200267e-39
0.2014758018 -0.06801712991 0.7450628426 7.177163468e-39
0.2118874579 -0.07683609368 0.7363877725 6.626164504e-39
0.1978798121 -0.04116752935 0.747345917 7.359428958e-39
0.2035712192 -0.05169261989 0.7670681888 8.184859615e-39
0.1963133488 -0.04934219196 0.7566971304 8.185207137e-39
0.2170827079 -0.04409024449 0.748546045 8.095524035e-39
0.2168166088 -0.07129424494 0.7317532164 7.912571909e-39
0.2035730411 -0.06367259487 0.7529301004 7.729985521e-39
0.2078218167 -0.04739982093 0.7332688588 8.005501819e-39
0.2090576441 -0.06278048831 0.7407881694 8.189525938e-39
0.1936807192 -0.07927242123 0.7336043557 8.097327506e-39
0.2261168572 -0.05123760743 0.7368126558 8.00549201e-39
0.2260376201 -0.04827981136 0.7370661859 8.463953427e-39
0.2120112101 -0.06815548356 0.7253109897 8.922769373e-39
0.2290982904 -0.08219943114 0.7360416407 9.381945452e-39
0.2258957003 -0.05889107059 0.7346486157 9.840767003e-39
0.222685849 -0.07205024564 0.7225948073 1.011914755e-38
0.24345569 -0.05626115333 0.7384866351 1.048684547e-38
0.2284032905 -0.03853399843 0.7133503458 1.067051506e-38
0.2360872331 -0.05300191796 0.7228850119 1.094638449e-38
0.2104038835 -0.06267615696 0.740331218 1.085491333e-38
0.2301896799 -0.06049177986 0.7525559363 1.076380791e-38
0.2472604183 -0.06521388634 0.7474169584 1.067090883e-38
0.2462935217 -0.06578904389 0.7385754843 1.057800274e-38
0.2165903536 -0.06298315761 0.7338182508 1.048617285e-38
0.2366317822 -0.05438856635 0.7298395627 1.039541495e-38
0.2398920592 -0.06354084077 0.7291925773 1.103862356e-38
0.2362520967 -0.06556172895 0.7490785461 1.168217828e-38
0.2273864078 -0.05021466589 0.7208906888 1.223497511e-38
0.2418704502 -0.0633123311 0.7143990974 1.278742862e-38
0.244847474 -0.05305830443 0.7285842277 1.315298395e-38
0.2193494951 -0.04570075295 0.7174350446 1.351888821e-38
0.2340437785 -0.05596618902 0.7420205017 1.370506892e-38
0.2389543894 -0.06703641898 0.7391381377 1.398307673e-38
0.248112469 -0.06831005137 0.724478199 1.250867673e-38
0.2612147449 -0.08530821069 0.7766296503 1.09463999e-38
0.2651638644 -0.04524139515 0.7499890567 1.113150862e-38
0.2608229667 -0.04709040571 0.7646779055 1.140845144e-38
0.2720590175 -0.06083419498 0.751398792 1.150244074e-38
0.2583546275 -0.04373016128 0.7541506353 1.159428184e-38
0.2712579978 -0.06573708559 0.7459237911 1.168827533e-38
0.2743700323 -0.06099257146 0.7706444288 1.178190309e-38
0.2613341634 -0.07337255984 0.7455925839 1.205812564e-38
0.2561047228 -0.05758842163 0.7503669582 1.242618789e-38
0.280154689 -0.05374876028 0.7402644156 1.242583336e-38
0.2840249794 -0.04864100484 0.7614177699 1.242547463e-38
0.2798344657 -0.05386629127 0.7677084632 1.224072884e-38
0.2821057071 -0.07398279781 0.783515803 1.205597185e-38
0.2811488101 -0.05177618013 0.785083022 1.251585698e-38
0.2796995324 -0.06441956756 0.7951482896 1.297613168e-38
0.2793633228 -0.0721216486 0.7852156201 1.334421215e-38
0.3027150171 -0.06820232715 0.7905644413 1.380373715e-38
0.293909154 -0.05903850386 0.7813283842 1.389592017e-38
0.2890827889 -0.04455698246 0.7848784985 1.40799597e-38
0.2983410775 -0.06933426326 0.796319253 1.389665725e-38
0.3044027781 -0.05333444385 0.7996841789 1.380517068e-38
0.290886207 -0.06094519858 0.8121569992 1.3989192e-38
0.3141908408 -0.05186857287 0.8073785427 1.426542436e-38
0.3125239499 -0.05593009564 0.7908069664 1.426507543e-38
0.3148935093 -0.0865162498 0.7880236156 1.426470829e-38
0.2946286249 -0.07942708426 0.8028257812 1.40810303e-38
0.3151389203 -0.0636950983 0.7946362594 1.39891976e-38
0.3070967029 -0.05495569608 0.7849675331 1.380517068e-38
0.316252785 -0.06321759718 0.8093564768 1.37136799e-38
0.3199488943 -0.06439694341 0.7861429967 1.343780207e-38
0.3242816632 -0.06898322577 0.8047656799 1.316084944e-38
0.3160508811 -0.05465199201 0.8070987623 1.288533314e-38
0.3101799699 -0.05588273241 0.8183302179 1.260984487e-38
0.2044422874 -0.0358270486 0.7771143899 9.758664926e-39
0.2001279163 -0.04936164349 0.7887410471 8.010574519e-39
0.1757371577 -0.0543371077 0.7665942441 6.268585366e-39
0.200648614 -0.0588999984 0.7711142995 8.199658728e-39
0.1962104141 -0.05043885815 0.7843276799 1.013178587e-38
0.1856908592 -0.04877410806 0.7671505323 1.050701436e-38
0.1854163834 -0.06438098716 0.7709978028 1.087470527e-38
0.2139351292 -0.07417598933 0.7847904487 1.012781459e-38
0.1976519212 -0.05539405575 0.7692921828 9.392760674e-39
0.1967723607 -0.05547240027 0.7809999039 8.749902392e-39
0.216379313 -0.0703739279 0.7544242135 8.195299288e-39
0.21175759 -0.05451046616 0.7533998334 8.100232398e-39
0.1995493678 -0.05525356748 0.7497141571 8.004072494e-39
0.2100559074 -0.05087389716 0.7572744659 7.822176947e-39
0.1976848172 -0.05943397754 0.7413140636 7.729629592e-39
0.2187121189 -0.07494818625 0.7381742171 8.004782953e-39
0.2172670446 -0.04644574551 0.7356915351 8.368889339e-39
0.2141428093 -0.06199251783 0.7384070552 8.092298246e-39
0.2034328844 -0.04613520061 0.7685066375 7.908627253e-39
0.2108596072 -0.05768375403 0.7576593292 7.541644001e-39
0.2149039064 -0.07557419817 0.7464581537 7.267215111e-39
0.2259766427 -0.07484055114 0.7705697467 7.635634694e-39
0.2015423286 -0.06472491121 0.7508951376 8.096965971e-39
0.2130488874 -0.06085312389 0.7460232424 7.729625388e-39
0.2095664821 -0.05497107718 0.7284096682 7.454118899e-39
0.2104059229 -0.06479718807 0.7339031831 8.004054278e-39
0.2249415745 -0.0712631026 0.7482818978 8.555065853e-39
0.224073571 -0.06045345261 0.7436900537 8.92276657e-39
0.2284933812 -0.04836396533 0.7180964329 9.290108555e-39
0.2165700195 -0.04352617874 0.7071099508 9.567049973e-39
0.2259091745 -0.0590153476 0.7277357026 9.84327813e-39
0.2150111245 -0.05009162311 0.749130664 1.002767079e-38
0.2298841955 -0.05563429462 0.7502254 1.030281995e-38
0.2247909794 -0.06001097093 0.7294089234 1.021062712e-38
0.231778116 -0.05896511843 0.7086230246 1.021062992e-38
0.2435869619 -0.04112328419 0.7264347193 1.011879723e-38
0.2307915215 -0.03226559111 0.7349958405 1.011879723e-38
0.2373876055 -0.06730801808 0.7416175283 9.659621151e-39
0.2271188498 -0.05109522577 0.7332447996 9.293005039e-39
0.2190876093 -0.05695311956 0.7423835842 1.030392277e-38
0.2252477188 -0.04381015037 0.7212053971 1.131482088e-38
0.2359097663 -0.06663373326 0.7444875908 1.177470742e-38
0.2323011891 -0.04000358009 0.7303691481 1.232572741e-38
0.2483079587 -0.03340769202 0.7249025886 1.26012409e-38
0.2408291704 -0.06243811438 0.7303951641 1.296786262e-38
0.2318128069 -0.03665290307 0.7411721171 1.333843179e-38
0.2492084028 -0.05571448115 0.7399546947 1.370541084e-38
0.2333383356 -0.05069357128 0.7403623241 1.195622742e-38
0.2710877266 -0.0531461018 0.7778187446 1.02124348e-38
0.2506135597 -0.0451144819 0.7598656784 1.048902449e-38
0.2544586395 -0.05506944525 0.7508562302 1.076560577e-38
0.2653440197 -0.04406598047 0.7618374696 1.095071029e-38
0.2628347216 -0.06214145631 0.7512952997 1.122657692e-38
0.2725108332 -0.05224672255 0.764594745 1.122729578e-38
0.2647850622 -0.0640370988 0.7368651023 1.122980971e-38
0.2789108637 -0.07094471193 0.7482869522 1.141527717e-38
0.2737596724 -0.06318731079 0.7660452979 1.168971026e-38
0.2619018808 -0.04315680828 0.7591580567 1.196414336e-38
0.2612966351 -0.06118874643 0.7749915593 1.223929111e-38
0.2817370413 -0.05670722077 0.7522714476 1.196342449e-38
0.2956195945 -0.04934669171 0.7903416788 1.177974789e-38
0.2924405416 -0.06267145573 0.7798252522 1.251478639e-38
0.2914821748 -0.0679958268 0.774728545 1.325271016e-38
0.284739287 -0.05034872696 0.798090186 1.362078082e-38
0.2893386906 -0.05085093773 0.7848943875 1.408030723e-38
0.2778075553 -0.05204206788 0.7907811193 1.408065755e-38
0.304107939 -0.06753927718 0.7830946268 1.417248884e-38
0.3095781615 -0.05221654334 0.7939527998 1.380514265e-38
0.3062984403 -0.07072464271 0.7909762001 1.35300019e-38
0.3166654168 -0.05917933895 0.78491566 1.380587553e-38
0.312498712 -0.06365997325 0.8008716741 1.408174636e-38
0.3160939213 -0.05762926892 0.7852444535 1.417394619e-38
0.2983634599 -0.04320567033 0.7781550373 1.426505722e-38
0.3176178347 -0.07782085978 0.7938938451 1.417321612e-38
0.3187837202 -0.07602995183 0.7891831001 1.408066596e-38
0.3129390536 -0.04322024078 0.806057546 1.389663904e-38
0.3241253602 -0.06111424139 0.7950914459 1.380515246e-38
0.3038876921 -0.08479426378 0.8057587666 1.371366589e-38
0.3325956778 -0.06256982831 0.8022416853 1.362074719e-38
0.3102525485 -0.05747882165 0.8067184782 1.325268214e-38
0.3342251495 -0.05531351005 0.8095893306 1.29775526e-38
0.3226589563 -0.04559318258 0.8137055691 1.260700164e-38
0.3376530384 -0.05082306013 0.8199945374 1.224401069e-38
0.1736014742 -0.06881054406 0.7831537039 1.003380007e-38
0.2041665807 -0.06017912063 0.7673685931 9.020756569e-39
0.1976240227 -0.07330101207 0.7976173364 7.920901227e-39
0.1915855349 -0.0582434216 0.7885966154 8.934697225e-39
0.2116029549 -0.05532835956 0.7628012198 9.947746332e-39
0.2087723103 -0.05738837084 0.7711531308 1.004423554e-38
0.2086461697 -0.04780401489 0.7573030709 1.023113512e-38
0.1913100887 -0.06801667617 0.7679378811 9.576449883e-39
0.1765044347 -0.05514055616 0.7464934037 9.021475435e-39
0.1984232797 -0.06638726484 0.7677227786 8.558336484e-39
0.2037262048 -0.0561138771 0.7656524088 8.095571679e-39
0.194414758 -0.05446007158 0.7656777046 7.912259419e-39
0.2121584432 -0.04916648856 0.7608300005 7.728933146e-39
0.1846061165 -0.03097063396 0.761886083 7.8193197e-39
0.1992498824 -0.05720629675 0.7575120175 8.001911692e-39
0.2030218818 -0.04275547456 0.7359504982 8.736592859e-39
0.2109901162 -0.06058286363 0.7287930152 9.471272624e-39
0.1919517801 -0.07525071545 0.7503973771 8.918821915e-39
0.2142871023 -0.05463564456 0.7478922265 8.460001765e-39
0.213165294 -0.06808714944 0.7325460026 8.184854009e-39
0.2186490526 -0.06273424993 0.758987148 8.001893475e-39
0.2051140833 -0.0510946631 0.7338957238 8.370663383e-39
0.2201766963 -0.06093613216 0.7383126873 8.647613209e-39
0.2258937891 -0.05477204258 0.7318341015 8.463950625e-39
0.2218436606 -0.04794841167 0.7418335586 8.372112326e-39
0.2417741082 -0.06136061463 0.723185626 8.55470572e-39
0.2091797046 -0.06610589634 0.750787234 8.828418546e-39
0.2165741603 -0.04968772684 0.7634788331 8.921688972e-39
0.2210115569 -0.05763481487 0.7331808108 9.106792091e-39
0.2395346233 -0.04088389848 0.7419926636 9.015312525e-39
0.2276084514 -0.07463503129 0.7388144967 9.016039799e-39
0.2411416005 -0.02572813984 0.746812361 9.383391592e-39
0.2221132179 -0.06234851921 0.7244140733 9.842567672e-39
0.2230383286 -0.05603870224 0.7399990862 9.750372042e-39
0.2226221971 -0.05940439748 0.7331288799 9.658169406e-39
0.2305894605 -0.05855552332 0.7427805541 9.751074093e-39
0.2319447483 -0.05806431838 0.7304674378 9.935458346e-39
0.2219970454 -0.04527186961 0.7371748811 9.749989488e-39
0.2290537807 -0.07217625748 0.7241098556 9.65565968e-39
0.2503642894 -0.06606280406 0.7336767122 1.030031863e-38
0.2462380188 -0.04573230921 0.7270209231 1.103678926e-38
0.2402338847 -0.07342792014 0.7190094443 1.140448297e-38
0.2405185417 -0.06559805244 0.7478812177 1.177254942e-38
0.2440615498 -0.04850463858 0.7375837998 1.214169208e-38
0.2579643607 -0.06964577531 0.7280565183 1.250867252e-38
0.2581629816 -0.03409328946 0.7380593621 1.186618138e-38
0.2345892249 -0.04356607315 0.728887716 1.113185755e-38
0.2507289257 -0.05341249784 0.7279316362 1.057869358e-38
0.2596552423 -0.04970119425 0.7654022209 1.002517928e-38
0.2620306719 -0.04945890686 0.7554389644 1.020993768e-38
0.2562707845 -0.06399763845 0.7597197629 1.04868735e-38
0.2525695607 -0.07566235009 0.7622793501 1.067233395e-38
0.2607799291 -0.0413614255 0.76364289 1.094963129e-38
0.2720188947 -0.04921085184 0.7604080182 1.104289892e-38
0.257497179 -0.07251843103 0.759381246 1.113725255e-38
0.2747224881 -0.03904702061 0.7553337034 1.150496167e-38
0.2564281031 -0.04950085167 0.7541632088 1.187266379e-38
0.2676294272 -0.07103705078 0.7665998841 1.223785618e-38
0.2716996825 -0.04999398536 0.7569796374 1.260268424e-38
0.2903707024 -0.06457250288 0.8022522352 1.251658706e-38
0.2812446153 -0.03078169739 0.7935579812 1.251873805e-38
0.288228417 -0.04726690188 0.798694787 1.297827426e-38
0.3149768572 -0.06645743726 0.7897778192 1.343781188e-38
0.3067877552 -0.06010181207 0.7691536697 1.380515667e-38
0.2913299579 -0.05199392217 0.7914465098 1.417356644e-38
0.3030105129 -0.06393687014 0.7951275078 1.435758916e-38
0.301937083 -0.06487471119 0.7818371226 1.463343616e-38
0.3174325968 -0.04427289594 0.7985410277 1.42653585e-38
0.3073665915 -0.07589130213 0.7970814774 1.38976816e-38
0.3103667627 -0.04306612838 0.7846258927 1.398990105e-38
0.3000119358 -0.04592739075 0.7784981068 1.417429091e-38
0.2974834669 -0.05446585929 0.8094508365 1.426577048e-38
0.3168491792 -0.05689251654 0.7830840827 1.444907713e-38
0.3184267966 -0.05686327962 0.811023123 1.42650432e-38
0.3132213265 -0.06596111772 0.797632331 1.408029882e-38
0.3153957314 -0.06256971241 0.8109407441 1.398810739e-38
0.2979452174 -0.05892896341 0.8049099239 1.389590616e-38
0.3067386686 -0.07107117161 0.7999654406 1.371366449e-38
0.3147169577 -0.0808437673 0.7998088639 1.362146886e-38
0.3430877807 -0.06123558523 0.8272577574 1.334560224e-38
0.3311206518 -0.0525463164 0.8220006346 1.316159073e-38
0.332905851 -0.05306061046 0.811703174 1.288466753e-38
0.3378421517 -0.04443053752 0.8136922142 1.251591023e-38
0.3380623877 -0.05184865174 0.8288495433 1.169192291e-38
0.1859982851 -0.0380827776 0.7829692837 1.003129595e-38
0.1976356193 -0.05575869605 0.7953870631 9.666481908e-39
0.2096683682 -0.06677425356 0.7845407551 9.670084647e-39
0.200404165 -0.05763923331 0.7489223256 9.763711002e-39
0.1838956817 -0.06093833737 0.7748660958 9.673666365e-39
0.1902397496 -0.07135674151 0.7770764191 9.578954003e-39
0.1941219648 -0.04465799483 0.7731515836 9.117259791e-39
0.2022747165 -0.04888861745 0.7553003664 8.652320171e-39
0.1968188996 -0.05655172226 0.7614413542 8.282444638e-39
0.1960041982 -0.05626258888 0.7653592444 8.004435431e-39
0.1945462833 -0.05521629121 0.7629786318 7.726784956e-39
0.2209372917 -0.04341420888 0.7540639902 7.543102753e-39
0.1970423384 -0.06130866975 0.7456051612 7.910434928e-39
0.2216590576 -0.0614766619 0.7453733761 8.278494378e-39
0.2128044738 -0.07072377794 0.7480277584 9.381956663e-39
0.2114365793 -0.0580830637 0.7371223605 1.057401744e-38
0.2105809747 -0.05951697042 0.7510434272 9.745338578e-39
0.2169932652 -0.05600351795 0.7495918768 9.012807003e-39
0.2142580654 -0.05746726297 0.7645859057 8.923482634e-39
0.2276338105 -0.06063641112 0.7403624338 8.830925469e-39
0.2088601411 -0.0480426987 0.7445012316 9.013873391e-39
0.2061394914 -0.0520949419 0.7397010442 9.290821816e-39
0.2156139773 -0.04495302269 0.748549021 9.290468689e-39
0.2172781394 -0.04940035915 0.7354694254 9.290824618e-39
0.2260358044 -0.03025472394 0.7370790812 9.197192658e-39
0.2227321019 -0.06133655286 0.7328298023 9.104641098e-39
0.212940341 -0.06094128782 0.7466941215 9.012446869e-39
0.250864321 -0.05163731753 0.7427524883 8.923118296e-39
0.2243313296 -0.05816983947 0.7363680664 8.55469591e-39
0.2266440572 -0.04820984056 0.7221552739 8.278840499e-39
0.2183247827 -0.07030785703 0.7266000783 8.829503151e-39
0.2320673333 -0.05303351761 0.7394639185 9.379800064e-39
0.2460267102 -0.06246974674 0.73058828 9.195771741e-39
0.2327539816 -0.06030122499 0.7380121524 9.106799098e-39
0.2299051528 -0.04575274705 0.7345699933 9.475569005e-39
0.2498730818 -0.0553739447 0.7304098286 9.842549455e-39
0.240939717 -0.06186872572 0.73631885 9.932231155e-39
0.2268507426 -0.039080685 0.7338845836 1.002407786e-38
0.2221215024 -0.04553162863 0.726649689 1.039178979e-38
0.2224788055 -0.04420315786 0.713947896 1.085310986e-38
0.257732661 -0.04734021607 0.7378557043 1.103569624e-38
0.2256631512 -0.0492109981 0.7305534292 1.131228734e-38
0.2403507645 -0.03982737837 0.7320789303 1.168430265e-38
0.2435796674 -0.04543686844 0.7255587405 1.213989141e-38
0.2427735627 -0.04470359254 0.7282122912 1.039429951e-38
0.236150781 -0.04495772935 0.7209327709 8.649778215e-39
0.2541806453 -0.05453609107 0.7479947994 9.201504453e-39
0.2650747944 -0.05431829283 0.7754539431 9.841851608e-39
0.2705730475 -0.05469130815 0.7585408484 1.002696874e-38
0.2624321465 -0.0609448527 0.7510350901 1.021063973e-38
0.2746429675 -0.04255267923 0.7659918259 1.048614622e-38
0.266949541 -0.04611212912 0.7529661929 1.076523583e-38
0.2900687484 -0.07637840203 0.7621120726 1.095069488e-38
0.2732767236 -0.05661608755 0.7647024866 1.113365541e-38
0.2710818004 -0.06621600171 0.7497231383 1.159212384e-38
0.2718392533 -0.06775924072 0.7632662114 1.205201878e-38
0.2763348206 -0.05079652696 0.7537653651 1.251191513e-38
0.2772919345 -0.05101078273 0.7579250305 1.306651403e-38
0.283459494 -0.0541154729 0.7920999582 1.316193685e-38
0.284571966 -0.056642891 0.7990291325 1.325377655e-38
0.2941617045 -0.07179195887 0.7905633474 1.343781188e-38
0.3063818472 -0.05745725892 0.7842023757 1.371332818e-38
0.2888237428 -0.06291523228 0.7807975311 1.398920461e-38
0.2700440324 -0.07362748895 0.7853587917 1.426505722e-38
0.297843267 -0.05675287376 0.7953018331 1.463310546e-38
0.2968568509 -0.05463406689 0.7954308715 1.509227173e-38
0.3144946046 -0.04806680981 0.7867494087 1.463344177e-38
0.3018099517 -0.06581095686 0.8024885909 1.426610819e-38
0.3059422795 -0.06715830145 0.7927226737 1.426647673e-38
0.3095963941 -0.0583337671 0.7923893028 1.426576347e-38
0.3075156503 -0.06835638227 0.7898394215 1.444836247e-38
0.3119578281 -0.05761986141 0.8172018511 1.463202786e-38
0.3155542345 -0.07176831618 0.8031107389 1.43568745e-38
0.3052403604 -0.05072488859 0.7938802278 1.417248184e-38
0.3051930893 -0.05171055195 0.8129098076 1.407956734e-38
0.324221891 -0.05640410613 0.8144347192 1.398845351e-38
0.3204073843 -0.05306285052 0.790660784 1.380550559e-38
0.3164380802 -0.05078384185 0.8032109798 1.362147446e-38
0.336186398 -0.06223191444 0.8026016755 1.35299977e-38
0.3385849789 -0.0532205776 0.803166884 1.343745315e-38
0.3202199532 -0.05729356713 0.8193339636 1.316159774e-38
0.3229499035 -0.06512243353 0.8080021136 1.288358012e-38
0.3474062041 -0.05717760557 0.7987331052 1.177940177e-38
0.1902579617 -0.06631394471 0.7748245638 1.03075115e-38
0.2047103436 -0.0358142742 0.7925373704 1.003453015e-38
0.1947597384 -0.05395246475 0.7760451002 9.945219791e-39
0.2021550921 -0.06176278501 0.7706002048 9.855540893e-39
0.1985472343 -0.04625049957 0.7799019424 9.578962411e-39
0.2017855931 -0.05894971945 0.7530478836 9.302724445e-39
0.2043250593 -0.03716951571 0.7598629156 8.838153366e-39
0.2073684506 -0.04575354037 0.7680577382 8.375359134e-39
0.2101692119 -0.04721045899 0.7644259336 8.190583919e-39
0.1918690639 -0.05223799979 0.7648945114 8.005134679e-39
0.1950092835 -0.05537796002 0.7457235129 7.911881069e-39
0.2000240529 -0.04110173454 0.7584163356 7.727126872e-39
0.2110860922 -0.03534992355 0.7543698051 8.003343819e-39
0.2072207554 -0.04072497943 0.7574736902 8.279571976e-39
0.2086429142 -0.05286094141 0.7560480344 9.014620283e-39
0.2032360502 -0.05390106318 0.749983605 9.748575577e-39
0.2041880581 -0.0751456759 0.7697388627 9.382299981e-39
0.208687292 -0.04754041851 0.7541936675 9.016392926e-39
0.2161281242 -0.04504378765 0.7588158382 9.017111792e-39
0.2021635656 -0.0439393107 0.7365134561 9.10966195e-39
0.213057685 -0.0679419846 0.7422562594 9.292253943e-39
0.2094454485 -0.05521538093 0.7403567546 9.566688438e-39
0.2115593405 -0.06287748131 0.7316674912 9.84219913e-39
0.2037681402 -0.04238703994 0.7429416156 1.011806015e-38
0.2312247342 -0.05114523251 0.7346539767 9.749997895e-39
0.2114671539 -0.0511877841 0.7388105077 9.474134076e-39
0.2143210521 -0.05060420896 0.7444194178 9.382299981e-39
0.2196091399 -0.05797934436 0.7311674993 9.382294376e-39
0.2236241951 -0.04648513167 0.7537231039 9.197900313e-39
0.1979920012 -0.05047389886 0.7183772843 9.013520264e-39
0.2404855275 -0.06554249213 0.7608314128 9.47234742e-39
0.2097129621 -0.05314927497 0.7395534166 9.839334876e-39
0.2451659158 -0.04956738258 0.7364295688 9.840415277e-39
0.2363313297 -0.05052190111 0.7282210011 9.749648972e-39
0.2162459183 -0.04419759607 0.7306325229 9.933312958e-39
0.2411774543 -0.04702868401 0.7519404541 1.020917818e-38
0.2478495402 -0.05870363652 0.7175100618 1.020882085e-38
0.2337572804 -0.04960207406 0.7494002428 1.030066055e-38
0.2505035723 -0.06941147343 0.7410369899 1.057581391e-38
0.2395705467 -0.05057329091 0.7337105101 1.094529708e-38
0.2394200208 -0.04294874205 0.7357874054 1.076017995e-38
0.2420538909 -0.05359273499 0.7305574553 1.05768789e-38
0.2362439176 -0.02887341461 0.7159114843 1.085275533e-38
0.2458606165 -0.04843024785 0.7355295081 1.112862055e-38
0.2451123256 -0.03573863176 0.738523383 9.474865554e-39
0.2410327265 -0.04764855582 0.715130453 7.913292176e-39
0.2549643828 -0.06308901151 0.7663080065 8.831635927e-39
0.2633316145 -0.07183026905 0.7555800904 9.75035943e-39
0.2732601216 -0.05039265391 0.7504890659 1.002659459e-38
0.2698026419 -0.03997182778 0.7554874112 1.021098866e-38
0.2821907661 -0.04617639701 0.7587915972 1.048685948e-38
0.2743870093 -0.0502851045 0.754506352 1.076487009e-38
0.2719394182 -0.04712340296 0.7697031806 1.103857591e-38
0.2656663347 -0.04190359408 0.7573093688 1.140448997e-38
0.2706509133 -0.07542706469 0.7661706841 1.195802108e-38
0.2611167044 -0.06137424211 0.7715610028 1.251154379e-38
0.2680441216 -0.06949606109 0.7606595252 1.297394986e-38
0.2841278014 -0.05950269598 0.7744685553 1.343671466e-38
0.2801636525 -0.04812532965 0.7744397507 1.362146325e-38
0.307685096 -0.05152774146 0.7997146042 1.380658039e-38
0.2696623626 -0.05662314019 0.8149558047 1.371403864e-38
0.2989033907 -0.0539369217 0.7782854165 1.371369812e-38
0.2843582624 -0.04767937043 0.7907977865 1.389738733e-38
0.289078398 -0.05756339917 0.7957009867 1.408140024e-38
0.301798839 -0.05183999628 0.7977441084 1.435653258e-38
0.2945058812 -0.04279291245 0.7863614198 1.46313174e-38
0.2826686756 -0.06761675369 0.7686444674 1.426504741e-38
0.3011161567 -0.03520693093 0.7879986035 1.389949348e-38
0.3204952736 -0.05980091398 0.7937164942 1.399060591e-38
0.3137518164 -0.05745686801 0.7901902699 1.417392377e-38
0.2988587046 -0.04575203701 0.8002673473 1.426576627e-38
0.3164063928 -0.0514170853 0.8062414631 1.444978899e-38
0.3173849545 -0.04173402116 0.7839171918 1.42650362e-38
0.3203412995 -0.04247349013 0.8002137792 1.417318949e-38
0.300067774 -0.05609930104 0.7951004037 1.408170292e-38
0.3188699818 -0.060093415 0.8103443343 1.399024297e-38
0.3287149185 -0.05443707167 0.8143113723 1.380587133e-38
0.3121593043 -0.03877782362 0.8098847957 1.371331697e-38
0.3378635824 -0.06770990016 0.8024539019 1.362148147e-38
0.3245568281 -0.05716681055 0.8178290643 1.353000471e-38
0.3185926585 -0.06227266738 0.8212290586 1.343637555e-38
0.3264118688 -0.05093226168 0.824314958 1.334344284e-38
0.3300968704 -0.05847355606 0.8299637704 1.251511009e-38
0.3075478496 -0.05395517252 0.8075920555 1.168614256e-38
0.2113833128 -0.0459932046 0.7814035567 1.058406756e-38
0.1894268599 -0.05230348334 0.7755323292 1.049404254e-38
0.1839839572 -0.04576614085 0.7808523965 1.022034793e-38
0.1953853022 -0.05509552689 0.7868553306 9.945563109e-39
0.1973813526 -0.05401247061 0.7759152661 9.487107297e-39
0.1963811766 -0.04789183898 0.7686775387 9.02648788e-39
0.209091882 -0.04614341492 0.7677195216 8.559052547e-39
0.1891005127 -0.03990734663 0.7635598361 8.191326607e-39
0.191016179 -0.06076025782 0.7627461668 8.099107155e-39
0.2091099896 -0.05920643389 0.7595899109 8.097330309e-39
0.2057628067 -0.04348781249 0.7719701555 8.004794163e-39
0.2021023271 -0.05839618175 0.7588256085 8.002992093e-39
0.2026602599 -0.06871407389 0.7557390213 8.092306654e-39
0.2098562177 -0.06481919162 0.7578859569 8.279566371e-39
0.2229752685 -0.03599030028 0.7706906385 8.555431592e-39
0.2167937358 -0.04965073381 0.7657731481 8.922409239e-39
0.2024574509 -0.0391844834 0.7447900175 8.923838564e-39
0.1995807408 -0.04505478989 0.7587631242 9.016758665e-39
0.2251210426 -0.04670244476 0.7564154799 9.202233128e-39
0.2110707975 -0.04721702541 0.7514295069 9.384820917e-39
0.2114373204 -0.04217082288 0.7550760082 9.659604335e-39
0.2075842268 -0.0535069397 0.7326876955 9.934756295e-39
0.2013794659 -0.05037796588 0.7423746933 1.039393938e-38
0.2204044863 -0.05962463691 0.7528648268 1.094458522e-38
0.2355669499 -0.05488164513 0.756284351 1.039356243e-38
0.2154524167 -0.051611951 0.7597739444 9.842553659e-39
0.2179937955 -0.04560408252 0.7468344061 9.842556461e-39
0.2264830053 -0.05079461229 0.7424804853 9.841836194e-39
0.2201659404 -0.04321803354 0.7308686565 9.841473258e-39
0.2331175332 -0.05421113066 0.7319856793 9.842194926e-39
0.2232765557 -0.06378011258 0.7497774866 1.011842308e-38
0.2201041405 -0.04511984497 0.7381012017 1.039285478e-38
0.2202668287 -0.0600941244 0.7344098275 1.039214011e-38
0.2357969594 -0.0522181431 0.7370457377 1.04839686e-38
0.2143552081 -0.03354470567 0.7298868751 1.048360286e-38
0.2387717131 -0.07088417934 0.7413218031 1.05758013e-38
0.232225346 -0.0401384555 0.7389414645 1.057616563e-38
0.2255564569 -0.04806583884 0.7187375759 1.066800113e-38
0.2295306353 -0.05506015373 0.7403675566 1.085167352e-38
0.2263203467 -0.06253789141 0.7273828505 1.103641791e-38
0.2466913532 -0.04589331979 0.7286562112 1.039284917e-38
0.2276323049 -0.05362680596 0.7213139896 9.841838997e-39
0.242441135 -0.05333720622 0.752862806 9.932243767e-39
0.2581915766 -0.04852227073 0.7168858382 1.011627629e-38
0.2273416425 -0.05209952638 0.7339022898 8.647269891e-39
0.2485791673 -0.06032536733 0.7370447941 7.177534812e-39
0.2538554533 -0.06375554252 0.7729013516 8.462866019e-39
0.2572368936 -0.05713566182 0.7699118588 9.748930106e-39
0.2598433683 -0.04546256147 0.7712998204 1.002480373e-38
0.2604944478 -0.05864449988 0.7511254801 1.030246402e-38
0.2526668885 -0.03908409207 0.7659357892 1.048757274e-38
0.2420158253 -0.05160579622 0.7470456278 1.07627163e-38
0.2376608481 -0.06703763763 0.7601231567 1.122153224e-38
0.2649896318 -0.05639280902 0.7632126097 1.177685982e-38
0.2523510152 -0.04666007145 0.7484011024 1.233218739e-38
0.2695208425 -0.04194941433 0.7501143749 1.297575613e-38
0.2733952013 -0.04941513721 0.7711894216 1.343601261e-38
0.2857321748 -0.05531919341 0.8053506255 1.389554883e-38
0.2782168199 -0.05349169163 0.7939346519 1.408137221e-38
0.279388727 -0.05563515488 0.8060045939 1.43568829e-38
0.2723138374 -0.0671807937 0.7886477922 1.408173935e-38
0.2951246782 -0.04173278331 0.8033479064 1.380516648e-38
0.3007675273 -0.05118045493 0.7972140634 1.389737051e-38
0.29548461 -0.06385577063 0.792452758 1.39891962e-38
0.2893753875 -0.05791206202 0.8098947617 1.408102189e-38
0.2882099664 -0.03608456816 0.8028608302 1.417249585e-38
0.3067907968 -0.04924881497 0.799582643 1.380515246e-38
0.3103463041 -0.07089609103 0.7779644763 1.353000611e-38
0.297386781 -0.05513788118 0.7933874611 1.380587413e-38
0.2951980616 -0.05059926254 0.7860064573 1.408173935e-38
0.2900536647 -0.04661095443 0.7882116614 1.417500978e-38
0.3011548417 -0.05011609286 0.8025888733 1.426576908e-38
0.3127398277 -0.06324241313 0.8015117568 1.426541034e-38
0.3110729908 -0.07661501743 0.7927361889 1.426576067e-38
0.3093901965 -0.07129311898 0.8004105314 1.408279873e-38
0.3419959512 -0.05190054389 0.8078428184 1.399026259e-38
0.3158297702 -0.05530727641 0.8141374969 1.389808518e-38
0.3165113205 -0.04427803202 0.7855756603 1.380516648e-38
0.3109162247 -0.03493318494 0.8078094423 1.371296384e-38
0.3143371175 -0.07040141483 0.8075722526 1.371296244e-38
0.326157994 -0.05107509831 0.8287153096 1.371116737e-38
0.3420465009 -0.0471795336 0.8092595349 1.380263013e-38
0.3339478708 -0.05799438596 0.8244694857 1.315940891e-38
0.3205000229 -0.05717735014 0.8053320833 1.260734496e-38
0.3520818558 -0.07230991063 0.8176033219 1.242298172e-38
0.3427859844 -0.06132218387 0.8047257074 1.224474076e-38
0.1964937126 -0.05055744579 0.7783033951 1.058621435e-38
0.198577143 -0.05218853722 0.7739774667 1.021961085e-38
0.196167716 -0.04032350055 0.7746288511 9.853707995e-39
0.2130369428 -0.0478659552 0.7823290422 9.393818654e-39
0.1990864366 -0.05110543661 0.7514331979 8.93428104e-39
0.195925781 -0.05241292478 0.7667208312 8.375734682e-39
0.205112508 -0.03621543516 0.7572510721 7.823623087e-39
0.196722662 -0.0654556297 0.7617746936 8.098391092e-39
0.186734258 -0.04158299823 0.774950777 8.281720167e-39
0.1980528808 -0.05560965417 0.7544215021 8.187750493e-39
0.191866486 -0.0378063438 0.7695019064 8.18738055e-39
0.2072494681 -0.05750149818 0.7517500623 8.279563569e-39
0.1831934014 -0.06654888749 0.7619108989 8.371753593e-39
0.2056997983 -0.04723571207 0.7469729101 8.647257279e-39
0.2095349094 -0.07150931953 0.7537334974 9.014597863e-39
0.2016141836 -0.05151292067 0.756625323 8.923119698e-39
0.2114096876 -0.07094476899 0.7586904827 8.833812144e-39
0.225420486 -0.04799685867 0.7510009428 9.109336849e-39
0.2312278524 -0.04570095661 0.751141515 9.384833529e-39
0.2106313597 -0.04712630604 0.7409123089 9.659971475e-39
0.218037753 -0.07564015329 0.742479025 9.935124837e-39
0.2250967371 -0.04835402552 0.7458470989 1.02102796e-38
0.2386694607 -0.03617375019 0.7225551585 1.057760617e-38
0.2058331994 -0.04197203054 0.7434708317 9.934384951e-39
0.2149066038 -0.06813997205 0.7365362609 9.385529974e-39
0.2068276309 -0.05661263563 0.7459357506 9.568130374e-39
0.2343095833 -0.04278731829 0.7244683169 9.659247004e-39
0.2126506242 -0.06117415508 0.7528464147 9.842916595e-39
0.2243445297 -0.04215039988 0.7286806778 1.002694492e-38
0.2380576667 -0.04906726283 0.7395477765 1.030209267e-38
0.2285037959 -0.04433714564 0.7215393937 1.057724043e-38
0.2210074886 -0.06765334539 0.7340034392 1.066835846e-38
0.2354683888 -0.06817487995 0.7252778214 1.075946949e-38
0.2437697228 -0.06046334045 0.7271881153 1.076017995e-38
0.2323329428 -0.0322806066 0.7282568726 1.085310005e-38
0.2390890646 -0.05191353145 0.7213850063 1.085239239e-38
0.2559619646 -0.05545849687 0.7335001995 1.085203086e-38
0.2311247232 -0.05385243261 0.737432647 1.103641651e-38
0.2484117926 -0.04330825052 0.7219622787 1.12211679e-38
0.2471437281 -0.04980858217 0.7412709896 1.076199603e-38
0.2334012818 -0.04167952613 0.7157322087 1.039464984e-38
0.2422083891 -0.05242849951 0.7320774126 1.020989985e-38
0.2406648427 -0.03736322016 0.7296292581 1.011735109e-38
0.2545219114 -0.05573725209 0.7159269825 9.383031459e-39
0.2429842993 -0.05653796094 0.7229489409 8.649059349e-39
0.2595232222 -0.04951279633 0.7642557676 9.476292075e-39
0.2565568853 -0.02958658629 0.7722581292 1.039572884e-38
0.2538623669 -0.05139940956 0.778987041 1.048649514e-38
0.2685084747 -0.04250246833 0.7591355984 1.066944727e-38
0.2626391005 -0.0660364509 0.7744444419 1.104145138e-38
0.2823520805 -0.0530540161 0.774207435 1.141058702e-38
0.2704223287 -0.05012083413 0.7690561144 1.187263436e-38
0.2632026694 -0.03683362171 0.7549846159 1.233469431e-38
0.2766141953 -0.043478606 0.7802432917 1.279424314e-38
0.290227894 -0.06257794061 0.7699856549 1.325378636e-38
0.2819606431 -0.06200033091 0.7810822068 1.352786492e-38
0.2781334567 -0.05519498443 0.773808907 1.380372874e-38
0.2845296722 -0.05626715334 0.7877199812 1.39891934e-38
0.2899723202 -0.05010428995 0.7861352276 1.417250145e-38
0.292690049 -0.0605679625 0.7950370013 1.389699216e-38
0.3155123587 -0.04228559829 0.7915077757 1.371332257e-38
0.2854617798 -0.05949270941 0.7938306444 1.380516087e-38
0.3153861307 -0.04996312615 0.8015580179 1.398990386e-38
0.3043336179 -0.03900909788 0.7990489573 1.408173655e-38
0.3012869909 -0.05891484182 0.7948415342 1.408173515e-38
0.2894591307 -0.04860290983 0.7962231706 1.389770542e-38
0.3069647267 -0.05314697341 0.8022241941 1.380587974e-38
0.3033483006 -0.05199703606 0.8009827914 1.389772644e-38
0.3125601407 -0.04349609253 0.7898508755 1.408174916e-38
0.3230034639 -0.04847544507 0.7880972085 1.426613201e-38
0.3041126366 -0.05220158225 0.7927264522 1.444944988e-38
0.3118345596 -0.05947676062 0.8357744649 1.444945689e-38
0.2998557511 -0.0555081027 0.8065498494 1.435797311e-38
0.3167432156 -0.06212683361 0.8006340944 1.426613201e-38
0.3226165088 -0.04331478192 0.810030287 1.41739546e-38
0.3293910741 -0.06851929558 0.800887507 1.398994169e-38
0.3309045494 -0.04757454705 0.7951666855 1.389737332e-38
0.3263874182 -0.06552106355 0.7976556895 1.389700057e-38
0.3226605932 -0.04421534237 0.7920912436 1.398775567e-38
0.3368846094 -0.05367273875 0.800101631 1.389591737e-38
0.3327725684 -0.04420130716 0.8165476246 1.389626909e-38
0.3165997355 -0.05901457201 0.8219705906 1.35289201e-38
0.3490694578 -0.05408160712 0.8146939371 1.307008734e-38
0.3542156508 -0.04584229741 0.8141046035 1.270022162e-38
0.3368243963 -0.07259578944 0.800240254 1.23297169e-38
0.3385833838 -0.03393500304 0.816625143 1.196782317e-38
0.1784039386 -0.03150571091 0.7801459181 1.02192409e-38
0.2019630252 -0.05381782193 0.7824567313 9.760426359e-39
0.1945327236 -0.03992853147 0.7730911096 9.296949694e-39
0.2013278007 -0.0537507638 0.7760598819 8.836335882e-39
0.1884193525 -0.03704515923 0.7601419058 8.192411212e-39
0.2091241389 -0.06308445979 0.7590850748 7.54631593e-39
0.2098723577 -0.07146847329 0.7595276128 8.004041666e-39
0.2113237264 -0.04430120863 0.7599019796 8.554709923e-39
0.2079378506 -0.03766565858 0.7582743419 8.46288844e-39
0.2110388126 -0.04959411261 0.7625769253 8.370329874e-39
0.2067487387 -0.05122626451 0.7768572576 8.461799631e-39
0.2098499839 -0.04493753313 0.7450897247 8.553632325e-39
0.2080739196 -0.05204463451 0.7589767081 8.829137412e-39
0.2130356321 -0.05699158648 0.7505896655 9.105715894e-39
0.2056884878 -0.03438627186 0.7670028852 8.922758162e-39
0.1984362241 -0.04618275392 0.7500101113 8.740530508e-39
0.2203785451 -0.04542439298 0.7392992528 9.01676427e-39
0.2104814566 -0.05644897838 0.7522764394 9.383385987e-39
0.2197581079 -0.04610306175 0.7655341911 9.658172208e-39
0.2061233299 -0.04426302639 0.7371031531 9.933681499e-39
0.2190758087 -0.05989411398 0.735829176 1.00255212e-38
0.2115323508 -0.05427084659 0.7568579239 1.021025718e-38
0.2269866472 -0.08093961911 0.7513837645 9.567040164e-39
0.2226444477 -0.04243777644 0.7499564518 9.01890125e-39
0.2231382263 -0.05011456612 0.7502539668 9.294411943e-39
0.2184502492 -0.05314253148 0.7515542216 9.569566705e-39
0.2327518231 -0.04639827983 0.7406034744 9.840057946e-39
0.2314343834 -0.05699321639 0.7628578987 1.020883346e-38
0.2405767522 -0.06431129479 0.7411377148 1.048577348e-38
0.2220947601 -0.04037989411 0.7434296849 1.07616401e-38
0.2448337003 -0.03609342443 0.7385675818 1.094064897e-38
0.217503656 -0.05062633934 0.7225087423 1.112646955e-38
0.2385141101 -0.05661061774 0.7307644212 1.112897648e-38
0.2075243591 -0.03702377889 0.7338214161 1.112898208e-38
0.237326002 -0.05281938521 0.7402917979 1.112934642e-38
0.2398990531 -0.04125721588 0.7233127339 1.113005548e-38
0.2419606828 -0.05354517312 0.7817630233 1.131479566e-38
0.2449478395 -0.06849590028 0.733771653 1.149882539e-38
0.2454734837 -0.05644293376 0.7319033976 1.122403636e-38
0.2589020752 -0.05614225867 0.7280479724 1.094673481e-38
0.2466796303 -0.04099989962 0.7451093491 1.048576227e-38
0.2560028408 -0.05647923963 0.74119987 1.011878182e-38
0.2612470916 -0.05669216577 0.7778124408 1.011950348e-38
0.2751762209 -0.05193931768 0.7622830896 1.011986362e-38
0.2517349691 -0.03467523724 0.7828737128 1.057939983e-38
0.2716589751 -0.05881147946 0.7717716884 1.103965771e-38
0.2607314827 -0.04309862568 0.7604772045 1.10450429e-38
0.2729018011 -0.05749591407 0.7506695746 1.104468417e-38
0.272724357 -0.05694237179 0.7835760009 1.159533982e-38
0.2572076218 -0.05689636743 0.7498399661 1.214779193e-38
0.27925784 -0.05276794142 0.7858873408 1.251693178e-38
0.2809631501 -0.05185617944 0.7801265901 1.297756241e-38
0.2791899903 -0.05424654892 0.7906700618 1.325416331e-38
0.2870266435 -0.06514378186 0.7850045771 1.35285894e-38
0.2859185925 -0.04121874262 0.7975753735 1.362006196e-38
0.2862166934 -0.0437979975 0.7892695165 1.380445602e-38
0.2859743836 -0.04997360063 0.7927158609 1.389737191e-38
0.2877283592 -0.03282962453 0.79373976 1.40810345e-38
0.2955488191 -0.05434075967 0.7876246122 1.38055182e-38
0.2896786506 -0.05408541782 0.7963891071 1.362148708e-38
0.2846052674 -0.04103635165 0.8034271363 1.380479793e-38
0.2870603349 -0.03989305952 0.7967678311 1.408101908e-38
0.2848936952 -0.04076066437 0.7966984577 1.408245261e-38
0.3083185722 -0.06842112896 0.8021215285 1.40824428e-38
0.3152704331 -0.05017008132 0.7893351709 1.40824344e-38
0.279306416 -0.03371617215 0.7922689785 1.408210089e-38
0.3028458732 -0.032930147 0.823644051 1.408212471e-38
0.3178190893 -0.06865431526 0.7893349962 1.417358886e-38
0.2947228897 -0.06157882546 0.7922371043 1.445016034e-38
0.2950515168 -0.04310948366 0.8080137459 1.472458923e-38
0.3143702784 -0.03596383652 0.7985637669 1.463167613e-38
0.3135023434 -0.05852970673 0.7949117192 1.45416329e-38
0.3037481896 -0.04697910016 0.8079637886 1.44497974e-38
0.3157898277 -0.05158512556 0.818194173 1.435761578e-38
0.3223160669 -0.06544813099 0.7949672368 1.417359867e-38
0.3116224917 -0.04864441244 0.799063746 1.398956054e-38
0.3322362402 -0.05134580465 0.7939606641 1.408138763e-38
0.3229884324 -0.03750307332 0.8153569215 1.426541595e-38
0.3353014064 -0.05937834004 0.8177626515 1.417393778e-38
0.3111470067 -0.04639263392 0.8096359482 1.408173375e-38
0.3586955732 -0.06841095566 0.8067725708 1.380586012e-38
0.3319095807 -0.05064943882 0.8104596119 1.362110452e-38
0.332096188 -0.06721206358 0.8183244119 1.3069723e-38
0.3376688151 -0.04628091311 0.8245627776 1.251514933e-38
0.3280984754 -0.05018484561 0.8317657253 1.15017555e-38
0.3466223097 -0.05874337234 0.8198205262 1.05005894e-38
0.1967057792 -0.04972523236 0.7755012781 1.003484544e-38
0.2076299792 -0.03678294246 0.7623566602 9.666791595e-39
0.2004826515 -0.03801259821 0.7592749945 9.199722001e-39
0.1862539461 -0.05390781206 0.7708497297 8.647632827e-39
0.2043039953 -0.04817663849 0.7757531947 8.095888372e-39
0.2010933177 -0.04297662538 0.7716762975 8.187709856e-39
0.215126031 -0.05004097709 0.7731417466 8.372109523e-39
0.2098676162 -0.03932931604 0.7724745171 8.371403269e-39
0.1940945702 -0.04386261586 0.7630940631 8.369966938e-39
0.1936796697 -0.05561053534 0.7644034482 8.645830757e-39
0.1973332055 -0.0346705906 0.7645639896 8.829859081e-39
0.1962080754 -0.04686900427 0.7612341311 9.105364168e-39
0.2195753943 -0.04150656216 0.7494218544 9.289028154e-39
0.2044351996 -0.04620385147 0.7503119484 8.831279997e-39
0.2092929884 -0.0400496412 0.7720927844 8.464296745e-39
0.2255254102 -0.05512626767 0.7450254216 9.01495099e-39
0.2198796166 -0.06039085019 0.7500437635 9.565968171e-39
0.2197617078 -0.06028265451 0.7374247262 9.841121532e-39
0.2363330068 -0.06627925482 0.7511131538 1.020846352e-38
0.2114581658 -0.06261435077 0.7364313974 1.039321071e-38
0.212042785 -0.03301719302 0.7419129021 1.057759216e-38
0.2144694596 -0.04727773202 0.740776906 1.030315626e-38
0.2366246624 -0.05069488336 0.739304329 1.01219992e-38
0.2107904054 -0.04588501901 0.7448687302 1.048970412e-38
0.2213128074 -0.04584450169 0.7396251314 1.094961308e-38
0.2368996664 -0.04530325066 0.7410545052 1.094604117e-38
0.2329837488 -0.0601503097 0.7331369331 1.094245244e-38
0.243305769 -0.04704747181 0.7277629424 1.112791569e-38
0.2212229783 -0.05565754375 0.7344426236 1.140557738e-38
0.2311874929 -0.03376740059 0.7164254679 1.159032737e-38
0.230787009 -0.05776803972 0.7186627688 1.177507456e-38
0.2592263976 -0.05431171804 0.7896456058 1.177543329e-38
0.2472006658 -0.05967954126 0.7673046253 1.177579343e-38
0.2670669254 -0.03734486444 0.7794041072 1.214349695e-38
0.2545427395 -0.02968562165 0.7776066026 1.241934816e-38
0.2555962023 -0.06026149274 0.7533930294 1.214454652e-38
0.2539183771 -0.03019850312 0.7777900367 1.196158879e-38
0.2620654126 -0.04315184227 0.7855049356 1.205306135e-38
0.2598205561 -0.04276269017 0.7810990528 1.214489684e-38
0.246558447 -0.064193979 0.7857416381 1.17768374e-38
0.2316061281 -0.04040655425 0.7930465 1.131730398e-38
0.2572981401 -0.05689706026 0.7992536624 1.113327706e-38
0.2732799895 -0.06100805481 0.7944062017 1.104144717e-38
0.269916377 -0.04942644684 0.7735229606 1.122476644e-38
0.2684278406 -0.04320615149 0.7709498882 1.140843883e-38
0.2505226615 -0.04124084371 0.7779897874 1.178008841e-38
0.2670619208 -0.04179370237 0.7708999274 1.214671433e-38
0.258060832 -0.0457191879 0.7865501452 1.251549405e-38
0.2808523509 -0.04328220958 0.756672164 1.28846381e-38
0.2844555718 -0.05943958173 0.7900954718 1.306867763e-38
0.268858865 -0.06616576069 0.7905011957 1.325308991e-38
0.2716233831 -0.03506654435 0.7830240731 1.3436426e-38
0.2827814563 -0.06581068577 0.7791248262 1.352788734e-38
0.2779516503 -0.05595769665 0.7860085257 1.371190166e-38
0.2889774938 -0.04694904362 0.7855865436 1.389701739e-38
0.282282078 -0.04938021854 0.779430726 1.408069959e-38
0.2718882901 -0.05622844433 0.763091417 1.435690813e-38
0.2979691939 -0.05554170522 0.7961018962 1.408102889e-38
0.2849626358 -0.04765001012 0.7897017621 1.38055168e-38
0.2953713421 -0.049646555 0.7927877618 1.408065895e-38
0.2977067609 -0.06027009644 0.7826712355 1.435616404e-38
0.3039961378 -0.06111606732 0.7911678242 1.417285178e-38
0.2927530524 -0.05369396351 0.7962108022 1.40813582e-38
0.3029127568 -0.05382034514 0.7873498446 1.398986462e-38
0.3186450297 -0.05277728121 0.8083688885 1.399026119e-38
0.2975836532 -0.03180316671 0.774446254 1.38981062e-38
0.307728676 -0.05618362233 0.7969830005 1.380625248e-38
0.311415728 -0.04522408827 0.8100352655 1.435724724e-38
0.324440466 -0.05542397125 0.8109063681 1.500008731e-38
0.3129566912 -0.0454596593 0.8098025969 1.481676664e-38
0.3050224468 -0.05226407737 0.7828148849 1.463381732e-38
0.316403219 -0.05544108433 0.808566164 1.454162729e-38
0.3198502734 -0.04661731811 0.8001725172 1.435760597e-38
0.3285105009 -0.05683802858 0.8010160882 1.426542156e-38
0.3203573362 -0.03775022854 0.8000964539 1.417501819e-38
0.3355861152 -0.06991090819 0.8275004983 1.435689411e-38
0.3069554412 -0.05113411733 0.8026326541 1.453984764e-38
0.3269728791 -0.05722500768 0.8173560409 1.435725285e-38
0.3285965351 -0.04616975204 0.8055489322 1.417357064e-38
0.3476056599 -0.05606440417 0.819308935 1.398917238e-38
0.3356733097 -0.06257145035 0.8349433464 1.380513705e-38
0.3251614289 -0.04040942945 0.8214998084 1.334559663e-38
0.3236592084 -0.03153892184 0.8324248895 1.288425134e-38
0.3482548295 -0.04677466087 0.8140992809 1.214453111e-38
0.3630125153 -0.05199334366 0.822311653 1.140705295e-38
0.3468028162 -0.03719777044 0.8247173407 1.224728132e-38
0.3211588844 -0.05514507891 0.8195479928 1.308531385e-38
0.1929454813 -0.0414749453 0.7740796902 1.003699083e-38
0.1805302182 -0.03434139351 0.7726196758 9.664626589e-39
0.2097760546 -0.05922128242 0.7834953547 9.105005436e-39
0.2093010461 -0.05390264909 0.7664411374 8.646537012e-39
0.2171768179 -0.04636758668 0.7806320851 8.37173958e-39
0.2103818382 -0.03974969261 0.7612340432 8.188076996e-39
0.2109113405 -0.0549848343 0.7635993178 8.280279632e-39
0.2020055308 -0.03496940066 0.7817483776 8.46323316e-39
0.2219514682 -0.04632507302 0.7600314911 8.830217813e-39
0.2231468744 -0.03649903818 0.7331488905 9.197922734e-39
0.2058216449 -0.04153470901 0.7548265639 9.382674128e-39
0.2189218133 -0.04438448265 0.7530449196 9.566335311e-39
0.2056321346 -0.05138562269 0.7631742543 8.832000265e-39
0.2028108536 -0.05530514168 0.7401505856 8.188790257e-39
0.2316968645 -0.04273301195 0.7552039005 8.923471423e-39
0.195985822 -0.0416327241 0.7460985609 9.750353825e-39
0.1976356986 -0.04484026796 0.7393894594 1.011841888e-38
0.2291384965 -0.05308164566 0.7540780866 1.05779579e-38
0.2248476301 -0.02945748971 0.7452350038 1.076199182e-38
0.2201995413 -0.03814816818 0.7410358957 1.094673061e-38
0.2263832028 -0.05245220913 0.7478390747 1.103963389e-38
0.2252568781 -0.04589810933 0.7519527995 1.122546008e-38
0.2064502413 -0.04940893281 0.7339619504 1.177755346e-38
0.2331701698 -0.06152936001 0.743022118 1.242041174e-38
0.2467519509 -0.04547580609 0.7500748653 1.20534397e-38
