# .PCD v0.7 - Point Cloud Data file format
VERSION 0.7
FIELDS x y z rgb
SIZE 4 4 4 4
TYPE F F F F
COUNT 1 1 1 1
WIDTH 969
HEIGHT 1
VIEWPOINT 0 0 0 1 0 0 0
POINTS 969
DATA ascii
0.32457718 0.036977146 0.71900004 1.186545551e-38
0.32640001 0.037028573 0.72000003 1.1497759e-38
0.32868192 0.037131432 0.72200006 1.113005688e-38
0.33005717 0.037131432 0.72200006 1.113005548e-38
0.3314324 0.037131432 0.72200006 1.113005127e-38
0.33326861 0.03718286 0.72300005 1.122152523e-38
0.33557144 0.037285715 0.72500002 1.1311923e-38
0.33695239 0.037285715 0.72500002 1.112968553e-38
0.33879998 0.037337143 0.72600001 1.085453638e-38
0.34112003 0.037440002 0.72800004 1.067050525e-38
0.34297714 0.03749143 0.72900003 1.057830822e-38
0.34436572 0.03749143 0.72900003 1.030172273e-38
0.34717718 0.037645716 0.73200005 1.002657498e-38
0.34952381 0.037748571 0.73400003 9.841827786e-39
0.35187814 0.03785143 0.73600006 9.747839896e-39
0.35328004 0.03785143 0.73600006 9.931510888e-39
0.35468191 0.03785143 0.73600006 1.011554342e-38
0.35656765 0.037902862 0.73700005 9.839682398e-39
0.35894287 0.038005717 0.73900002 9.471264216e-39
0.36083809 0.038057141 0.74000001 9.379430122e-39
0.36224762 0.038057141 0.74000001 9.195757728e-39
0.36464 0.03816 0.74200004 9.194681531e-39
0.36605334 0.03816 0.74200004 9.101775443e-39
0.36746669 0.03816 0.74200004 8.458575244e-39
0.37385142 0.038674287 0.75200003 7.815363834e-39
0.37428573 0.038571432 0.75000006 8.362426551e-39
0.37821907 0.038828574 0.75500005 8.909486465e-39
0.38016003 0.038880002 0.75600004 9.65349047e-39
0.38160002 0.038880002 0.75600004 1.039758976e-38
0.38304001 0.038880002 0.75600004 1.234667261e-38
0.38448 0.038880002 0.75600004 1.429857488e-38
0.38592002 0.038880002 0.75600004 1.549426922e-38
0.38736004 0.038880002 0.75600004 1.668992153e-38
0.38880002 0.038880002 0.75600004 1.659019112e-38
0.39024001 0.038880002 0.75600004 1.659090999e-38
0.39168003 0.038880002 0.75600004 1.659055406e-38
0.081798092 0.035786666 0.671 1.158962112e-38
0.083076194 0.035786666 0.671 1.140272294e-38
0.084228575 0.035733335 0.67000002 1.186190322e-38
0.085632384 0.035786666 0.671 1.232359603e-38
0.086910471 0.035786666 0.671 1.278493151e-38
0.088188574 0.035786666 0.671 1.324698025e-38
0.089466669 0.035786666 0.671 1.334132688e-38
0.090744756 0.035786666 0.671 1.35253524e-38
0.092160001 0.035840005 0.67200005 1.334203453e-38
0.093718104 0.035946671 0.67400002 1.315764047e-38
0.095001914 0.035946671 0.67400002 1.30650819e-38
0.096285716 0.035946671 0.67400002 1.297252474e-38
0.097714283 0.035999998 0.67500001 1.28803263e-38
0.099146679 0.036053337 0.67600006 1.278741601e-38
0.10088 0.036213335 0.67900002 1.260374642e-38
0.10217334 0.036213335 0.67900002 1.24197153e-38
0.10361905 0.03626667 0.68000001 1.241971389e-38
0.10522287 0.036373336 0.68200004 1.241970549e-38
0.10652191 0.036373336 0.68200004 1.241969848e-38
0.10782096 0.036373336 0.68200004 1.251297731e-38
0.10912 0.036373336 0.68200004 1.269880911e-38
0.11041906 0.036373336 0.68200004 1.288499123e-38
0.1117181 0.036373336 0.68200004 1.316193265e-38
0.11301715 0.036373336 0.68200004 1.343779927e-38
0.11448382 0.036426667 0.68300003 1.399024998e-38
0.11578476 0.036426667 0.68300003 1.463238379e-38
0.11725714 0.036480002 0.68400002 1.417285178e-38
0.11890668 0.036586672 0.68600005 1.380657198e-38
0.12038857 0.03664 0.68700004 1.362396317e-38
0.12169715 0.03664 0.68700004 1.353034522e-38
0.12300572 0.03664 0.68700004 1.306938669e-38
0.1243143 0.03664 0.68700004 1.270167757e-38
0.12562287 0.03664 0.68700004 1.242580394e-38
0.12693143 0.03664 0.68700004 1.224212734e-38
0.12824 0.03664 0.68700004 1.196661665e-38
0.12954856 0.03664 0.68700004 1.178042752e-38
0.13085715 0.03664 0.68700004 1.150276303e-38
0.13216572 0.03664 0.68700004 1.122689641e-38
0.13405715 0.036800001 0.69000006 1.122689641e-38
0.13537145 0.036800001 0.69000006 1.131874312e-38
0.13668573 0.036800001 0.69000006 1.095177108e-38
0.13800001 0.036800001 0.69000006 1.067015913e-38
0.13951619 0.036853336 0.69100004 1.057759916e-38
0.14083239 0.036853336 0.69100004 1.05779635e-38
0.14194286 0.036800001 0.69000006 1.020739993e-38
0.14325716 0.036800001 0.69000006 9.838613208e-39
0.14478095 0.036853336 0.69100004 9.739593254e-39
0.14588572 0.036800001 0.69000006 9.65098635e-39
0.1472 0.036800001 0.69000006 9.195396193e-39
0.1485143 0.036800001 0.69000006 8.824466884e-39
0.14961143 0.036746666 0.68900001 9.280415773e-39
0.1509238 0.036746666 0.68900001 9.84147606e-39
0.15223619 0.036746666 0.68900001 1.039249184e-38
0.15354857 0.036746666 0.68900001 1.103354665e-38
0.15486096 0.036746666 0.68900001 1.094027763e-38
0.15617335 0.036746666 0.68900001 1.094386635e-38
0.15748571 0.036746666 0.68900001 1.103749831e-38
0.1587981 0.036746666 0.68900001 1.122188116e-38
0.16011047 0.036746666 0.68900001 1.113111626e-38
0.16142286 0.036746666 0.68900001 1.113004987e-38
0.16273524 0.036746666 0.68900001 1.057797051e-38
0.16404761 0.036746666 0.68900001 1.002623726e-38
0.16536 0.036746666 0.68900001 9.658535145e-39
0.16618858 0.03664 0.68700004 9.290845638e-39
0.16749714 0.03664 0.68700004 1.002554222e-38
0.16880572 0.03664 0.68700004 1.075986605e-38
0.17011429 0.03664 0.68700004 1.112720804e-38
0.17142285 0.03664 0.68700004 1.149669121e-38
0.17273144 0.03664 0.68700004 1.12265559e-38
0.17378667 0.036586672 0.68600005 1.104289051e-38
0.17458287 0.036480002 0.68400002 1.15020736e-38
0.17588572 0.036480002 0.68400002 1.205201598e-38
0.17718858 0.036480002 0.68400002 1.223425765e-38
0.17849143 0.036480002 0.68400002 1.251335707e-38
0.17979428 0.036480002 0.68400002 1.288034732e-38
0.18109715 0.036480002 0.68400002 1.325055777e-38
0.1824 0.036480002 0.68400002 1.352462792e-38
0.18370286 0.036480002 0.68400002 1.38941195e-38
0.18500572 0.036480002 0.68400002 1.389483556e-38
0.18630858 0.036480002 0.68400002 1.389769982e-38
0.18761143 0.036480002 0.68400002 1.380586012e-38
0.18946669 0.036586672 0.68600005 1.371295683e-38
0.19077334 0.036586672 0.68600005 1.371188904e-38
0.19208002 0.036586672 0.68600005 1.371188764e-38
0.19338667 0.036586672 0.68600005 1.334490299e-38
0.19497715 0.03664 0.68700004 1.297719667e-38
0.19628572 0.03664 0.68700004 1.306866642e-38
0.1975943 0.03664 0.68700004 1.325306049e-38
0.19890286 0.03664 0.68700004 1.325449962e-38
0.20021144 0.03664 0.68700004 1.334596938e-38
0.20152001 0.03664 0.68700004 1.343779647e-38
0.20282859 0.03664 0.68700004 1.362146465e-38
0.20413715 0.03664 0.68700004 1.389660961e-38
0.20544572 0.03664 0.68700004 1.426324254e-38
0.2067543 0.03664 0.68700004 1.398810459e-38
0.20806287 0.03664 0.68700004 1.371296384e-38
0.20937143 0.03664 0.68700004 1.380480634e-38
0.21129334 0.036746666 0.68900001 1.389699216e-38
0.21260571 0.036746666 0.68900001 1.408137221e-38
0.21329714 0.03664 0.68700004 1.43558039e-38
0.21460572 0.03664 0.68700004 1.417105812e-38
0.21654287 0.036746666 0.68900001 1.407994289e-38
0.21817145 0.036800001 0.69000006 1.408102329e-38
0.21948573 0.036800001 0.69000006 1.408102189e-38
0.22112 0.036853336 0.69100004 1.408102049e-38
0.2224362 0.036853336 0.69100004 1.417286159e-38
0.22440001 0.036960002 0.69300002 1.408139183e-38
0.22572 0.036960002 0.69300002 1.398954933e-38
0.22704001 0.036960002 0.69300002 1.380658879e-38
0.22770096 0.036853336 0.69100004 1.362255767e-38
0.22968 0.036960002 0.69300002 1.389806416e-38
0.23166668 0.037066668 0.69500005 1.417285038e-38
0.23265523 0.03701333 0.69400001 1.398881785e-38
0.23397714 0.03701333 0.69400001 1.389734249e-38
0.23529904 0.03701333 0.69400001 1.389805995e-38
0.23662095 0.03701333 0.69400001 1.38962761e-38
0.23794284 0.03701333 0.69400001 1.380409168e-38
0.23926476 0.03701333 0.69400001 1.371152891e-38
0.24058667 0.03701333 0.69400001 1.371116177e-38
0.24156 0.036960002 0.69300002 1.371079883e-38
0.24323048 0.03701333 0.69400001 1.371079463e-38
0.24455237 0.03701333 0.69400001 1.380299166e-38
0.24552001 0.036960002 0.69300002 1.361860601e-38
0.24612764 0.036853336 0.69100004 1.35256831e-38
0.24744381 0.036853336 0.69100004 1.297430018e-38
0.24876003 0.036853336 0.69100004 1.251513531e-38
0.2500762 0.036853336 0.69100004 1.315835513e-38
0.25139239 0.036853336 0.69100004 1.389374956e-38
0.25270858 0.036853336 0.69100004 1.407848974e-38
0.25402477 0.036853336 0.69100004 1.426253768e-38
0.25534099 0.036853336 0.69100004 1.426076224e-38
0.25665715 0.036853336 0.69100004 1.435438159e-38
0.25797334 0.036853336 0.69100004 1.426289501e-38
0.25928956 0.036853336 0.69100004 1.426181461e-38
0.26136002 0.036960002 0.69300002 1.416925745e-38
0.26305905 0.03701333 0.69400001 1.407850516e-38
0.26476192 0.037066668 0.69500005 1.389448244e-38
0.26608571 0.037066668 0.69500005 1.380156093e-38
0.26817906 0.037173335 0.69700003 1.370899957e-38
0.26950669 0.037173335 0.69700003 1.370864083e-38
0.27122286 0.037226666 0.69800001 1.38001176e-38
0.27255237 0.037226666 0.69800001 1.389195449e-38
0.27388191 0.037226666 0.69800001 1.380083786e-38
0.27521145 0.037226666 0.69800001 1.38001246e-38
0.27654096 0.037226666 0.69800001 1.398308234e-38
0.27866668 0.037333336 0.70000005 1.416710365e-38
0.28000003 0.037333336 0.70000005 1.407561988e-38
0.28133336 0.037333336 0.70000005 1.398415433e-38
0.2830705 0.037386667 0.70100003 1.416819526e-38
0.28440571 0.037386667 0.70100003 1.444369054e-38
0.28574097 0.037386667 0.70100003 1.416601905e-38
0.28789523 0.037493333 0.70300001 1.389123002e-38
0.28964573 0.037546668 0.70400006 1.380047213e-38
0.29098669 0.037546668 0.70400006 1.379940574e-38
0.29232764 0.037546668 0.70400006 1.379833935e-38
0.2936686 0.037546668 0.70400006 1.379798062e-38
0.29626667 0.037706669 0.70700002 1.379762188e-38
0.29761335 0.037706669 0.70700002 1.379760507e-38
0.29896003 0.037706669 0.70700002 1.361714585e-38
0.30073142 0.037759997 0.708 1.352495022e-38
0.30207998 0.037759997 0.708 1.352459009e-38
0.30428573 0.037866667 0.71000004 1.352101257e-38
0.3056381 0.037866667 0.71000004 1.351994759e-38
0.3069905 0.037866667 0.71000004 1.352029511e-38
0.30834287 0.037866667 0.71000004 1.333697164e-38
0.31013143 0.037920002 0.71100003 1.315329644e-38
0.31148571 0.037920002 0.71100003 1.287778435e-38
0.31284001 0.037920002 0.71100003 1.269303716e-38
0.31507811 0.038026668 0.71300006 1.26004842e-38
0.31688002 0.038079999 0.71400005 1.259976814e-38
0.31913143 0.038186666 0.71600002 1.296639546e-38
0.32049525 0.038186666 0.71600002 1.333301998e-38
0.32230857 0.038240001 0.71700001 1.241430628e-38
0.32457718 0.038346671 0.71900004 1.158886722e-38
0.32640001 0.038399998 0.72000003 1.113077154e-38
0.32777143 0.038399998 0.72000003 1.076199603e-38
0.33005717 0.038506668 0.72200006 1.076127996e-38
0.3314324 0.038506668 0.72200006 1.085346999e-38
0.33326861 0.038560003 0.72300005 1.094602015e-38
0.33557144 0.038666669 0.72500002 1.103677805e-38
0.33741713 0.038720001 0.72600001 1.076198762e-38
0.33973336 0.038826667 0.72800004 1.04861238e-38
0.34158859 0.038880002 0.72900003 1.030209548e-38
0.34391811 0.038986668 0.73100001 1.020989424e-38
0.34531045 0.038986668 0.73100001 9.934380747e-39
0.34812573 0.039146665 0.73400003 9.658872857e-39
0.34952381 0.039146665 0.73400003 9.658872857e-39
0.35187814 0.039253335 0.73600006 9.655288336e-39
0.35376003 0.03930667 0.73700005 1.002155693e-38
0.35516384 0.03930667 0.73700005 1.048145327e-38
0.35753524 0.039413337 0.73900002 9.931517895e-39
0.35942855 0.039466668 0.74000001 9.470543949e-39
0.36181334 0.039573334 0.74200004 9.286512823e-39
0.36322668 0.039573334 0.74200004 9.194675926e-39
0.36464 0.039573334 0.74200004 9.102840429e-39
0.36605334 0.039573334 0.74200004 9.098179711e-39
0.36796191 0.039626669 0.74300003 7.808899644e-39
0.37434858 0.04016 0.75300002 6.613645304e-39
0.37578288 0.04016 0.75300002 8.17381458e-39
0.37872005 0.040320002 0.75600004 9.846950933e-39
0.38116571 0.040426668 0.75800002 1.253027915e-38
0.38260955 0.040426668 0.75800002 1.529579632e-38
0.38506669 0.040533334 0.76000005 1.61331282e-38
0.38651431 0.040533334 0.76000005 1.705078251e-38
0.38592002 0.040320002 0.75600004 1.686641087e-38
0.38736004 0.040320002 0.75600004 1.668309721e-38
0.38880002 0.040320002 0.75600004 1.659162045e-38
0.39024001 0.040320002 0.75600004 1.649942902e-38
0.081676193 0.037009522 0.67000002 1.122226372e-38
0.083076194 0.037064761 0.671 1.066910115e-38
0.084228575 0.037009522 0.67000002 1.131087763e-38
0.085632384 0.037064761 0.671 1.195732043e-38
0.086910471 0.037064761 0.671 1.232574562e-38
0.088188574 0.037064761 0.671 1.278743283e-38
0.089466669 0.037064761 0.671 1.288034452e-38
0.090744756 0.037064761 0.671 1.306508891e-38
0.092160001 0.03712 0.67200005 1.288034032e-38
0.093718104 0.037230477 0.67400002 1.278778315e-38
0.095001914 0.037230477 0.67400002 1.269558612e-38
0.096285716 0.037230477 0.67400002 1.269558052e-38
0.097714283 0.037285715 0.67500001 1.260374082e-38
0.099146679 0.037340954 0.67600006 1.260373942e-38
0.10073143 0.037451431 0.67800003 1.241899082e-38
0.10217334 0.037506666 0.67900002 1.22338863e-38
0.10361905 0.037561905 0.68000001 1.214241094e-38
0.10491429 0.037561905 0.68000001 1.214312841e-38
0.10652191 0.037672386 0.68200004 1.205201178e-38
0.10782096 0.037672386 0.68200004 1.196089655e-38
0.10912 0.037672386 0.68200004 1.22392771e-38
0.11041906 0.037672386 0.68200004 1.260984487e-38
0.1117181 0.037672386 0.68200004 1.288606742e-38
0.11301715 0.037672386 0.68200004 1.325377515e-38
0.1143162 0.037672386 0.68200004 1.37126009e-38
0.11561524 0.037672386 0.68200004 1.417178539e-38
0.11725714 0.037782859 0.68400002 1.389736351e-38
0.11856001 0.037782859 0.68400002 1.371511063e-38
0.12021334 0.037893336 0.68600005 1.353106409e-38
0.12152001 0.037893336 0.68600005 1.343816921e-38
0.12282667 0.037893336 0.68600005 1.306905178e-38
0.12413334 0.037893336 0.68600005 1.270097832e-38
0.12544 0.037893336 0.68600005 1.251729471e-38
0.12674668 0.037893336 0.68600005 1.242616687e-38
0.12805334 0.037893336 0.68600005 1.233288664e-38
0.12936001 0.037893336 0.68600005 1.223996794e-38
0.13066667 0.037893336 0.68600005 1.186974909e-38
0.13216572 0.037948571 0.68700004 1.150420217e-38
0.13386285 0.038059048 0.68900001 1.159711526e-38
0.13537145 0.038114291 0.69000006 1.17822352e-38
0.13668573 0.038114291 0.69000006 1.187049738e-38
0.13800001 0.038114291 0.69000006 1.195873855e-38
0.13951619 0.038169526 0.69100004 1.214061027e-38
0.14083239 0.038169526 0.69100004 1.241468043e-38
0.14194286 0.038114291 0.69000006 1.186008013e-38
0.14325716 0.038114291 0.69000006 1.139730411e-38
0.14457144 0.038114291 0.69000006 1.139621671e-38
0.14588572 0.038114291 0.69000006 1.130330782e-38
0.1472 0.038114291 0.69000006 1.09356099e-38
0.1485143 0.038114291 0.69000006 1.065973908e-38
0.14961143 0.038059048 0.68900001 1.029418655e-38
0.1509238 0.038059048 0.68900001 1.002083386e-38
0.15223619 0.038059048 0.68900001 1.020522512e-38
0.15354857 0.038059048 0.68900001 1.038961077e-38
0.15486096 0.038059048 0.68900001 1.002298485e-38
0.15640001 0.038114291 0.69000006 9.656726068e-39
0.15748571 0.038059048 0.68900001 1.002622886e-38
0.1587981 0.038059048 0.68900001 1.03942813e-38
0.16011047 0.038059048 0.68900001 1.067013951e-38
0.16142286 0.038059048 0.68900001 1.103820877e-38
0.16273524 0.038059048 0.68900001 1.085347279e-38
0.16404761 0.038059048 0.68900001 1.066369214e-38
0.16536 0.038059048 0.68900001 1.039570782e-38
0.16618858 0.037948571 0.68700004 1.021062432e-38
0.16749714 0.037948571 0.68700004 1.076130239e-38
0.16880572 0.037948571 0.68700004 1.131231536e-38
0.17011429 0.037948571 0.68700004 1.167929861e-38
0.17117333 0.037893336 0.68600005 1.195479529e-38
0.17248002 0.037893336 0.68600005 1.186940857e-38
0.17378667 0.037893336 0.68600005 1.168753264e-38
0.17458287 0.037782859 0.68400002 1.205380123e-38
0.17588572 0.037782859 0.68400002 1.242114742e-38
0.17692952 0.03772762 0.68300003 1.260518275e-38
0.17823049 0.03772762 0.68300003 1.278921948e-38
0.17953144 0.03772762 0.68300003 1.306545185e-38
0.18083239 0.03772762 0.68300003 1.343458889e-38
0.1824 0.037782859 0.68400002 1.361862002e-38
0.18370286 0.037782859 0.68400002 1.380264694e-38
0.18500572 0.037782859 0.68400002 1.371152751e-38
0.18630858 0.037782859 0.68400002 1.362147727e-38
0.18761143 0.037782859 0.68400002 1.36207528e-38
0.18891428 0.037782859 0.68400002 1.371223657e-38
0.19021714 0.037782859 0.68400002 1.371152751e-38
0.19208002 0.037893336 0.68600005 1.371152751e-38
0.19338667 0.037893336 0.68600005 1.343637975e-38
0.19469334 0.037893336 0.68600005 1.325234442e-38
0.19600001 0.037893336 0.68600005 1.325269755e-38
0.19730668 0.037893336 0.68600005 1.325376814e-38
0.19861335 0.037893336 0.68600005 1.325340521e-38
0.19992001 0.037893336 0.68600005 1.334452464e-38
0.20122667 0.037893336 0.68600005 1.3437079e-38
0.20253335 0.037893336 0.68600005 1.362146886e-38
0.20413715 0.037948571 0.68700004 1.380442379e-38
0.20514669 0.037893336 0.68600005 1.407957855e-38
0.2067543 0.037948571 0.68700004 1.38962747e-38
0.20806287 0.037948571 0.68700004 1.380515386e-38
0.20937143 0.037948571 0.68700004 1.380479373e-38
0.21068001 0.037948571 0.68700004 1.380514686e-38
0.21198858 0.037948571 0.68700004 1.389769561e-38
0.21329714 0.037948571 0.68700004 1.398809898e-38
0.21460572 0.037948571 0.68700004 1.398774446e-38
0.21654287 0.038059048 0.68900001 1.398774586e-38
0.21817145 0.038114291 0.69000006 1.407922402e-38
0.21948573 0.038114291 0.69000006 1.426289501e-38
0.22080003 0.038114291 0.69000006 1.417106092e-38
0.22211429 0.038114291 0.69000006 1.407958696e-38
0.22342859 0.038114291 0.69000006 1.399026679e-38
0.22506858 0.038169526 0.69100004 1.398989965e-38
0.22605716 0.038114291 0.69000006 1.380586292e-38
0.2270419 0.038059048 0.68900001 1.371403023e-38
0.22901715 0.038169526 0.69100004 1.398918079e-38
0.23100001 0.038279999 0.69300002 1.435651576e-38
0.23232 0.038279999 0.69300002 1.408064494e-38
0.23364 0.038279999 0.69300002 1.380585872e-38
0.23496 0.038279999 0.69300002 1.371330996e-38
0.23628001 0.038279999 0.69300002 1.37125981e-38
0.23760001 0.038279999 0.69300002 1.352893271e-38
0.23892 0.038279999 0.69300002 1.325448841e-38
0.24024001 0.038279999 0.69300002 1.343742932e-38
0.24156 0.038279999 0.69300002 1.371221975e-38
0.24288 0.038279999 0.69300002 1.371150509e-38
0.24420001 0.038279999 0.69300002 1.380298325e-38
0.24481143 0.038169526 0.69100004 1.371043309e-38
0.24612764 0.038169526 0.69100004 1.361823466e-38
0.24708575 0.038114291 0.69000006 1.343348467e-38
0.2484 0.038114291 0.69000006 1.324945915e-38
0.2497143 0.038114291 0.69000006 1.361788153e-38
0.2510286 0.038114291 0.69000006 1.40781254e-38
0.25234288 0.038114291 0.69000006 1.417031122e-38
0.25365716 0.038114291 0.69000006 1.435437598e-38
0.25497144 0.038114291 0.69000006 1.435441101e-38
0.25628576 0.038114291 0.69000006 1.435475293e-38
0.25760001 0.038114291 0.69000006 1.435437738e-38
0.25891429 0.038114291 0.69000006 1.435401445e-38
0.26022857 0.038114291 0.69000006 1.444584574e-38
0.26267999 0.038279999 0.69300002 1.444621568e-38
0.264 0.038279999 0.69300002 1.426183984e-38
0.26532 0.038279999 0.69300002 1.398344527e-38
0.26817906 0.038500953 0.69700003 1.389231042e-38
0.26950669 0.038500953 0.69700003 1.389337962e-38
0.2708343 0.038500953 0.69700003 1.389229781e-38
0.27216193 0.038500953 0.69700003 1.389123002e-38
0.27388191 0.038556192 0.69800001 1.389339083e-38
0.27521145 0.038556192 0.69800001 1.398629691e-38
0.27654096 0.038556192 0.69800001 1.416888751e-38
0.27866668 0.038666669 0.70000005 1.444368073e-38
0.28000003 0.038666669 0.70000005 1.425929648e-38
0.28133336 0.038666669 0.70000005 1.416711907e-38
0.28266668 0.038666669 0.70000005 1.416749602e-38
0.28400001 0.038666669 0.70000005 1.416819526e-38
0.28574097 0.038721904 0.70100003 1.398414732e-38
0.28707621 0.038721904 0.70100003 1.380047213e-38
0.28923431 0.038832381 0.70300001 1.35256803e-38
0.29098669 0.038887624 0.70400006 1.334273518e-38
0.29232764 0.038887624 0.70400006 1.352354472e-38
0.2936686 0.038887624 0.70400006 1.370685978e-38
0.29542857 0.038942859 0.70500004 1.370578639e-38
0.29677144 0.038942859 0.70500004 1.370469618e-38
0.2981143 0.038942859 0.70500004 1.352208877e-38
0.30030668 0.039053332 0.70700002 1.333948697e-38
0.30165336 0.039053332 0.70700002 1.333840517e-38
0.30342856 0.039108571 0.708 1.324549628e-38
0.30477715 0.039108571 0.708 1.324621654e-38
0.30612573 0.039108571 0.708 1.33387625e-38
0.30834287 0.039219048 0.71000004 1.315436844e-38
0.31013143 0.039274286 0.71100003 1.306217421e-38
0.31148571 0.039274286 0.71100003 1.278523419e-38
0.31284001 0.039274286 0.71100003 1.259976954e-38
0.31507811 0.039384764 0.71300006 1.250757531e-38
0.31688002 0.039440002 0.71400005 1.232354698e-38
0.31913143 0.039550476 0.71600002 1.241502655e-38
0.32049525 0.039550476 0.71600002 1.250578024e-38
0.32230857 0.039605711 0.71700001 1.19551218e-38
0.32457718 0.039716192 0.71900004 1.131263766e-38
0.32640001 0.03977143 0.72000003 1.085274972e-38
0.32868192 0.039881907 0.72200006 1.048505321e-38
0.33005717 0.039881907 0.72200006 1.057725164e-38
0.3314324 0.039881907 0.72200006 1.075912477e-38
0.33326861 0.039937146 0.72300005 1.076199182e-38
0.33557144 0.040047623 0.72500002 1.076055549e-38
0.33834666 0.040213335 0.72800004 1.057724323e-38
0.33973336 0.040213335 0.72800004 1.039250025e-38
0.34252572 0.040379047 0.73100001 1.020847473e-38
0.3443886 0.040434286 0.73200005 1.011662802e-38
0.34672764 0.040544763 0.73400003 9.841111723e-39
0.34812573 0.040544763 0.73400003 9.657437928e-39
0.34952381 0.040544763 0.73400003 9.472330605e-39
0.35235623 0.040710479 0.73700005 9.28758902e-39
0.35472003 0.040820953 0.73900002 9.470906885e-39
0.35612765 0.040820953 0.73900002 9.65350168e-39
0.35753524 0.040820953 0.73900002 9.37763646e-39
0.35942855 0.040876191 0.74000001 9.19360113e-39
0.36181334 0.040986668 0.74200004 8.551464516e-39
0.36224762 0.040876191 0.74000001 8.001169004e-39
0.36464 0.040986668 0.74200004 7.812475758e-39
0.36605334 0.040986668 0.74200004 7.715976741e-39
0.37638095 0.041980952 0.76000005 8.633614237e-39
0.37534288 0.041704766 0.75500005 9.643175512e-39
0.37678099 0.041704766 0.75500005 1.150436892e-38
0.38122478 0.042036191 0.76100004 1.33658552e-38
0.38267431 0.042036191 0.76100004 1.466054568e-38
0.38260955 0.041870475 0.75800002 1.604741638e-38
0.38506669 0.041980952 0.76000005 1.631611816e-38
0.38651431 0.041980952 0.76000005 1.658910652e-38
0.081676193 0.038285714 0.67000002 1.085490352e-38
0.083076194 0.03834286 0.671 1.002516247e-38
0.084228575 0.038285714 0.67000002 1.085204907e-38
0.085632384 0.03834286 0.671 1.168000627e-38
0.086910471 0.03834286 0.671 1.195838682e-38
0.088188574 0.03834286 0.671 1.232716514e-38
0.089466669 0.03834286 0.671 1.242007963e-38
0.090744756 0.03834286 0.671 1.260410656e-38
0.092160001 0.038400002 0.67200005 1.251298572e-38
0.093718104 0.038514286 0.67400002 1.242043136e-38
0.095001914 0.038514286 0.67400002 1.242007123e-38
0.096285716 0.038514286 0.67400002 1.241970829e-38
0.097714283 0.038571429 0.67500001 1.241970409e-38
0.099146679 0.038628574 0.67600006 1.251046058e-38
0.10073143 0.038742855 0.67800003 1.223423523e-38
0.10217334 0.038800001 0.67900002 1.205056564e-38
0.10361905 0.038857143 0.68000001 1.195909167e-38
0.10491429 0.038857143 0.68000001 1.195909448e-38
0.10620952 0.038857143 0.68000001 1.168430826e-38
0.10782096 0.038971432 0.68200004 1.15010002e-38
0.10912 0.038971432 0.68200004 1.187157358e-38
0.11041906 0.038971432 0.68200004 1.233290486e-38
0.1117181 0.038971432 0.68200004 1.270240064e-38
0.11301715 0.038971432 0.68200004 1.306974823e-38
0.1143162 0.038971432 0.68200004 1.334526032e-38
0.11561524 0.038971432 0.68200004 1.371260371e-38
0.11708572 0.039028574 0.68300003 1.362220594e-38
0.11838667 0.039028574 0.68300003 1.362219193e-38
0.11986286 0.039085716 0.68400002 1.343886566e-38
0.12116572 0.039085716 0.68400002 1.334524911e-38
0.12282667 0.039200004 0.68600005 1.306868044e-38
0.12413334 0.039200004 0.68600005 1.279280541e-38
0.12544 0.039200004 0.68600005 1.270060137e-38
0.12674668 0.039200004 0.68600005 1.260804e-38
0.12805334 0.039200004 0.68600005 1.269950976e-38
0.12936001 0.039200004 0.68600005 1.279025925e-38
0.13066667 0.039200004 0.68600005 1.232892096e-38
0.13197334 0.039200004 0.68600005 1.186975329e-38
0.13347429 0.039257143 0.68700004 1.205774028e-38
0.13517524 0.039371427 0.68900001 1.224250989e-38
0.13668573 0.039428573 0.69000006 1.270458106e-38
0.13800001 0.039428573 0.69000006 1.325378636e-38
0.13931429 0.039428573 0.69000006 1.37115135e-38
0.14062859 0.039428573 0.69000006 1.426252787e-38
0.14194286 0.039428573 0.69000006 1.362003813e-38
0.14325716 0.039428573 0.69000006 1.306866222e-38
0.14457144 0.039428573 0.69000006 1.306865802e-38
0.14588572 0.039428573 0.69000006 1.306685454e-38
0.1472 0.039428573 0.69000006 1.278990472e-38
0.1485143 0.039428573 0.69000006 1.251403249e-38
0.14961143 0.039371427 0.68900001 1.141199953e-38
0.1509238 0.039371427 0.68900001 1.0303522e-38
0.15223619 0.039371427 0.68900001 1.002192266e-38
0.15354857 0.039371427 0.68900001 9.748212641e-39
0.15441144 0.039257143 0.68700004 9.107520766e-39
0.15617335 0.039371427 0.68900001 8.464317765e-39
0.15748571 0.039371427 0.68900001 9.015334946e-39
0.1587981 0.039371427 0.68900001 9.567422718e-39
0.16011047 0.039371427 0.68900001 1.021134599e-38
0.16142286 0.039371427 0.68900001 1.094567543e-38
0.16273524 0.039371427 0.68900001 1.112899329e-38
0.16404761 0.039371427 0.68900001 1.131445094e-38
0.16488001 0.039257143 0.68700004 1.122476083e-38
0.16618858 0.039257143 0.68700004 1.113580501e-38
0.16749714 0.039257143 0.68700004 1.150638539e-38
0.16880572 0.039257143 0.68700004 1.19648426e-38
0.16986668 0.039200004 0.68600005 1.223962882e-38
0.17117333 0.039200004 0.68600005 1.251369898e-38
0.17248002 0.039200004 0.68600005 1.242078729e-38
0.17328 0.039085716 0.68400002 1.242114322e-38
0.17432763 0.039028574 0.68300003 1.260516874e-38
0.17562857 0.039028574 0.68300003 1.278992153e-38
0.17692952 0.039028574 0.68300003 1.288319616e-38
0.17823049 0.039028574 0.68300003 1.306651543e-38
0.17953144 0.039028574 0.68300003 1.334202752e-38
0.18083239 0.039028574 0.68300003 1.361789835e-38
0.18213333 0.039028574 0.68300003 1.361898015e-38
0.18343429 0.039028574 0.68300003 1.371117298e-38
0.18500572 0.039085716 0.68400002 1.352857678e-38
0.1860362 0.039028574 0.68300003 1.343672868e-38
0.18761143 0.039085716 0.68400002 1.352855296e-38
0.18891428 0.039085716 0.68400002 1.371151209e-38
0.19021714 0.039085716 0.68400002 1.371116037e-38
0.19152001 0.039085716 0.68400002 1.371188064e-38
0.19282286 0.039085716 0.68400002 1.362040667e-38
0.19412571 0.039085716 0.68400002 1.352856417e-38
0.19542858 0.039085716 0.68400002 1.343672167e-38
0.19673143 0.039085716 0.68400002 1.33452393e-38
0.19803429 0.039085716 0.68400002 1.33452337e-38
0.19992001 0.039200004 0.68600005 1.334487636e-38
0.20122667 0.039200004 0.68600005 1.34359944e-38
0.20253335 0.039200004 0.68600005 1.362002692e-38
0.20384002 0.039200004 0.68600005 1.371258269e-38
0.20514669 0.039200004 0.68600005 1.389626209e-38
0.20645335 0.039200004 0.68600005 1.389627049e-38
0.20776001 0.039200004 0.68600005 1.398810739e-38
0.20906669 0.039200004 0.68600005 1.389663203e-38
0.21037334 0.039200004 0.68600005 1.38055182e-38
0.21168002 0.039200004 0.68600005 1.371404564e-38
0.21298668 0.039200004 0.68600005 1.371331697e-38
0.21460572 0.039257143 0.68700004 1.380406646e-38
0.21591429 0.039257143 0.68700004 1.389554602e-38
0.21785523 0.039371427 0.68900001 1.417105672e-38
0.21916762 0.039371427 0.68900001 1.444656741e-38
0.22048 0.039371427 0.68900001 1.426074682e-38
0.22179238 0.039371427 0.68900001 1.40799527e-38
0.22310477 0.039371427 0.68900001 1.39913528e-38
0.22441714 0.039371427 0.68900001 1.398954933e-38
0.22572953 0.039371427 0.68900001 1.389698656e-38
0.22638287 0.039257143 0.68700004 1.389699497e-38
0.22769144 0.039257143 0.68700004 1.417250846e-38
0.229 0.039257143 0.68700004 1.453983783e-38
0.2313143 0.039428573 0.69000006 1.408064914e-38
0.2326286 0.039428573 0.69000006 1.371294142e-38
0.23394287 0.039428573 0.69000006 1.362074158e-38
0.23559812 0.039485715 0.69100004 1.362074859e-38
0.23691429 0.039485715 0.69100004 1.325377235e-38
0.23823048 0.039485715 0.69100004 1.288641635e-38
0.23954669 0.039485715 0.69100004 1.325517785e-38
0.24051431 0.039428573 0.69000006 1.371257148e-38
0.24182858 0.039428573 0.69000006 1.371329875e-38
0.24314287 0.039428573 0.69000006 1.380369932e-38
0.24445716 0.039428573 0.69000006 1.371042889e-38
0.24577145 0.039428573 0.69000006 1.371042889e-38
0.24672762 0.039371427 0.68900001 1.380082806e-38
0.24804002 0.039371427 0.68900001 1.398522212e-38
0.24935238 0.039371427 0.68900001 1.416961478e-38
0.25066477 0.039371427 0.68900001 1.435400183e-38
0.25197712 0.039371427 0.68900001 1.435507663e-38
0.25328952 0.039371427 0.68900001 1.444692754e-38
0.2546019 0.039371427 0.68900001 1.444730309e-38
0.25591427 0.039371427 0.68900001 1.444657441e-38
0.25760001 0.039428573 0.69000006 1.444620447e-38
0.25891429 0.039428573 0.69000006 1.453767703e-38
0.26022857 0.039428573 0.69000006 1.472098509e-38
0.26267999 0.0396 0.69300002 1.490466309e-38
0.264 0.0396 0.69300002 1.453732671e-38
0.26570287 0.039657142 0.69400001 1.426037128e-38
0.26740956 0.039714288 0.69500005 1.416744697e-38
0.26873335 0.039714288 0.69500005 1.40759632e-38
0.2708343 0.039828572 0.69700003 1.398483816e-38
0.27216193 0.039828572 0.69700003 1.398557665e-38
0.27348953 0.039828572 0.69700003 1.407815203e-38
0.27481714 0.039828572 0.69700003 1.416997351e-38
0.27654096 0.039885715 0.69800001 1.444546739e-38
0.27787048 0.039885715 0.69800001 1.481030105e-38
0.28000003 0.040000003 0.70000005 1.453264357e-38
0.28133336 0.040000003 0.70000005 1.435005718e-38
0.28266668 0.040000003 0.70000005 1.407778769e-38
0.28400001 0.040000003 0.70000005 1.389267336e-38
0.28574097 0.040057145 0.70100003 1.379939313e-38
0.28707621 0.040057145 0.70100003 1.380046512e-38
0.28841144 0.040057145 0.70100003 1.334343583e-38
0.29098669 0.040228572 0.70400006 1.28824773e-38
0.29232764 0.040228572 0.70400006 1.32487557e-38
0.2936686 0.040228572 0.70400006 1.370614652e-38
0.29542857 0.040285718 0.70500004 1.37057948e-38
0.29677144 0.040285718 0.70500004 1.370577938e-38
0.2981143 0.040285718 0.70500004 1.343061481e-38
0.29945716 0.040285718 0.70500004 1.324800881e-38
0.30080003 0.040285718 0.70500004 1.31540097e-38
0.303 0.040400002 0.70700002 1.306253855e-38
0.30434665 0.040400002 0.70700002 1.306326162e-38
0.30569333 0.040400002 0.70700002 1.315509571e-38
0.30834287 0.040571429 0.71000004 1.306361895e-38
0.30969524 0.040571429 0.71000004 1.296891079e-38
0.31148571 0.040628571 0.71100003 1.278452093e-38
0.31284001 0.040628571 0.71100003 1.259941221e-38
0.31507811 0.040742859 0.71300006 1.232390291e-38
0.31688002 0.040800005 0.71400005 1.213951306e-38
0.31913143 0.04091429 0.71600002 1.195548333e-38
0.32049525 0.04091429 0.71600002 1.177109207e-38
0.32230857 0.040971428 0.71700001 1.140267109e-38
0.32457718 0.041085716 0.71900004 1.11271702e-38
0.32730669 0.041257147 0.72200006 1.066799833e-38
0.32868192 0.041257147 0.72200006 1.020954672e-38
0.33005717 0.041257147 0.72200006 1.048542035e-38
0.33189145 0.041314289 0.72300005 1.076127716e-38
0.33326861 0.041314289 0.72300005 1.057795509e-38
0.33557144 0.04142857 0.72500002 1.048540353e-38
0.33834666 0.041600004 0.72800004 1.039392677e-38
0.34113333 0.041771431 0.73100001 1.039286178e-38
0.3429943 0.041828573 0.73200005 1.020848454e-38
0.34532952 0.041942857 0.73400003 1.002479673e-38
0.3476724 0.042057145 0.73600006 9.838957927e-39
0.3490743 0.042057145 0.73600006 9.74712103e-39
0.35047621 0.042057145 0.73600006 9.286148485e-39
0.35331237 0.042228572 0.73900002 8.919532373e-39
0.35519999 0.042285714 0.74000001 8.920258246e-39
0.35660952 0.042285714 0.74000001 8.919544985e-39
0.35898671 0.042400002 0.74200004 8.918833126e-39
0.36040002 0.042400002 0.74200004 8.916307986e-39
0.36181334 0.042400002 0.74200004 7.812117026e-39
0.36322668 0.042400002 0.74200004 6.799084735e-39
0.36513144 0.042457145 0.74300003 6.520737814e-39
0.37148002 0.043028571 0.75300002 6.351805679e-39
0.37539047 0.043314286 0.75800002 9.489308737e-39
0.37584001 0.043200001 0.75600004 1.271866551e-38
0.37927622 0.043428574 0.76000005 1.475416083e-38
0.38122478 0.043485716 0.76100004 1.686782198e-38
0.38267431 0.043485716 0.76100004 1.677778995e-38
0.38412383 0.043485716 0.76100004 1.67760019e-38
0.081676193 0.039561905 0.67000002 1.141199673e-38
0.083076194 0.039620955 0.671 1.075875623e-38
0.084228575 0.039561905 0.67000002 1.103499279e-38
0.085632384 0.039620955 0.671 1.140305224e-38
0.08678095 0.039561905 0.67000002 1.168106986e-38
0.088188574 0.039620955 0.671 1.195909308e-38
0.089466669 0.039620955 0.671 1.205021671e-38
0.090744756 0.039620955 0.671 1.214168927e-38
0.092160001 0.03968 0.67200005 1.214240393e-38
0.093718104 0.039798096 0.67400002 1.214348013e-38
0.095001914 0.039798096 0.67400002 1.204985238e-38
0.096285716 0.039798096 0.67400002 1.204805451e-38
0.097714283 0.039857145 0.67500001 1.204805171e-38
0.099146679 0.039916191 0.67600006 1.214024173e-38
0.10073143 0.040034287 0.67800003 1.195764413e-38
0.10217334 0.040093333 0.67900002 1.186545271e-38
0.10361905 0.040152382 0.68000001 1.186617438e-38
0.10491429 0.040152382 0.68000001 1.186689605e-38
0.10620952 0.040152382 0.68000001 1.177542489e-38
0.10750476 0.040152382 0.68000001 1.168430966e-38
0.10879999 0.040152382 0.68000001 1.205488444e-38
0.11009523 0.040152382 0.68000001 1.242366556e-38
0.11139047 0.040152382 0.68000001 1.269989511e-38
0.11268571 0.040152382 0.68000001 1.29764806e-38
0.11398095 0.040152382 0.68000001 1.325270876e-38
0.11527619 0.040152382 0.68000001 1.362112274e-38
0.11691429 0.040270481 0.68200004 1.371295543e-38
0.11821334 0.040270481 0.68200004 1.371330295e-38
0.11968762 0.040329523 0.68300003 1.343706919e-38
0.12098857 0.040329523 0.68300003 1.325268914e-38
0.12246858 0.040388573 0.68400002 1.288499683e-38
0.12377144 0.040388573 0.68400002 1.260733094e-38
0.12507428 0.040388573 0.68400002 1.251548984e-38
0.12637714 0.040388573 0.68400002 1.242364874e-38
0.12805334 0.040506668 0.68600005 1.233109017e-38
0.12936001 0.040506668 0.68600005 1.2238526e-38
0.13066667 0.040506668 0.68600005 1.196157478e-38
0.13197334 0.040506668 0.68600005 1.168465157e-38
0.13347429 0.040565714 0.68700004 1.177973528e-38
0.13517524 0.04068381 0.68900001 1.196846076e-38
0.13648762 0.04068381 0.68900001 1.224328341e-38
0.13780001 0.04068381 0.68900001 1.260988411e-38
0.13931429 0.040742859 0.69000006 1.297648621e-38
0.14062859 0.040742859 0.69000006 1.343566509e-38
0.14194286 0.040742859 0.69000006 1.316052014e-38
0.14325716 0.040742859 0.69000006 1.297720928e-38
0.1443619 0.04068381 0.68900001 1.334455407e-38
0.14567429 0.04068381 0.68900001 1.371187503e-38
0.14698666 0.04068381 0.68900001 1.334451343e-38
0.14829905 0.04068381 0.68900001 1.306935586e-38
0.14961143 0.04068381 0.68900001 1.270164674e-38
0.1509238 0.04068381 0.68900001 1.242578992e-38
0.15223619 0.04068381 0.68900001 1.214634579e-38
0.15310286 0.040565714 0.68700004 1.195873715e-38
0.15441144 0.040565714 0.68700004 1.140701651e-38
0.15617335 0.04068381 0.68900001 1.094712157e-38
0.15748571 0.04068381 0.68900001 1.103967593e-38
0.1587981 0.04068381 0.68900001 1.122442732e-38
0.15964572 0.040565714 0.68700004 1.140810392e-38
0.1609543 0.040565714 0.68700004 1.159177351e-38
0.16226286 0.040565714 0.68700004 1.168504254e-38
0.16404761 0.04068381 0.68900001 1.187014566e-38
0.16488001 0.040565714 0.68700004 1.178045975e-38
0.16618858 0.040565714 0.68700004 1.178296808e-38
0.16749714 0.040565714 0.68700004 1.205811303e-38
0.16856 0.040506668 0.68600005 1.233361251e-38
0.16986668 0.040506668 0.68600005 1.2606961e-38
0.17117333 0.040506668 0.68600005 1.287601871e-38
0.17197715 0.040388573 0.68400002 1.28824843e-38
0.17328 0.040388573 0.68400002 1.297502746e-38
0.17432763 0.040329523 0.68300003 1.306721328e-38
0.17562857 0.040329523 0.68300003 1.315977044e-38
0.17667049 0.040270481 0.68200004 1.325197028e-38
0.17796953 0.040270481 0.68200004 1.334416871e-38
0.17926858 0.040270481 0.68200004 1.352676911e-38
0.18056762 0.040270481 0.68200004 1.361789695e-38
0.18213333 0.040329523 0.68300003 1.371117718e-38
0.18343429 0.040329523 0.68300003 1.389520551e-38
0.18473525 0.040329523 0.68300003 1.371225058e-38
0.1860362 0.040329523 0.68300003 1.362039827e-38
0.18761143 0.040388573 0.68400002 1.371257708e-38
0.18891428 0.040388573 0.68400002 1.389768861e-38
0.19021714 0.040388573 0.68400002 1.389697675e-38
0.19152001 0.040388573 0.68400002 1.389626489e-38
0.19282286 0.040388573 0.68400002 1.37125995e-38
0.19412571 0.040388573 0.68400002 1.362147166e-38
0.19542858 0.040388573 0.68400002 1.334595677e-38
0.19673143 0.040388573 0.68400002 1.316228017e-38
0.19803429 0.040388573 0.68400002 1.325375133e-38
0.19933714 0.040388573 0.68400002 1.334558682e-38
0.20063999 0.040388573 0.68400002 1.343598739e-38
0.20194286 0.040388573 0.68400002 1.361966118e-38
0.20384002 0.040506668 0.68600005 1.371221835e-38
0.20514669 0.040506668 0.68600005 1.389661661e-38
0.20645335 0.040506668 0.68600005 1.398810319e-38
0.20715429 0.040388573 0.68400002 1.417177838e-38
0.20845714 0.040388573 0.68400002 1.398847033e-38
0.20976 0.040388573 0.68400002 1.380588955e-38
0.21106285 0.040388573 0.68400002 1.353039707e-38
0.21236572 0.040388573 0.68400002 1.334705959e-38
0.21366857 0.040388573 0.68400002 1.353034662e-38
0.21560001 0.040506668 0.68600005 1.371366449e-38
0.21690668 0.040506668 0.68600005 1.380443079e-38
0.21821335 0.040506668 0.68600005 1.398738993e-38
0.21952002 0.040506668 0.68600005 1.389592017e-38
0.22082667 0.040506668 0.68600005 1.380481195e-38
0.22213335 0.040506668 0.68600005 1.380518049e-38
0.22344001 0.040506668 0.68600005 1.371369251e-38
0.22474669 0.040506668 0.68600005 1.380515807e-38
0.22638287 0.040565714 0.68700004 1.380517068e-38
0.22769144 0.040565714 0.68700004 1.398849555e-38
0.23000002 0.040742859 0.69000006 1.417178959e-38
0.2313143 0.040742859 0.69000006 1.398810039e-38
0.2326286 0.040742859 0.69000006 1.380405525e-38
0.23394287 0.040742859 0.69000006 1.38955166e-38
0.23525716 0.040742859 0.69000006 1.4079196e-38
0.23657145 0.040742859 0.69000006 1.362038566e-38
0.23788573 0.040742859 0.69000006 1.325338559e-38
0.23954669 0.040801909 0.69100004 1.352887666e-38
0.24051431 0.040742859 0.69000006 1.38047587e-38
0.24182858 0.040742859 0.69000006 1.389661101e-38
0.24314287 0.040742859 0.69000006 1.407992187e-38
0.24445716 0.040742859 0.69000006 1.398665004e-38
0.24541524 0.04068381 0.68900001 1.389445721e-38
0.24672762 0.04068381 0.68900001 1.398665425e-38
0.24804002 0.04068381 0.68900001 1.407885408e-38
0.24935238 0.04068381 0.68900001 1.426253068e-38
0.25066477 0.04068381 0.68900001 1.444656601e-38
0.25197712 0.04068381 0.68900001 1.444657161e-38
0.25328952 0.04068381 0.68900001 1.444692754e-38
0.2546019 0.04068381 0.68900001 1.444656741e-38
0.25591427 0.04068381 0.68900001 1.44465618e-38
0.25722668 0.04068381 0.68900001 1.444619746e-38
0.25853905 0.04068381 0.68900001 1.444619326e-38
0.26022857 0.040742859 0.69000006 1.435399483e-38
0.26192191 0.040801909 0.69100004 1.42618006e-38
0.2632381 0.040801909 0.69100004 1.416996651e-38
0.26570287 0.040979046 0.69400001 1.417031543e-38
0.26702476 0.040979046 0.69400001 1.407847012e-38
0.26873335 0.0410381 0.69500005 1.398698635e-38
0.27005717 0.0410381 0.69500005 1.398626188e-38
0.27138096 0.0410381 0.69500005 1.398557805e-38
0.27270478 0.0410381 0.69500005 1.398597181e-38
0.27402857 0.0410381 0.69500005 1.407671009e-38
0.27614477 0.041156191 0.69700003 1.435291303e-38
0.27787048 0.041215237 0.69800001 1.462590839e-38
0.27919999 0.041215237 0.69800001 1.435004317e-38
0.28052953 0.041215237 0.69800001 1.416601204e-38
0.28266668 0.041333333 0.70000005 1.370791076e-38
0.28400001 0.041333333 0.70000005 1.334164497e-38
0.28533334 0.041333333 0.70000005 1.352531596e-38
0.28707621 0.041392382 0.70100003 1.380081685e-38
0.28841144 0.041392382 0.70100003 1.352458729e-38
0.29098669 0.041569527 0.70400006 1.324873888e-38
0.29232764 0.041569527 0.70400006 1.361502148e-38
0.2936686 0.041569527 0.70400006 1.398093975e-38
0.29542857 0.041628573 0.70500004 1.388911687e-38
0.29677144 0.041628573 0.70500004 1.370757865e-38
0.2981143 0.041628573 0.70500004 1.343205394e-38
0.29945716 0.041628573 0.70500004 1.324836614e-38
0.30080003 0.041628573 0.70500004 1.306396226e-38
0.303 0.041746665 0.70700002 1.297177504e-38
0.30434665 0.041746665 0.70700002 1.287815429e-38
0.30569333 0.041746665 0.70700002 1.27852468e-38
0.30747429 0.041805714 0.708 1.278453494e-38
0.30969524 0.041923814 0.71000004 1.269197638e-38
0.31148571 0.041982856 0.71100003 1.250758372e-38
0.31284001 0.041982856 0.71100003 1.241538388e-38
0.31507811 0.042100959 0.71300006 1.213987319e-38
0.31688002 0.042160001 0.71400005 1.195763292e-38
0.31913143 0.042278096 0.71600002 1.177180533e-38
0.32049525 0.042278096 0.71600002 1.158777561e-38
0.32230857 0.042337146 0.71700001 1.131155165e-38
0.32457718 0.042455241 0.71900004 1.103569064e-38
0.32640001 0.042514287 0.72000003 1.085202525e-38
0.32868192 0.042632382 0.72200006 1.06687256e-38
0.33051431 0.042691432 0.72300005 1.066873821e-38
0.33189145 0.042691432 0.72300005 1.05768873e-38
0.33326861 0.042691432 0.72300005 1.039356103e-38
0.33557144 0.042809524 0.72500002 1.011805594e-38
0.33834666 0.042986669 0.72800004 1.011770001e-38
0.33973336 0.042986669 0.72800004 1.002588273e-38
0.3429943 0.04322286 0.73200005 9.93334799e-39
0.34532952 0.043340955 0.73400003 9.749295845e-39
0.3481448 0.0435181 0.73700005 9.564526234e-39
0.34954861 0.0435181 0.73700005 9.380136376e-39
0.35095242 0.0435181 0.73700005 9.011718194e-39
0.35331237 0.043636192 0.73900002 8.733711789e-39
0.35519999 0.043695237 0.74000001 8.277056646e-39
0.35660952 0.043695237 0.74000001 7.819682636e-39
0.35898671 0.043813333 0.74200004 7.903994561e-39
0.36088574 0.043872382 0.74300003 7.901462414e-39
0.36327621 0.043990478 0.74500006 8.456041696e-39
0.36616382 0.044167623 0.74800003 9.092131707e-39
0.37102857 0.044580955 0.75500005 1.01231875e-38
0.37246668 0.044580955 0.75500005 1.124608019e-38
0.37390479 0.044580955 0.75500005 1.318652403e-38
0.37683427 0.044758096 0.75800002 1.521874872e-38
0.37977526 0.044935241 0.76100004 1.585622322e-38
0.38122478 0.044935241 0.76100004 1.659269524e-38
0.38267431 0.044935241 0.76100004 1.677564457e-38
0.38412383 0.044935241 0.76100004 1.705079092e-38
0.081676193 0.040838096 0.67000002 1.196911096e-38
0.08295238 0.040838096 0.67000002 1.159352654e-38
0.084228575 0.040838096 0.67000002 1.130977901e-38
0.085504763 0.040838096 0.67000002 1.112718001e-38
0.08678095 0.040838096 0.67000002 1.140411723e-38
0.088057138 0.040838096 0.67000002 1.167999086e-38
0.089466669 0.040899046 0.671 1.168071533e-38
0.090744756 0.040899046 0.671 1.177398295e-38
0.092160001 0.040960003 0.67200005 1.186617438e-38
0.093718104 0.041081905 0.67400002 1.195729241e-38
0.095001914 0.041081905 0.67400002 1.177290395e-38
0.096285716 0.041081905 0.67400002 1.168070552e-38
0.097714283 0.041142859 0.67500001 1.168177751e-38
0.099146679 0.041203812 0.67600006 1.177361301e-38
0.1004343 0.041203812 0.67600006 1.177433187e-38
0.10202286 0.041325714 0.67800003 1.177397735e-38
0.10346667 0.041386668 0.67900002 1.177398155e-38
0.10491429 0.041447621 0.68000001 1.177434028e-38
0.10620952 0.041447621 0.68000001 1.186689464e-38
0.10750476 0.041447621 0.68000001 1.195873715e-38
0.10879999 0.041447621 0.68000001 1.22381967e-38
0.11009523 0.041447621 0.68000001 1.260661908e-38
0.11139047 0.041447621 0.68000001 1.269989371e-38
0.11268571 0.041447621 0.68000001 1.288392624e-38
0.11398095 0.041447621 0.68000001 1.325198989e-38
0.11527619 0.041447621 0.68000001 1.36207598e-38
0.11691429 0.041569527 0.68200004 1.371258829e-38
0.11821334 0.041569527 0.68200004 1.389624947e-38
0.11951239 0.041569527 0.68200004 1.352889908e-38
0.12098857 0.041630477 0.68300003 1.316120397e-38
0.12228953 0.041630477 0.68300003 1.279350886e-38
0.12377144 0.04169143 0.68400002 1.251584017e-38
0.12507428 0.04169143 0.68400002 1.242471373e-38
0.12637714 0.04169143 0.68400002 1.233072724e-38
0.12767999 0.04169143 0.68400002 1.196267059e-38
0.12898286 0.04169143 0.68400002 1.168643963e-38
0.13028571 0.04169143 0.68400002 1.15942398e-38
0.13197334 0.041813336 0.68600005 1.159389228e-38
0.13328001 0.041813336 0.68600005 1.159390489e-38
0.13458668 0.041813336 0.68600005 1.16879194e-38
0.13609144 0.041874286 0.68700004 1.187412815e-38
0.1374 0.041874286 0.68700004 1.205778793e-38
0.13911238 0.041996192 0.68900001 1.233328321e-38
0.14001715 0.041874286 0.68700004 1.26087981e-38
0.14173715 0.041996192 0.68900001 1.270064201e-38
0.14304952 0.041996192 0.68900001 1.288430459e-38
0.1443619 0.041996192 0.68900001 1.361898015e-38
0.14567429 0.041996192 0.68900001 1.435401024e-38
0.14656 0.041874286 0.68700004 1.398701578e-38
0.14786857 0.041874286 0.68700004 1.362003393e-38
0.14961143 0.041996192 0.68900001 1.407993028e-38
0.15048572 0.041874286 0.68700004 1.462950692e-38
0.15179428 0.041874286 0.68700004 1.435686889e-38
0.15310286 0.041874286 0.68700004 1.417249305e-38
0.15418668 0.041813336 0.68600005 1.380444761e-38
0.15572001 0.041874286 0.68700004 1.353000891e-38
0.15748571 0.041996192 0.68900001 1.316409485e-38
0.1587981 0.041996192 0.68900001 1.288752057e-38
0.16011047 0.041996192 0.68900001 1.261130503e-38
0.16142286 0.041996192 0.68900001 1.233650339e-38
0.16226286 0.041874286 0.68700004 1.233720824e-38
0.16357145 0.041874286 0.68700004 1.242761161e-38
0.16488001 0.041874286 0.68700004 1.242617949e-38
0.16618858 0.041874286 0.68700004 1.251801218e-38
0.16725335 0.041813336 0.68600005 1.260984487e-38
0.16856 0.041813336 0.68600005 1.279315713e-38
0.16937143 0.04169143 0.68400002 1.306651263e-38
0.17067429 0.04169143 0.68400002 1.334309391e-38
0.17197715 0.04169143 0.68400002 1.34360042e-38
0.17302667 0.041630477 0.68300003 1.352747957e-38
0.1740724 0.041569527 0.68200004 1.352747817e-38
0.17537144 0.041569527 0.68200004 1.361931226e-38
0.17667049 0.041569527 0.68200004 1.361967099e-38
0.17796953 0.041569527 0.68200004 1.371151209e-38
0.17926858 0.041569527 0.68200004 1.371115897e-38
0.18056762 0.041569527 0.68200004 1.371116597e-38
0.18186668 0.041569527 0.68200004 1.38952027e-38
0.18316571 0.041569527 0.68200004 1.407923383e-38
0.18473525 0.041630477 0.68300003 1.389664044e-38
0.18576382 0.041569527 0.68200004 1.380479233e-38
0.18706287 0.041569527 0.68200004 1.389697395e-38
0.18836191 0.041569527 0.68200004 1.408100787e-38
0.18993905 0.041630477 0.68300003 1.408137081e-38
0.19124 0.041630477 0.68300003 1.407958135e-38
0.19254096 0.041630477 0.68300003 1.389663203e-38
0.19384192 0.041630477 0.68300003 1.3804435e-38
0.19514287 0.041630477 0.68300003 1.334740851e-38
0.19644381 0.041630477 0.68300003 1.297862039e-38
0.19774476 0.041630477 0.68300003 1.316335636e-38
0.19904572 0.041630477 0.68300003 1.334522669e-38
0.20034668 0.041630477 0.68300003 1.343598038e-38
0.20164762 0.041630477 0.68300003 1.361965838e-38
0.20294857 0.041630477 0.68300003 1.371185821e-38
0.20424953 0.041630477 0.68300003 1.389517468e-38
0.20555048 0.041630477 0.68300003 1.417068677e-38
0.20685144 0.041630477 0.68300003 1.444691913e-38
0.20815238 0.041630477 0.68300003 1.408030442e-38
0.20945334 0.041630477 0.68300003 1.380516507e-38
0.21106285 0.04169143 0.68400002 1.343855036e-38
0.21205524 0.041630477 0.68300003 1.307118035e-38
0.2133562 0.041630477 0.68300003 1.325518345e-38
0.21497142 0.04169143 0.68400002 1.352998369e-38
0.21690668 0.041813336 0.68600005 1.352963757e-38
0.21821335 0.041813336 0.68600005 1.352928584e-38
0.21952002 0.041813336 0.68600005 1.352929425e-38
0.22082667 0.041813336 0.68600005 1.362148567e-38
0.22213335 0.041813336 0.68600005 1.353000611e-38
0.22344001 0.041813336 0.68600005 1.353000331e-38
0.22474669 0.041813336 0.68600005 1.362255487e-38
0.22605334 0.041813336 0.68600005 1.380550979e-38
0.22769144 0.041874286 0.68700004 1.380479513e-38
0.22966668 0.041996192 0.68900001 1.389662923e-38
0.23097904 0.041996192 0.68900001 1.389662923e-38
0.23229143 0.041996192 0.68900001 1.398774025e-38
0.23360381 0.041996192 0.68900001 1.426252367e-38
0.2349162 0.041996192 0.68900001 1.453838469e-38
0.23622857 0.041996192 0.68900001 1.407956314e-38
