# .PCD v0.7 - Point Cloud Data file format
VERSION 0.7
FIELDS x y z rgb
SIZE 4 4 4 4
TYPE F F F F
COUNT 1 1 1 1
WIDTH 861
HEIGHT 1
VIEWPOINT 0 0 0 1 0 0 0
POINTS 861
DATA ascii
0.1959787672 0.06040244482 0.7640495494 1.288463109e-38
0.1875137905 0.04908866707 0.7826683815 1.325161995e-38
0.2151613159 0.04715375493 0.7833534635 1.334346105e-38
0.2065869612 0.04977835377 0.7757418235 1.352640757e-38
0.1948531888 0.05138722095 0.7749957922 1.34338462e-38
0.2022724051 0.04188479611 0.7600134482 1.334596517e-38
0.2090974914 0.05919163529 0.770142665 1.36229136e-38
0.1921597975 0.05155455005 0.7624834276 1.389808097e-38
0.1964032792 0.05975755753 0.7802900339 1.417540074e-38
0.1983567782 0.04317687341 0.7535587417 1.445161629e-38
0.1943480968 0.0524564169 0.7832252338 1.472890943e-38
0.2118288688 0.07219340808 0.7728010275 1.509662136e-38
0.2165778506 0.03652399577 0.7850873512 1.518918693e-38
0.1946200332 0.05665970401 0.7829741592 1.528136715e-38
0.3166869074 0.07707576252 0.8130430853 1.658364566e-38
0.321535669 0.06709962524 0.8038168435 1.676336218e-38
0.3223273994 0.07209115784 0.8102662738 1.630023164e-38
0.3300971137 0.07650621787 0.8099936573 1.583888915e-38
0.3375260221 0.05923940801 0.8053209111 1.556121906e-38
0.3162837695 0.0721588411 0.8113788714 1.52849867e-38
0.3257459391 0.05518994667 0.7972117693 1.519242673e-38
0.3452801933 0.05402909903 0.8093321428 1.510095137e-38
0.3399173044 0.06067709304 0.8523797694 1.500732501e-38
0.3328526214 0.06576708803 0.8124278832 1.491297279e-38
0.3426862746 0.05639237782 0.8168221386 1.490902253e-38
0.3551329291 0.05140413111 0.8064615951 1.491008751e-38
0.3285864115 0.04609495597 0.8026939506 1.481824221e-38
0.3288647864 0.04920035411 0.7947330811 1.472532211e-38
0.3460695401 0.04174352215 0.8013650487 1.454056791e-38
0.3444659995 0.04674424113 0.805954465 1.435582212e-38
0.3573404263 0.04989725828 0.8146006607 1.417107633e-38
0.3609210438 0.04559334944 0.8065340828 1.398739133e-38
0.3365181051 0.03660534996 0.8240301054 1.371187223e-38
0.3459947372 0.05957917234 0.8121223782 1.343563706e-38
0.3606718541 0.06265792026 0.8196682389 1.371077501e-38
0.3596067694 0.06056744415 0.7968327917 1.398630392e-38
0.354147182 0.035581141 0.804307944 1.389556704e-38
0.3608209392 0.04236223184 0.8116462628 1.380334899e-38
0.3629923592 0.04180175138 0.7812487003 1.380332657e-38
0.3634099635 0.0615607326 0.8038271921 1.389230202e-38
0.3833985801 0.05504341963 0.8311864355 1.380191266e-38
0.3532013371 0.06202619397 0.7970536305 1.371041768e-38
0.3753193796 0.05815121399 0.8181645658 1.352744734e-38
0.3631282361 0.05257941479 0.8108993968 1.343563146e-38
0.3659701213 0.06259411308 0.7963917076 1.343457348e-38
0.3791327895 0.06500701609 0.7997240696 1.352461391e-38
0.3662086014 0.05130770521 0.8092459592 1.334094152e-38
0.36548049 0.05207602194 0.8076646008 1.324767389e-38
0.3850254429 0.04637848528 0.8015726186 1.297324641e-38
0.3715803611 0.05779380745 0.8191118601 1.278777194e-38
0.3833506833 0.03585163607 0.7937818536 1.306291129e-38
0.3665857571 0.03872149239 0.8092423249 1.333842899e-38
0.3926350646 0.05957080831 0.805358624 1.324588724e-38
0.4030685381 0.04392332196 0.8120498608 1.315440067e-38
0.395465104 0.04515603649 0.8054947052 1.287960323e-38
0.4015228408 0.06145088249 0.815698036 1.260265621e-38
0.3892476785 0.06170166073 0.8186394878 1.251117524e-38
0.3798883445 0.06040054637 0.7947616328 1.251116824e-38
0.3934752277 0.05197148153 0.8209921083 1.269483362e-38
0.4017204087 0.04938749981 0.8229844769 1.297033871e-38
0.3991816317 0.04408129371 0.8077965046 1.278666772e-38
0.3684459175 0.05408390427 0.8257942532 1.260228487e-38
0.4001254103 0.06331334064 0.8012653047 1.278560413e-38
0.4183116746 0.0345855581 0.8230253283 1.306146235e-38
0.403166836 0.06393191425 0.8203793342 1.250900884e-38
0.4021432506 0.05363849227 0.8160012543 1.205200057e-38
0.4032939279 0.06487224269 0.8169499684 1.159248117e-38
0.4104809385 0.04905098023 0.8266168176 1.122477204e-38
0.408310897 0.07612143515 0.8170316865 1.140843463e-38
0.4100914541 0.04482613275 0.8299389824 1.168395513e-38
0.4283146546 0.05626833101 0.8323540571 1.131662716e-38
0.4152304902 0.05031143209 0.8308666522 1.094854949e-38
0.4067237432 0.06555261093 0.8276338692 1.131551593e-38
0.4431242634 0.05514422054 0.8271022934 1.177397034e-38
0.4246370697 0.04646958162 0.831425954 1.168141317e-38
0.4169547228 0.04931949853 0.8429365703 1.158993501e-38
0.4277398125 0.05253665918 0.8148594412 1.159029234e-38
0.4316150949 0.04393857244 0.8401181495 1.168106005e-38
0.4392061819 0.05791976838 0.828106601 1.112933801e-38
0.1936482393 0.05793599058 0.7433189157 1.187117421e-38
0.1745731612 0.04434335035 0.7678042418 1.214381644e-38
0.1955111509 0.04996965658 0.7636198432 1.186616317e-38
0.1998256891 0.05820635063 0.7642925163 1.1679279e-38
0.1767508366 0.05620464351 0.7791048978 1.149634228e-38
0.2007271097 0.05805528404 0.775826751 1.131339716e-38
0.191609133 0.06260275831 0.7892602828 1.159178192e-38
0.1708785997 0.05928894828 0.7802542743 1.187265678e-38
0.2071514849 0.05084710205 0.7679330813 1.242293968e-38
0.1763035607 0.05270711215 0.7985964683 1.306543783e-38
0.1898490892 0.05196030879 0.7760044757 1.343099596e-38
0.1993261309 0.05330880237 0.7600255543 1.379689041e-38
0.1978367383 0.0543389687 0.7581420776 1.35245999e-38
0.2144725402 0.06781696733 0.7681758483 1.334487636e-38
0.1950146034 0.05687870264 0.7856399151 1.352962636e-38
0.2138450197 0.06002258608 0.7697456549 1.371438616e-38
0.2276828197 0.05200009743 0.7701439957 1.399134159e-38
0.2068749621 0.06238863552 0.7790892499 1.435904791e-38
0.2050908885 0.04125273995 0.7803060304 1.47263955e-38
0.2127300819 0.0498099459 0.7733365708 1.509410042e-38
0.1884515095 0.04953184271 0.7750749597 1.537032858e-38
0.2160649319 0.04602438667 0.7598156899 1.564655113e-38
0.2217309039 0.05087735076 0.761661287 1.546323887e-38
0.2293147086 0.06088138916 0.7760551919 1.527993362e-38
0.2157516611 0.05274656543 0.7751092539 1.519025892e-38
0.229971247 0.06369428752 0.7785279545 1.510058423e-38
0.2144309113 0.06112692266 0.7930760968 1.51002339e-38
0.2293143722 0.0402312203 0.7735872127 1.510236948e-38
0.2160272987 0.05467361558 0.7882234663 1.455062363e-38
0.2253897593 0.0458273794 0.7802923834 1.399887637e-38
0.2268624272 0.04928241068 0.7675005025 1.371833221e-38
0.2178691274 0.04984911918 0.7873719279 1.352997668e-38
0.2551775983 0.05156021293 0.785607165 8.200991362e-39
0.2703114291 0.05965772616 0.7830608687 7.834003906e-39
0.3290566366 0.0493139684 0.8097924505 1.593795255e-38
0.3350658248 0.04669061161 0.8047784254 1.593793573e-38
0.3262850904 0.05230917883 0.8076564449 1.584106257e-38
0.326574461 0.06477475189 0.81093773 1.583639064e-38
0.3134576344 0.06746324011 0.7924602862 1.565199518e-38
0.320408475 0.05642509722 0.7770984134 1.546794583e-38
0.3217624674 0.05807049855 0.8123560185 1.528317902e-38
0.3352832802 0.05143661747 0.8075813695 1.509878776e-38
0.3423582132 0.06827891577 0.8092296917 1.491583143e-38
0.3446127358 0.05236174485 0.7898271835 1.482614973e-38
0.3440072518 0.05184679328 0.8147676706 1.472893465e-38
0.3357999469 0.05306862041 0.796804096 1.454310987e-38
0.3387549139 0.07802246776 0.81415698 1.463351043e-38
0.3247879297 0.05001671933 0.79638338 1.463421669e-38
0.34898942 0.05239749444 0.8029062974 1.463277195e-38
0.3257349453 0.05996663687 0.799380753 1.453842532e-38
0.3400252919 0.05180075874 0.8270698518 1.444658983e-38
0.3462310869 0.03496045512 0.803452902 1.435475013e-38
0.3575089299 0.06778701557 0.8226993438 1.41707176e-38
0.3492034908 0.06274954033 0.7824539995 1.407743316e-38
0.3470736045 0.06767492306 0.8047860518 1.389518309e-38
0.3465317281 0.04598606277 0.7886823086 1.371113374e-38
0.3457233203 0.06845593321 0.7993853078 1.398626188e-38
0.355340147 0.0514630816 0.7889548676 1.435362489e-38
0.3617770491 0.05615729939 0.8121453491 1.407778068e-38
0.3694720208 0.04975130972 0.8152601959 1.389410689e-38
0.3638047174 0.07140072872 0.7891588798 1.407669888e-38
0.3487499591 0.05783768282 0.7939079128 1.425929648e-38
0.3651439525 0.05346729384 0.8138499137 1.407634575e-38
0.3651567085 0.07159757177 0.7954208858 1.389337541e-38
0.3469812904 0.06418664871 0.8167783174 1.38026007e-38
0.370910123 0.05190007415 0.7939375084 1.371149388e-38
0.3527142767 0.06103189691 0.818865339 1.36175186e-38
0.3634345323 0.07424793099 0.8175816204 1.361608367e-38
0.3738730778 0.04680188097 0.8169164734 1.352353071e-38
0.380313367 0.06543508536 0.8117450963 1.352317057e-38
0.3585567487 0.06523715371 0.8104434779 1.324694522e-38
0.3782115819 0.06888031499 0.8043460111 1.306291409e-38
0.3774604225 0.06318429699 0.815428565 1.315474819e-38
0.3666823233 0.06303968701 0.8064208036 1.333842338e-38
0.3876533043 0.04484758644 0.80592761 1.315547546e-38
0.3971618018 0.06323815519 0.8098928846 1.306434902e-38
0.3871148052 0.06940153842 0.8158871427 1.278775933e-38
0.3954813143 0.05235984452 0.7979624273 1.251045217e-38
0.3908903114 0.06511358557 0.8224733351 1.223529881e-38
0.380512963 0.0541608686 0.8165074484 1.205054742e-38
0.3949987014 0.05270918262 0.8004386563 1.269518535e-38
0.3990498421 0.07232348751 0.8080644287 1.333731496e-38
0.3866697809 0.0566132747 0.7932384347 1.297033171e-38
0.4040885618 0.05181608315 0.8302820735 1.269554689e-38
0.4105441809 0.08802401872 0.8011282698 1.269447489e-38
0.4121179452 0.05326973808 0.8370705213 1.278631179e-38
0.4068220882 0.06930912949 0.8429553821 1.251116684e-38
0.3947344704 0.07708405765 0.819162951 1.214454652e-38
0.4206770599 0.05431020001 0.8060713945 1.214419199e-38
0.3978021827 0.07799722691 0.8283970316 1.214383326e-38
0.4160535608 0.07720095405 0.822217067 1.195872734e-38
0.4000152098 0.05279838495 0.8152039738 1.177508157e-38
0.43390613 0.03843840859 0.8129606938 1.168434749e-38
0.4108756209 0.03880154755 0.82784471 1.159356437e-38
0.4101029164 0.05880104472 0.8247426441 1.159067069e-38
0.4364355718 0.05601995128 0.824391258 1.159101821e-38
0.4222884205 0.06290677675 0.8380590955 1.149881277e-38
0.4204531612 0.06198100629 0.8282909826 1.149845264e-38
0.4415784612 0.05616739386 0.834031116 1.149845124e-38
0.4290016097 0.05930439274 0.8226013367 1.149846245e-38
0.4462191857 0.04771020686 0.8143897398 1.122081478e-38
0.1803123672 0.04932299731 0.751750364 1.261303283e-38
0.1683701691 0.04086435031 0.7598387439 1.306145114e-38
0.1834228619 0.05349378068 0.7723675276 1.251259336e-38
0.1913382144 0.06295806013 0.7841446483 1.195800146e-38
0.183565647 0.04324185166 0.7676013027 1.158923436e-38
0.1989965927 0.05675521826 0.7572071684 1.131338595e-38
0.1930300137 0.05533886212 0.7701013667 1.131304404e-38
0.1866551848 0.05587428394 0.7688820411 1.131841802e-38
0.1976736262 0.02158172836 0.7706782335 1.205452991e-38
0.2113657455 0.05809585375 0.7889985412 1.288033191e-38
0.2075479763 0.04833717023 0.7775677221 1.343062882e-38
0.191501695 0.06132851247 0.7795028437 1.407275142e-38
0.2026940811 0.05427183421 0.769377088 1.370755343e-38
0.1967024101 0.06833903579 0.7801759047 1.343456087e-38
0.1994171538 0.04830773724 0.7657217011 1.34370748e-38
0.2133722286 0.05569290585 0.7614440904 1.35299991e-38
0.1985416558 0.03038361286 0.7686174811 1.389950749e-38
0.2034765117 0.05276251104 0.7836627058 1.435832904e-38
0.1967840997 0.05845918444 0.7714519837 1.47253165e-38
0.2179418535 0.0568755881 0.7699872605 1.509266269e-38
0.2210094759 0.04469421379 0.7677997244 1.555220311e-38
0.2346451247 0.05318621095 0.7650640176 1.601137778e-38
0.2072044891 0.0624433978 0.7746820633 1.564439313e-38
0.2242984159 0.04934804183 0.782766569 1.537140337e-38
0.2235537649 0.05679788552 0.7781586005 1.537212785e-38
0.2256525001 0.05481621034 0.7783130819 1.546468641e-38
0.2227346163 0.06431022736 0.786921649 1.57412761e-38
0.2448340754 0.04502134275 0.7803251873 1.610896701e-38
0.229847624 0.06845107903 0.7767722971 1.638518116e-38
0.2359469443 0.0274291172 0.7638912304 1.666068624e-38
0.2139365448 0.06145425726 0.767259008 1.629872384e-38
0.2338845637 0.06439805131 0.7846446564 1.592814066e-38
0.232954292 0.05299840281 0.7795369476 1.56497503e-38
0.2414103418 0.06741147386 0.7943430324 9.105015245e-39
0.2562834141 0.06939047665 0.7927498347 8.462147153e-39
0.2541624994 0.06200043635 0.7908920137 7.924410078e-39
0.2557819765 0.06398785936 0.78007079 6.43100847e-39
0.2450029316 0.05459625397 0.7922509927 5.078584493e-39
0.2560801674 0.04324584184 0.7964580003 4.683976043e-39
0.2589118391 0.03535519768 0.783991512 4.318066185e-39
0.2975754793 0.05785146035 0.8031293378 1.602473356e-38
0.328151361 0.04473391615 0.7951758543 1.556338827e-38
0.3184255558 0.04451531694 0.8002808026 1.519423721e-38
0.2988522615 0.0589569842 0.8149055597 1.491728598e-38
0.3316512743 0.04351985212 0.8041098421 1.500767674e-38
0.3289994291 0.04658537062 0.8193874434 1.509771157e-38
0.3333073166 0.06009544428 0.8125932359 1.500443414e-38
0.3085596037 0.0449474964 0.8084341474 1.491367063e-38
0.3365229858 0.05643584761 0.8047985745 1.473107163e-38
0.3300252374 0.07017118973 0.8070794784 1.463672361e-38
0.3221960561 0.05226051329 0.8049539796 1.445089882e-38
0.3493066312 0.07390129642 0.776166323 1.426650896e-38
0.3317473216 0.05841046908 0.8150261011 1.435798573e-38
0.3302856912 0.05007034227 0.8131469429 1.444838209e-38
0.3495671905 0.06185251215 0.8039680477 1.444730169e-38
0.3512683051 0.07243967483 0.8077638344 1.444622829e-38
0.3329908005 0.05670875187 0.8157971779 1.43543956e-38
0.336826046 0.05874707116 0.8008995683 1.435403126e-38
0.3309239008 0.047856099 0.798256718 1.426219156e-38
0.3427781375 0.0439400665 0.8074382603 1.417034345e-38
0.351705496 0.06215521548 0.8049787471 1.407849675e-38
0.3512902124 0.0598994778 0.8006621883 1.398700317e-38
0.3515262437 0.06492432106 0.7956049216 1.435217734e-38
0.3449584231 0.05186189384 0.819797867 1.472133681e-38
0.3361530988 0.05003467389 0.8219372938 1.435401725e-38
0.3810237922 0.05857555475 0.8093247722 1.407707163e-38
0.3511165306 0.04023737122 0.7976916178 1.435078025e-38
0.363912982 0.07036214812 0.8077248588 1.462629234e-38
0.360995385 0.06573603238 0.7941783019 1.435115019e-38
0.3590629374 0.0447541068 0.8044887048 1.416889451e-38
0.3463748923 0.06044468963 0.7993418393 1.4078117e-38
0.3605730484 0.0714519035 0.8016467949 1.398522212e-38
0.363194274 0.05065491177 0.791168423 1.380085048e-38
0.3863434096 0.04679359044 0.8212189915 1.370685558e-38
0.3670456673 0.0503031947 0.8117409616 1.370649124e-38
0.3669680406 0.05711018207 0.7935459379 1.3797961e-38
0.3836087964 0.04150128186 0.8153518809 1.361392427e-38
0.3581918491 0.0599596359 0.8112201311 1.343025047e-38
0.3692160909 0.08249590065 0.8242613011 1.333912824e-38
0.3984143086 0.05877726612 0.8046323349 1.333912964e-38
0.393439965 0.05903864562 0.8195396813 1.315796977e-38
0.3905594163 0.04096619911 0.8209161445 1.297214218e-38
0.385922923 0.06577484382 0.8130509349 1.269591403e-38
0.3969228706 0.05479265795 0.8275024296 1.241896981e-38
0.3798622846 0.05892459224 0.8313413817 1.195978952e-38
0.3839153279 0.05542289527 0.809636846 1.159280207e-38
0.3998485284 0.06256368544 0.8128223532 1.269554268e-38
0.3856578466 0.04030461174 0.82515251 1.379792597e-38
0.4018297214 0.06245007397 0.8233066682 1.324727172e-38
0.3897818262 0.06126643532 0.8225297199 1.278738098e-38
0.3859251502 0.06882889568 0.8167216945 1.269483082e-38
0.4132172467 0.05358789948 0.8193760647 1.26026408e-38
0.4047450443 0.06282748099 0.8222203769 1.241861668e-38
0.4206170413 0.06344035282 0.821605275 1.232642245e-38
0.3901798186 0.07105142326 0.8027602256 1.26934057e-38
0.4310741364 0.05335778706 0.824354606 1.306038615e-38
0.4144273942 0.05998802975 0.8109943813 1.241753488e-38
0.417005312 0.05759965131 0.815855588 1.186689605e-38
0.4244577785 0.04898078073 0.8088464899 1.205381244e-38
0.4146216053 0.05219807171 0.8249036861 1.223568277e-38
0.4366661128 0.06472654861 0.8346668046 1.177398715e-38
0.432336823 0.06616711834 0.8349167832 1.140699549e-38
0.4162537545 0.06377218209 0.8391968533 1.140734582e-38
0.4371077606 0.03529759432 0.8176145327 1.149846805e-38
0.4257536897 0.05974163712 0.8273064874 1.140699549e-38
0.4229118575 0.05529775613 0.8324309801 1.13140824e-38
0.4360484933 0.06271477437 0.8119885095 1.122045184e-38
0.1590639993 0.05708423667 0.7591686389 9.391258482e-39
0.183138478 0.07101761203 0.7794390476 9.479505253e-39
0.1694821114 0.05275620788 0.7487391179 9.020686504e-39
0.1860492765 0.04604969082 0.768156716 8.561869157e-39
0.1681512622 0.0534664504 0.7810650219 9.194701149e-39
0.1852165095 0.06180825474 0.7570720772 9.65641498e-39
0.1811197449 0.0552336811 0.7756570537 1.021352501e-38
0.1860881359 0.06799062429 0.7680818205 1.086031813e-38
0.2011418944 0.07078038808 0.7718603396 1.150172467e-38
0.1692890996 0.04975484566 0.7528275006 1.232823713e-38
0.2009118052 0.06813200503 0.7681329265 1.315475099e-38
0.2003425253 0.05584866553 0.7675115276 1.306398749e-38
0.1999570698 0.04174137636 0.7685476771 1.297323099e-38
0.2086509085 0.0551349087 0.7749760286 1.306865802e-38
0.2030480107 0.06100397338 0.760725646 1.325377795e-38
0.2236269596 0.06596787381 0.7740556434 1.371332818e-38
0.2136710968 0.05694977861 0.7862725503 1.417322312e-38
0.2187913394 0.03010706451 0.7883883791 1.444908974e-38
0.2136426197 0.06757837301 0.7721084585 1.48160772e-38
0.2137713305 0.05509126224 0.7720048508 1.518306606e-38
0.2064226982 0.05307471155 0.7735706693 1.555040384e-38
0.2117526501 0.04671472427 0.7687440646 1.546071653e-38
0.2104339804 0.05796111205 0.7573362494 1.537103904e-38
0.2165135644 0.06716806351 0.7738665131 1.537068591e-38
0.22747414 0.05765934845 0.7805053529 1.546252421e-38
0.2297542551 0.0653039157 0.7852839757 1.56461994e-38
0.2208342585 0.06231235223 0.7856320888 1.592206042e-38
0.2225670545 0.07888189404 0.7743408714 1.592313382e-38
0.2313057589 0.04207139944 0.7737996466 1.601641826e-38
0.221592953 0.06070454718 0.7700676491 1.59281841e-38
0.2273856834 0.05511160886 0.7832540163 1.583993032e-38
0.2402916085 0.04839429325 0.780905769 1.556370076e-38
0.2289152173 0.06457078105 0.7741581645 1.528783834e-38
0.2309718034 0.05874348615 0.7634163213 1.454634266e-38
0.2371159895 0.06278728832 0.7971100101 1.317345272e-38
0.2440837361 0.06591034175 0.7916241909 1.308124168e-38
0.2431167614 0.05715615089 0.789080559 1.298902363e-38
0.245724536 0.07871680094 0.7873238705 1.280030656e-38
0.2534485171 0.05453222703 0.7668183277 1.27034446e-38
0.2679387922 0.05783901519 0.7988007528 1.169181641e-38
0.2637472884 0.0509214213 0.7895199858 1.077238245e-38
0.2818789178 0.05712110407 0.7915431423 1.039822175e-38
0.2663447453 0.03649373264 0.7857486723 1.011589794e-38
0.3077985479 0.06679683141 0.7963010689 1.658328833e-38
0.3178482646 0.06109484095 0.7951955481 1.722433052e-38
0.3210531206 0.07967692835 0.7998478723 1.666900015e-38
0.319705159 0.0431346747 0.79133443 1.620622693e-38
0.3117003654 0.05872640147 0.8025676438 1.574740118e-38
0.3255748888 0.05055208635 0.8068724297 1.528210983e-38
0.3223892591 0.04681377964 0.8035308476 1.509663117e-38
0.3184619657 0.062293542 0.8018683415 1.481967714e-38
0.3332361269 0.05375965591 0.7866412064 1.472818916e-38
0.3260404544 0.05775437638 0.8065721417 1.4636718e-38
0.3481559799 0.06538758 0.8152587411 1.454417205e-38
0.339977515 0.05718603124 0.7822130367 1.445125475e-38
0.3273553227 0.05901640201 0.8012780535 1.435977238e-38
0.3415492221 0.06705907693 0.8139651583 1.436012551e-38
0.321400395 0.05267191346 0.7953079018 1.426505722e-38
0.325665878 0.06931082931 0.8060620867 1.426326215e-38
0.3234869695 0.08281909533 0.8076255553 1.453840991e-38
0.326286242 0.06698599027 0.7864912283 1.48139178e-38
0.3556261901 0.05067786765 0.8100962341 1.453805538e-38
0.3411762564 0.03552086974 0.8165988395 1.435403126e-38
0.3502325192 0.04862659719 0.7828030766 1.426184264e-38
0.3434357404 0.05962385717 0.7841672294 1.42614769e-38
0.348063792 0.04499646567 0.805885687 1.416999453e-38
0.3441696384 0.05960984886 0.8052855545 1.407850796e-38
0.3508362184 0.04966866393 0.8207856577 1.407885688e-38
0.3391848534 0.07554174131 0.8117340823 1.398736751e-38
0.3629091356 0.05168382506 0.8078422824 1.417102729e-38
0.3640702547 0.05587468207 0.8068673633 1.4446559e-38
0.3434418548 0.06644254249 0.8230072586 1.417143647e-38
0.3594902484 0.04434416964 0.8015010795 1.398488861e-38
0.3474537707 0.06574018062 0.817242439 1.4168554e-38
0.3593272921 0.06909909883 0.7925156655 1.43522334e-38
0.3467107361 0.05557296206 0.8071594532 1.426040771e-38
0.3537776502 0.07446522588 0.8096055084 1.426074402e-38
0.3502725442 0.06732072218 0.7992603997 1.416816864e-38
0.3734444321 0.05041268036 0.8055834812 1.416747219e-38
0.3805756585 0.05994029211 0.7911921064 1.398274742e-38
0.3553107301 0.04192405253 0.8065372027 1.379798762e-38
0.3690038702 0.05036913862 0.7933167442 1.389052937e-38
0.3908845872 0.05773375498 0.8104597885 1.407239409e-38
0.3652764219 0.05393128648 0.8173864551 1.379759246e-38
0.374758831 0.08668211278 0.8050911196 1.34306036e-38
0.3682423099 0.05325663972 0.8113521868 1.333912123e-38
0.3673134398 0.05904285147 0.8067779278 1.3247999e-38
0.3809009109 0.06649506104 0.8256694918 1.297213097e-38
0.3698674014 0.06912732171 0.8029887986 1.278845858e-38
0.3692123303 0.04656810714 0.8121027056 1.260335126e-38
0.3740358979 0.05093788152 0.8256125677 1.241932293e-38
0.375024827 0.04947795777 0.8313485317 1.223637081e-38
0.3856088812 0.04675256413 0.8146560541 1.205341307e-38
0.381122633 0.05742167907 0.8224911153 1.260370578e-38
0.3917464433 0.06622334554 0.8209856237 1.324870665e-38
0.3940058525 0.0604306243 0.8303205731 1.28806472e-38
0.4119073092 0.06278971138 0.8197280451 1.251187309e-38
0.3907190687 0.0580394613 0.8190206956 1.25107997e-38
0.4046028834 0.07144989968 0.815844674 1.241610135e-38
0.3871113349 0.04493929016 0.8239978692 1.232534905e-38
0.4108297572 0.03920369968 0.8300941113 1.213701034e-38
0.4150425758 0.05560081856 0.8254603947 1.232534065e-38
0.4154420177 0.06967101583 0.8034477166 1.25097235e-38
0.4106662832 0.06110363472 0.7968898857 1.177503392e-38
0.4034331419 0.03857033615 0.8204538126 1.104035696e-38
0.4251349018 0.05545280725 0.823035456 1.140806469e-38
0.4145901492 0.0601449209 0.8307123849 1.177577521e-38
0.4353109064 0.06054111689 0.807137074 1.149848627e-38
0.4408795677 0.046944564 0.8200995945 1.131265588e-38
0.4213732503 0.08436351858 0.8392381197 1.149775619e-38
0.4326698042 0.06730059608 0.8356977144 1.168215446e-38
0.4221604323 0.05632923447 0.8395441254 1.140630045e-38
0.4328200416 0.052960932 0.8246089301 1.113006108e-38
0.445880293 0.05174126721 0.832482001 1.094422368e-38
0.1862028151 0.04807330336 0.7614207016 7.080682668e-39
0.1999368806 0.06324674094 0.775024961 8.091608807e-39
0.1804081955 0.05668204598 0.7570074494 9.108610977e-39
0.2030913013 0.05561805466 0.7729602372 9.666078334e-39
0.1838327815 0.05258843232 0.7862219641 1.021637665e-38
0.2098751204 0.06853462326 0.7781499073 1.122693004e-38
0.1841292625 0.04485061172 0.7778404223 1.223567576e-38
0.2081579471 0.05410927374 0.77796849 1.232714412e-38
0.2078412063 0.04769847153 0.7823391914 1.251333324e-38
0.2103898728 0.06715491858 0.7687203481 1.279207533e-38
0.1983389426 0.02914995476 0.7686172094 1.306866642e-38
0.2154448817 0.07884214252 0.7612781781 1.352892991e-38
0.1980834473 0.07521016992 0.7624431399 1.398918079e-38
0.1995392486 0.03613788032 0.7628928136 1.42661208e-38
0.2079131384 0.05091495415 0.7837177076 1.463274672e-38
0.2138773403 0.071907901 0.7863742388 1.481606039e-38
0.2128244077 0.07360327228 0.7645887871 1.509085361e-38
0.2077471965 0.07396807921 0.7886334251 1.518520444e-38
0.2106013671 0.05537557303 0.7755317611 1.53695999e-38
0.2052346342 0.04360645624 0.7819450835 1.546215847e-38
0.2202462356 0.05567590896 0.7815901141 1.555363663e-38
0.2253426439 0.05895860868 0.7806604815 1.564547353e-38
0.2290169732 0.06551860342 0.7756864312 1.573838102e-38
0.20857239 0.05304326996 0.7674588274 1.555470723e-38
0.2368999389 0.05757178347 0.7797909457 1.546288154e-38
0.228702527 0.07164666395 0.7729824249 1.555508698e-38
0.2354373279 0.04643378744 0.7830628244 1.573947123e-38
0.2276480015 0.07315007154 0.7724743538 1.546467941e-38
0.2442386221 0.05961300188 0.7722515493 1.528244334e-38
0.2348865391 0.04878256576 0.7899258905 1.528387967e-38
0.2526433914 0.0454772326 0.7676484108 1.528495167e-38
0.2491498893 0.04173677259 0.7701578402 1.537785916e-38
0.2489188007 0.04782193421 0.7974057757 1.639166356e-38
0.2576516928 0.05931534908 0.7757610758 1.65735465e-38
0.2514004818 0.0420764177 0.7780722006 1.704385029e-38
0.2552212241 0.05174598065 0.7913621913 1.749081125e-38
0.2352199257 0.05047526385 0.7800702882 1.712883063e-38
0.2492528471 0.06235357124 0.791834718 1.685260388e-38
0.2446053927 0.0667781391 0.7861805616 1.712774883e-38
0.2674786425 0.05027128015 0.785869808 1.749724041e-38
0.2693279324 0.07528428234 0.7809345377 1.694873575e-38
0.2477003575 0.06557773067 0.7913602545 1.648848488e-38
0.264385676 0.04047095689 0.7877220215 1.6211905e-38
0.2710742314 0.07334885932 0.7913610756 1.602356768e-38
0.2675127225 0.05994525138 0.7603623261 1.436586383e-38
0.2604923576 0.05746695185 0.7806822347 1.279999267e-38
0.2812475828 0.06215879806 0.8106236832 6.888423117e-39
0.2975394916 0.06177259208 0.7874245836 7.990077727e-39
0.3077259516 0.05405882421 0.8029939424 9.104674729e-39
0.2904827661 0.06450283856 0.7888191392 1.058661512e-38
0.2980668409 0.05823216735 0.7699358621 1.20663933e-38
0.2841482264 0.05895890949 0.7831074787 1.391387361e-38
0.3000090824 0.0568719704 0.7860006124 1.575383874e-38
0.3017731062 0.05434940277 0.7794415679 1.713498514e-38
0.2884539034 0.06467349119 0.7886561686 1.851361339e-38
0.3077814839 0.03460544026 0.7954732845 1.768818834e-38
0.2885162534 0.06256373937 0.7935026916 1.695062891e-38
0.3209233349 0.06528302485 0.8016416411 1.667224836e-38
0.2843298094 0.06822472481 0.7912175217 1.639457406e-38
0.3117280395 0.06078290175 0.7907572289 1.611438864e-38
0.3195562674 0.06419241361 0.7911821169 1.583815347e-38
0.3193934787 0.07608833251 0.813037365 1.547044154e-38
0.3286845825 0.05864788794 0.7941983383 1.509412284e-38
0.319437439 0.05923976417 0.7818819464 1.491008611e-38
0.3285778122 0.06530828315 0.7925617295 1.481859954e-38
0.3346844568 0.05652652495 0.7701909232 1.454380071e-38
0.3269702847 0.06744434788 0.7989586683 1.426793829e-38
0.3292763578 0.07646681802 0.7725162221 1.40842701e-38
0.3265115551 0.06615740866 0.8038763624 1.399099687e-38
0.3275946272 0.07275007988 0.8057377421 1.398955914e-38
0.3328168169 0.06384143235 0.7906338289 1.408031844e-38
0.3272198105 0.06815723847 0.7865200058 1.417143647e-38
0.3362590355 0.06171320767 0.7868518837 1.435510185e-38
0.3368764851 0.07501717412 0.804110263 1.472243963e-38
0.3335400799 0.07299837053 0.7833487467 1.518089825e-38
0.3430352309 0.04777736714 0.8017575077 1.472171937e-38
0.3443041761 0.06837784785 0.7938473416 1.426219577e-38
0.3433818442 0.06919858346 0.7893076978 1.417001555e-38
0.3421247819 0.05871802573 0.8097387948 1.417000294e-38
0.341415605 0.06074719584 0.7955121281 1.407959116e-38
0.3433336069 0.0537259145 0.8021886496 1.407850936e-38
0.3548915975 0.05914664989 0.8130754348 1.407706742e-38
0.3418036839 0.05030469821 0.794134737 1.407813381e-38
0.347544917 0.05989283633 0.8131606532 1.40791988e-38
0.3591636329 0.0533069042 0.7906021128 1.417068117e-38
0.3476589948 0.07427074567 0.8150657794 1.408064354e-38
0.3603753407 0.06478879585 0.8096634252 1.398594659e-38
0.3556849672 0.05966884777 0.7904527329 1.407814923e-38
0.3571141378 0.04582333047 0.808823652 1.416998893e-38
0.3713943585 0.04857233484 0.8014683018 1.426183003e-38
0.3518992568 0.06203979175 0.8111573526 1.435221378e-38
0.3562722861 0.05684651308 0.8081129589 1.435183823e-38
0.3592153826 0.05758344534 0.81550802 1.444189688e-38
0.3719543002 0.07020006413 0.8018555481 1.416533101e-38
0.3654284199 0.06746169514 0.8022856817 1.389017064e-38
0.3601289747 0.05137135922 0.8001603492 1.416638198e-38
0.3869766107 0.05418884781 0.8079954022 1.444151713e-38
0.373163812 0.06342762968 0.8038444086 1.398232844e-38
0.3862759713 0.06331139802 0.7949150088 1.352242929e-38
0.3858430161 0.05808726492 0.8119405306 1.33376793e-38
0.3888121927 0.03972896256 0.8066625244 1.315436563e-38
0.3863710196 0.06229472636 0.8284416835 1.287957661e-38
0.3727163157 0.05945205499 0.798042945 1.269627136e-38
0.4090262324 0.06019337683 0.8063539057 1.260264921e-38
0.3739156155 0.04531567012 0.8037792616 1.251116543e-38
0.3860935523 0.05263672866 0.8054466591 1.251259336e-38
0.3806207157 0.07224350182 0.8233143259 1.251223603e-38
0.3916305832 0.04895506886 0.808433466 1.260407292e-38
0.4015712952 0.06289422594 0.8146899685 1.269699723e-38
0.3944704727 0.07922464002 0.8029423799 1.251477378e-38
0.4030548369 0.0671762648 0.806868641 1.232822592e-38
0.3847319959 0.05088961001 0.8228383362 1.232678258e-38
0.4028173585 0.05110756178 0.8251970956 1.232391412e-38
0.4074582986 0.05662950723 0.805807898 1.214024453e-38
0.4064080411 0.07490389825 0.8191353802 1.204876357e-38
0.4082309129 0.06392951589 0.833475782 1.204911809e-38
0.4004722709 0.07756224588 0.8200208724 1.205018729e-38
0.4260821268 0.0643774712 0.8169222298 1.113326165e-38
0.4193778997 0.0639804345 0.8322828394 1.030675059e-38
0.412278417 0.06341528191 0.8319831671 1.076593788e-38
0.4192880088 0.0660808666 0.8174588687 1.131589428e-38
0.3985299025 0.05806664734 0.8376466591 1.12230036e-38
0.4401046939 0.05454436076 0.8155233123 1.122227073e-38
0.4219923126 0.06992417853 0.8365760839 1.149704433e-38
0.4177983095 0.06420433967 0.8356671267 1.186474785e-38
0.4284015059 0.06840844608 0.8274087569 1.140593191e-38
0.4457554976 0.07911327787 0.841911101 1.094602575e-38
0.436075607 0.05871132997 0.8317472455 1.066799693e-38
0.1895129028 0.05262477855 0.7600656491 7.448017646e-39
0.1896578246 0.06565189025 0.7746000517 8.091593393e-39
0.190423952 0.05500375123 0.7684264605 8.830576546e-39
0.1909406994 0.06540215361 0.7631153717 9.386966305e-39
0.2077144364 0.05041941918 0.7653079799 1.003269725e-38
0.1909827186 0.05711949888 0.7726110662 1.094999003e-38
0.1849063206 0.05082622475 0.7538797985 1.186725478e-38
0.1843384949 0.08137784128 0.7666271575 1.205198936e-38
0.2100130486 0.05267171328 0.7793451014 1.223746522e-38
0.2096013931 0.05789456749 0.7573438835 1.251334165e-38
0.2070402341 0.0568813346 0.7589440827 1.278920967e-38
0.2066641005 0.0555681022 0.7603452105 1.316050192e-38
0.1879242356 0.05218154602 0.7846538597 1.352999069e-38
0.2192174776 0.06093989011 0.7687707383 1.389804594e-38
0.2155770589 0.07534006193 0.7704036908 1.426646132e-38
0.2323570571 0.06902577345 0.7640025604 1.444833725e-38
0.2166690964 0.0608783323 0.7516200554 1.463130339e-38
0.2083595328 0.06605084303 0.7731431943 1.490825882e-38
0.2256541805 0.07422502227 0.7633847167 1.518413105e-38
0.212284151 0.06188343767 0.7894661292 1.509266129e-38
0.2286091842 0.06452865767 0.7978150853 1.509301862e-38
0.2037437604 0.0513560584 0.7844457541 1.527812454e-38
0.2533981882 0.05380865396 0.761940638 1.546286753e-38
0.2373437739 0.05983882973 0.7796299477 1.52788336e-38
0.2392377966 0.07384982317 0.7791647236 1.518664638e-38
0.2363510176 0.06031566627 0.7680515977 1.55532779e-38
0.2264062261 0.06609037815 0.7606897693 1.591990102e-38
0.2401567216 0.04652183908 0.7824317868 1.536960411e-38
0.223323693 0.07896192942 0.7660291256 1.491150142e-38
0.2477232724 0.04528552994 0.7633876137 1.500441171e-38
0.2283418181 0.07237653872 0.7740966534 1.509767934e-38
0.2339977874 0.05377864576 0.7712339063 1.518987076e-38
0.2341457355 0.06610582756 0.7769768121 1.52820748e-38
0.246329357 0.06590657698 0.7824843859 1.546647447e-38
0.2523266784 0.05913614114 0.7934657893 1.565123427e-38
0.2561899807 0.0505963282 0.7903105684 1.574415858e-38
0.2403966067 0.05376681606 0.7839732236 1.574560331e-38
0.2485781965 0.05674097866 0.770943032 1.574633059e-38
0.2377623415 0.08332308196 0.7713358336 1.583922126e-38
0.2489630335 0.06267247402 0.7916254226 1.583884151e-38
0.2636253594 0.05374307695 0.7819996162 1.583885833e-38
0.2540912689 0.06665185946 0.7619947001 1.574811724e-38
0.2652422134 0.06932526914 0.7814931804 1.574954937e-38
0.2400267831 0.04355365184 0.8000023741 1.57499067e-38
0.2676963147 0.06203576027 0.7963345988 1.575063257e-38
0.2622633773 0.0702804851 0.8030176835 1.565880689e-38
0.2662022906 0.0736822514 0.7734543795 1.556696719e-38
0.2681452499 0.07121737159 0.7795518508 1.48233121e-38
0.2451259072 0.07510034238 0.791835515 1.409220705e-38
0.2507146657 0.06890635249 0.7875968812 1.445882457e-38
0.2520492513 0.05041577059 0.7919771807 1.491759567e-38
0.2780470955 0.06296110882 0.784882887 1.363185108e-38
0.2545735495 0.05588657871 0.7757668824 1.234614432e-38
0.284912446 0.04410145491 0.77712563 1.197197802e-38
0.2839597948 0.06505578491 0.7845963808 1.168965561e-38
0.2989757455 0.05594634648 0.8074109237 1.141354236e-38
0.2761965467 0.07133769194 0.7839731508 1.197134463e-38
0.307391057 0.06743663839 0.8055349941 1.271604788e-38
0.2877099401 0.06510451405 0.7880396954 1.355264408e-38
0.287249183 0.05525894727 0.7938803806 1.400862661e-38
0.3006344875 0.05642406861 0.7872036896 1.455678374e-38
0.2828554727 0.05889035724 0.7891947088 1.520072382e-38
0.30436211 0.07199785768 0.8062564157 1.584823722e-38
0.2940230727 0.0737639031 0.7897081059 1.63971006e-38
0.3104049041 0.0564331275 0.7844111491 1.703779948e-38
0.3027547471 0.05438728798 0.7763794765 1.676373213e-38
0.2824321033 0.05579013508 0.7922171443 1.63981768e-38
0.3168075019 0.07117447617 0.793988587 1.63949426e-38
0.3159331732 0.0504479197 0.7973821628 1.62998603e-38
0.3207000254 0.05005587714 0.7978111362 1.611473616e-38
0.3172597626 0.07752543953 0.7899321281 1.592961482e-38
0.3150187673 0.06809726898 0.7989857587 1.528244755e-38
0.3187331696 0.06585072181 0.7971308204 1.472282359e-38
0.31554187 0.06804089356 0.790344964 1.454166373e-38
0.3150679379 0.04583501175 0.7929558052 1.445053729e-38
0.3157192291 0.06023996963 0.786648674 1.39913528e-38
0.3211195601 0.0665191437 0.7897513724 1.353217392e-38
0.3332615532 0.05394681941 0.7881872901 1.371440998e-38
0.3262598671 0.0701186891 0.8072542306 1.389700477e-38
0.3262754174 0.06652077799 0.8064605333 1.398884167e-38
0.3442600601 0.03700128213 0.7905881355 1.408068137e-38
0.3197784746 0.05753240447 0.8009051564 1.417144487e-38
0.3228267697 0.08596457413 0.7812680366 1.426183563e-38
0.3486053728 0.07366605157 0.7987683192 1.435366272e-38
0.3302516046 0.07710270075 0.8116781346 1.444585134e-38
0.3430265974 0.06977734678 0.8069679363 1.435401164e-38
0.3425829033 0.05857123842 0.7982519016 1.416928547e-38
0.353925003 0.06934058368 0.8004878432 1.416966523e-38
0.3367472111 0.04244592313 0.8050313001 1.417036588e-38
0.3334532036 0.06299806184 0.813046581 1.407851356e-38
0.3404107795 0.05298474424 0.7976694191 1.407851076e-38
0.3548677682 0.06691744102 0.7895791027 1.389340204e-38
0.3609738349 0.03918998068 0.8078998816 1.380191546e-38
0.3697545774 0.06326477038 0.8125321928 1.389481875e-38
0.3462760224 0.06106648422 0.8067353744 1.398699756e-38
0.3367498883 0.04806316622 0.8047604033 1.389514665e-38
0.3681861526 0.04824994312 0.80080348 1.380333358e-38
0.3387273424 0.06326644053 0.8112615265 1.371116317e-38
0.3558377134 0.07731974616 0.7831597597 1.352749218e-38
0.368223742 0.0629430913 0.8056330727 1.389447543e-38
0.3604620093 0.06289669808 0.8212077659 1.416853578e-38
0.3466261613 0.0603838106 0.8127924238 1.41678071e-38
0.3689873489 0.0681306319 0.8139842808 1.416458972e-38
0.3651166893 0.05620500827 0.8069466782 1.389017204e-38
0.3801947773 0.08694271915 0.8060833901 1.370756324e-38
0.3946455893 0.07825502113 0.7985046014 1.379938612e-38
0.3696641774 0.04981817045 0.8024812459 1.389121041e-38
0.3637096029 0.0534929064 0.7936455565 1.352313975e-38
0.3700261485 0.06187035585 0.8322277956 1.324727312e-38
0.386959446 0.0594515586 0.8116647044 1.30621658e-38
0.3847036681 0.04896392678 0.8053535609 1.287849621e-38
0.3781365979 0.06719885714 0.8149958007 1.269662168e-38
0.3921361089 0.06341808643 0.812570622 1.251440103e-38
0.404018878 0.06508963318 0.8128283855 1.241971109e-38
0.3933453215 0.04683941471 0.8120206791 1.241933695e-38
0.397146881 0.0546953227 0.8157147661 1.269590562e-38
0.3988552816 0.05813901037 0.8271710438 1.297285264e-38
0.389599764 0.07007650397 0.8202520423 1.278596006e-38
0.4074786565 0.05972818981 0.810720955 1.260159683e-38
0.3940331903 0.06169183393 0.824956941 1.232719176e-38
0.3864243813 0.05597489228 0.8215350983 1.214457875e-38
0.39324139 0.05544333861 0.827240781 1.205021391e-38
0.3974374738 0.05444995778 0.8017071909 1.204841464e-38
0.4257737513 0.0594331322 0.8111687319 1.195693368e-38
0.408674475 0.05899976291 0.8212267325 1.186545271e-38
0.3932034929 0.08058384081 0.8167409931 1.177325428e-38
0.4225649667 0.06428916791 0.8185640916 1.177432347e-38
0.4322603094 0.0732771024 0.824965323 1.122222869e-38
0.4102413625 0.0682207178 0.8164834829 1.076234355e-38
0.4341827027 0.05872196086 0.8223861529 1.094710195e-38
0.4312221495 0.0436590064 0.8156472058 1.113187857e-38
0.4293184379 0.07915449533 0.8123676791 1.103935643e-38
0.4306300247 0.04851604458 0.8308636328 1.094713838e-38
0.4187110928 0.05802884766 0.8434742962 1.094603836e-38
0.4125414651 0.06767413143 0.8240381329 1.103786826e-38
0.4314273111 0.06591703997 0.8101928896 1.085419166e-38
0.4226411983 0.05693686637 0.8232972379 1.076234775e-38
0.4291557083 0.07027431673 0.8392233983 1.057902849e-38
0.2140200136 0.06973710308 0.7684585971 8.555074261e-39
0.187054613 0.04759277923 0.7807366468 9.199717797e-39
0.1905799544 0.05000522185 0.7619743297 9.84436834e-39
0.2134943614 0.0562438511 0.7663027637 1.067304861e-38
0.1898528179 0.06027330119 0.776656197 1.150027713e-38
0.1909282045 0.06842992185 0.7750096302 1.177721014e-38
0.2172304325 0.0627731983 0.7868527958 1.205272083e-38
0.1989424577 0.06973498653 0.7624749481 1.223639603e-38
0.1974692027 0.06213236249 0.7661715908 1.251190532e-38
0.2132837845 0.05200260334 0.7568273977 1.279207813e-38
0.2102340027 0.06439101191 0.7671560113 1.315977605e-38
0.197842977 0.04753458725 0.7676727253 1.352747536e-38
0.2221870711 0.06473502424 0.7708641211 1.389589775e-38
0.2075186404 0.05010580548 0.7824442926 1.408065054e-38
0.2140629454 0.03465331206 0.7648497069 1.426396561e-38
0.2038079015 0.06089732851 0.7664096375 1.463238519e-38
0.2235504054 0.07650449033 0.7776560524 1.499973558e-38
0.2126488437 0.05364428069 0.7743144238 1.4816073e-38
0.2104424136 0.07379948368 0.776632013 1.472422769e-38
0.2066672322 0.05627422843 0.7626541384 1.491076014e-38
0.2220754562 0.07700761239 0.7735585345 1.518662676e-38
0.2416319594 0.04343381007 0.7915221688 1.50951514e-38
0.2239876549 0.0534548503 0.7718918694 1.500224811e-38
0.2234117416 0.05919260634 0.7723679395 1.55521933e-38
0.2215336088 0.06562916442 0.7724090042 1.610320347e-38
0.2366120418 0.04690500124 0.7979985013 1.536887543e-38
0.2366161059 0.06327932736 0.7641079999 1.463491173e-38
0.2475730254 0.05819753932 0.7724844065 1.472782623e-38
0.2388494144 0.07108210658 0.7712236926 1.491113708e-38
0.2359096559 0.05493220414 0.7825511614 1.491113568e-38
0.2543385038 0.06289738955 0.7817157093 1.500369425e-38
0.2335743936 0.07557664937 0.7654028391 1.509661155e-38
0.256834835 0.04937367866 0.7894157851 1.518736945e-38
0.2516429785 0.07182332043 0.7732106193 1.509481648e-38
0.2506396492 0.0575292666 0.7992640166 1.500228174e-38
0.2351704848 0.04624339467 0.7885940969 1.454276234e-38
0.2484306374 0.05946834057 0.7805315364 1.417504901e-38
0.247156849 0.05948329958 0.7696863473 1.445054149e-38
0.2460233781 0.07913622519 0.7845929119 1.481788768e-38
0.2416878693 0.06448008679 0.7715103 1.43587158e-38
0.2390351714 0.06622682682 0.7867626916 1.399102209e-38
0.2655099114 0.04637098639 0.7736846983 1.444984925e-38
0.2699265499 0.05984768295 0.7863912934 1.500122656e-38
0.2640211632 0.05590771128 0.782225891 1.509378513e-38
0.2510516528 0.04819493282 0.7717842675 1.518741008e-38
0.2654281168 0.07718621532 0.7738672914 1.528103504e-38
0.257919477 0.05425276406 0.7828206069 1.546613956e-38
0.2735737251 0.05208848499 0.7696485449 1.601858606e-38
0.2505139871 0.07214246716 0.7662869337 1.666320998e-38
0.2661451112 0.06756333601 0.7937030639 1.712775023e-38
0.2749173733 0.0430320158 0.7867871319 1.767768981e-38
0.2644929234 0.06680453116 0.7701714795 1.69480323e-38
0.2707553309 0.05793353796 0.7844814266 1.62108344e-38
0.289261558 0.05424568027 0.7762424007 1.528996551e-38
0.2647617837 0.06229128489 0.7781200162 1.436622816e-38
0.2634999207 0.05521143501 0.7881741839 1.417753352e-38
0.2877021452 0.07790814155 0.7806935187 1.408928534e-38
0.2996639629 0.06056259315 0.7692072153 1.473571974e-38
0.2935574394 0.06385380887 0.7762225115 1.547149112e-38
0.2736790861 0.07008563217 0.8001262124 1.593175741e-38
0.2906844456 0.06009925135 0.7838530038 1.648781506e-38
0.285253831 0.07122578839 0.7762297547 1.676872636e-38
0.2905922853 0.05646448314 0.7851457855 1.704421042e-38
0.2762963368 0.05649073539 0.7958782569 1.750372562e-38
0.2878908801 0.06487955666 0.7972844367 1.805259881e-38
0.3061266975 0.06501718634 0.7734333547 1.749944745e-38
0.2905204248 0.0726358327 0.7807029494 1.703956512e-38
0.2957282416 0.06596689158 0.7796545685 1.648784589e-38
0.2915114068 0.05553574623 0.7833183504 1.593575671e-38
0.3090170758 0.07146700243 0.7741592774 1.575136966e-38
0.3130908289 0.06987886705 0.7624927279 1.565917683e-38
0.3108307985 0.06803825776 0.7632059162 1.575101513e-38
0.307867458 0.06837146152 0.7844366451 1.593215678e-38
0.3101236978 0.06702609347 0.8009899719 1.611365576e-38
0.2993763229 0.070646839 0.7838328326 1.629516595e-38
0.3296033021 0.05611813638 0.8037959927 1.610969288e-38
0.3117275188 0.05201227115 0.7830149964 1.601533926e-38
0.315887902 0.06641068747 0.7925849669 1.518630166e-38
0.3012606578 0.05756465067 0.7791340186 1.4356555e-38
0.3193543246 0.0590561241 0.7799118081 1.417324554e-38
0.306685755 0.06604124036 0.7929583625 1.408176177e-38
0.3158493788 0.07627565903 0.7856630282 1.343962516e-38
0.3132887383 0.05868626177 0.7978104051 1.288789192e-38
0.3234192667 0.06045372534 0.7972816696 1.334563166e-38
0.3227740744 0.06392283478 0.7863705748 1.380480774e-38
0.3282946904 0.07167975119 0.8031290905 1.398775987e-38
0.3201284725 0.07317460661 0.8030115365 1.417144487e-38
0.3418088754 0.04582148311 0.7894853206 1.417145889e-38
0.3293472389 0.04681083241 0.778210849 1.426184264e-38
0.3355914869 0.0619669768 0.7826085548 1.398667947e-38
0.3275184878 0.06932017078 0.7836894342 1.380299306e-38
0.3324481515 0.06234155174 0.8014188019 1.398665004e-38
0.3240624626 0.06842513687 0.7876297293 1.416998332e-38
0.3271260068 0.05857296903 0.800479335 1.416964421e-38
0.3230214163 0.07126418204 0.7952327255 1.41696386e-38
0.3475542337 0.0840633751 0.8065462211 1.4169633e-38
0.351824603 0.05870166307 0.8054993629 1.416926726e-38
0.3389304612 0.05370055987 0.7913219183 1.380155953e-38
0.3580465895 0.08459510742 0.7950859402 1.352640617e-38
0.3504558337 0.06551994076 0.7973690446 1.371078902e-38
0.3671899481 0.04748709824 0.7984886681 1.389481735e-38
0.3505946622 0.05400805253 0.8014613685 1.380333918e-38
0.36796804 0.05818544683 0.7961303294 1.371151209e-38
0.3694254099 0.0643839087 0.8025895071 1.334453725e-38
0.3631663442 0.04773871795 0.7999021012 1.297611907e-38
0.3664657079 0.05536497615 0.7976164991 1.352713204e-38
0.3673428887 0.06750823522 0.8058293315 1.407633875e-38
0.3588128261 0.05897799736 0.8084896471 1.398413331e-38
0.3567907665 0.0706455117 0.8096674842 1.398306272e-38
0.361199161 0.06702881932 0.8130412594 1.370684297e-38
0.3723472373 0.06808699228 0.8082963889 1.352316497e-38
0.3667748012 0.07190466567 0.8028484655 1.343347626e-38
0.3797361987 0.0541744135 0.8154563604 1.334163096e-38
0.3885050732 0.05849474271 0.8170984331 1.315795016e-38
0.3940398199 0.07830796836 0.7967073111 1.297069044e-38
0.375306889 0.0512767641 0.807783437 1.278665931e-38
0.3865532175 0.06634167933 0.8217786505 1.260334845e-38
0.3776035291 0.05895120163 0.8097460049 1.251402689e-38
0.3781155646 0.0608448786 0.8104340726 1.24211222e-38
0.3799126379 0.04929771535 0.8190262696 1.232857624e-38
0.3897153501 0.06011684184 0.8092774465 1.232821191e-38
0.402366128 0.04988106765 0.8074017619 1.287922068e-38
0.4068090667 0.05387693015 0.812319086 1.342880433e-38
0.3946995329 0.05239912073 0.8190966661 1.296819753e-38
0.3787091173 0.06587381907 0.8234100476 1.250939139e-38
0.3853893718 0.07425278994 0.8162135942 1.223533244e-38
0.3947456116 0.0769531076 0.8123185165 1.205021671e-38
0.3997063374 0.06605616132 0.8058677939 1.186545971e-38
0.384428632 0.06832161491 0.8366603802 1.177362562e-38
0.4023182672 0.08852709921 0.8197949472 1.167963913e-38
0.4072977785 0.08019224829 0.8201971578 1.168035099e-38
0.4146885896 0.05703704974 0.8216819142 1.158958749e-38
0.4072208515 0.08365562371 0.8103451623 1.159029654e-38
0.3991448153 0.07902251915 0.8206393034 1.140661855e-38
0.4241974068 0.05356480285 0.8218919657 1.122152243e-38
0.4223074046 0.05447182257 0.8168386146 1.103821998e-38
0.4300425352 0.05439148216 0.8348181219 1.09453223e-38
0.4180620454 0.08207226769 0.8417613391 1.076059053e-38
0.4221200241 0.07390072012 0.826611253 1.066981721e-38
0.4304192066 0.07278668333 0.8121280242 1.0487207e-38
0.4510529911 0.07147592079 0.832643442 1.030317448e-38
0.4064175213 0.05938678129 0.8361566898 1.039464704e-38
0.4211189692 0.078944571 0.8283598374 1.057867256e-38
0.414849785 0.08613050448 0.8178529984 1.039535469e-38
0.1916614796 0.04946876039 0.7703493814 9.293002236e-39
0.2130828759 0.07883017531 0.786594927 1.012131817e-38
0.1998823929 0.05434230727 0.7889440062 1.094962849e-38
0.1814063536 0.0734465251 0.7646386411 1.140952063e-38
0.1918684741 0.07365108737 0.7816285814 1.195837841e-38
0.1905171352 0.05098387 0.7759306717 1.186689885e-38
0.1937092596 0.04657987589 0.7767869532 1.186761771e-38
0.1933256833 0.07220749903 0.7731361654 1.223675476e-38
0.2130536966 0.06456836082 0.7654551745 1.26977259e-38
0.1905438851 0.06596601575 0.765377087 1.297323379e-38
0.2074575294 0.07441434404 0.7757666192 1.315727613e-38
0.2133509149 0.05081807178 0.7717855698 1.343602382e-38
0.1981810509 0.06311596738 0.7574078354 1.362040247e-38
0.2173473481 0.06297407745 0.7572872181 1.380442379e-38
0.2139805592 0.05717396957 0.7628378081 1.389698516e-38
0.2139006423 0.06610393714 0.7789886149 1.408030723e-38
0.2128007172 0.0623513123 0.773263708 1.41721245e-38
0.2128910592 0.06248525676 0.7501257831 1.435793108e-38
0.2175663606 0.0621776706 0.7691679394 1.463559697e-38
0.2101981774 0.04873075298 0.7898872435 1.454197621e-38
0.2266404503 0.06257952284 0.7936729836 1.454019096e-38
0.2243473824 0.06528476392 0.7691585433 1.481570726e-38
0.226557298 0.05269438472 0.7678554479 1.499973278e-38
0.2276476261 0.06491683477 0.7624787568 1.463346279e-38
0.2212449321 0.08121056523 0.7922204567 1.426684527e-38
0.2225273037 0.06437063857 0.7893881931 1.472603116e-38
0.2332941957 0.0652428039 0.7735899518 1.527704414e-38
0.2396910885 0.06735711008 0.7719401355 1.518520864e-38
0.2344467435 0.06355880304 0.7800310277 1.509337315e-38
0.2428482707 0.05399020552 0.7786089125 1.518484991e-38
0.2594201706 0.07675528686 0.7847064824 1.536814816e-38
0.2314971542 0.06269029089 0.7772196016 1.527594132e-38
0.2475968321 0.0483765975 0.768292783 1.518377231e-38
0.2484842349 0.08716410695 0.7827578836 1.463278456e-38
0.2600404131 0.04430997314 0.7957297605 1.417396021e-38
0.256951091 0.04597220071 0.7842966329 1.445017855e-38
0.2571143737 0.06524938014 0.777746449 1.47253179e-38
0.2457823572 0.05955795128 0.7853497687 1.463311527e-38
0.265914983 0.05601756056 0.7911768409 1.463313208e-38
0.2604124639 0.05450659139 0.7871407077 1.472498579e-38
0.2741960135 0.06514856338 0.7885485678 1.490865959e-38
0.2560925005 0.0477329688 0.7901273369 1.491009732e-38
0.2490942725 0.06854948141 0.7856833168 1.500228594e-38
0.2631942767 0.05732841975 0.7656452899 1.500263907e-38
0.2688785302 0.04334037862 0.7855285922 1.500300201e-38
0.2504054139 0.06120052328 0.7924140935 1.528102523e-38
0.280947763 0.06783602616 0.7865561165 1.556228265e-38
0.2791104589 0.07573116011 0.7784309053 1.602254894e-38
0.2542327126 0.06927952843 0.792191184 1.648281803e-38
0.285475851 0.06738124655 0.7704177917 1.620947935e-38
