# .PCD v0.7 - Point Cloud Data file format
VERSION 0.7
FIELDS x y z rgb
SIZE 4 4 4 4
TYPE F F F F
COUNT 1 1 1 1
WIDTH 985
HEIGHT 1
VIEWPOINT 0 0 0 1 0 0 0
POINTS 985
DATA ascii
0.3263905 0.1609181 0.79700005 6.990621215e-39
0.32914287 0.16152382 0.80000001 6.712963734e-39
0.33066666 0.16152382 0.80000001 6.528939614e-39
0.33219048 0.16152382 0.80000001 6.712617613e-39
0.33371428 0.16152382 0.80000001 6.988848573e-39
0.3352381 0.16152382 0.80000001 6.989574445e-39
0.33760381 0.16192764 0.80200005 6.989211509e-39
0.33913144 0.16192764 0.80200005 7.080684069e-39
0.34065905 0.16192764 0.80200005 7.173252444e-39
0.34218669 0.16192764 0.80200005 7.174342654e-39
0.3437143 0.16192764 0.80200005 7.264736214e-39
0.34610286 0.16233143 0.80400002 7.539158098e-39
0.34763432 0.16233143 0.80400002 7.815729573e-39
0.34916574 0.16233143 0.80400002 7.449452575e-39
0.35069713 0.16233143 0.80400002 7.083546922e-39
0.35222855 0.16233143 0.80400002 7.17682015e-39
0.35376 0.16233143 0.80400002 7.268296914e-39
0.35617527 0.16273524 0.80600005 7.267939583e-39
0.35771051 0.16273524 0.80600005 7.267582251e-39
0.36013716 0.16313905 0.80800003 7.359061818e-39
0.36257148 0.16354287 0.81000006 7.450534378e-39
0.36501333 0.16394667 0.81200004 7.450530174e-39
0.36746284 0.16435048 0.81400001 7.449455378e-39
0.36946669 0.16455239 0.81500006 7.541292275e-39
0.37101907 0.16455239 0.81500006 7.632766236e-39
0.37257144 0.16455239 0.81500006 7.632764835e-39
0.37412381 0.16455239 0.81500006 7.63277044e-39
0.37659809 0.1649562 0.81700003 7.449463786e-39
0.37815431 0.1649562 0.81700003 7.266863385e-39
0.3797105 0.1649562 0.81700003 7.267935379e-39
0.38220003 0.16536002 0.81900007 7.267933977e-39
0.38376004 0.16536002 0.81900007 7.084621718e-39
0.38532004 0.16536002 0.81900007 6.99242889e-39
0.3878248 0.16576381 0.82100004 6.992071559e-39
0.38844001 0.16536002 0.81900007 6.992064553e-39
0.39095241 0.16576381 0.82100004 7.084251775e-39
0.39347237 0.16616762 0.82300001 7.17393908e-39
0.39696002 0.16697524 0.82700002 5.610588856e-39
0.39853525 0.16697524 0.82700002 4.137992326e-39
0.40011048 0.16697524 0.82700002 4.777972341e-39
0.40265718 0.16737907 0.82900006 5.51301224e-39
0.40521145 0.16778287 0.83100003 4.779042933e-39
0.40679428 0.16778287 0.83100003 4.134774945e-39
0.41034287 0.16859047 0.83500004 4.408863319e-39
0.41193336 0.16859047 0.83500004 4.684019483e-39
0.41352382 0.16859047 0.83500004 4.867700285e-39
0.41511431 0.16859047 0.83500004 5.156854019e-39
0.41670477 0.16859047 0.83500004 7.374913306e-39
0.41929713 0.16899428 0.83700001 9.588694429e-39
0.41988572 0.16859047 0.83500004 1.217017767e-38
0.42147622 0.16859047 0.83500004 1.48370098e-38
0.42306671 0.16859047 0.83500004 1.493244943e-38
0.42465717 0.16859047 0.83500004 1.502428913e-38
0.42522669 0.16818668 0.83300006 1.474878545e-38
0.42681336 0.16818668 0.83300006 1.456403546e-38
0.42840004 0.16818668 0.83300006 1.502177661e-38
0.43205142 0.16899428 0.83700001 1.548167575e-38
0.43364573 0.16899428 0.83700001 1.520689093e-38
0.058880005 0.13696001 0.67200005 1.048829441e-38
0.060070477 0.13675618 0.671 9.74354912e-39
0.061257143 0.13655238 0.67000002 9.470895675e-39
0.062440004 0.13634858 0.66900003 9.290098746e-39
0.063714288 0.13634858 0.66900003 9.197908721e-39
0.064988576 0.13634858 0.66900003 9.105713091e-39
0.066262864 0.13634858 0.66900003 9.473412407e-39
0.067537144 0.13634858 0.66900003 9.932954225e-39
0.068811432 0.13634858 0.66900003 1.002407926e-38
0.070190482 0.13655238 0.67000002 1.010372066e-38
0.071466669 0.13655238 0.67000002 1.019878895e-38
0.072742864 0.13655238 0.67000002 1.038569134e-38
0.074019045 0.13655238 0.67000002 1.047788837e-38
0.075407617 0.13675618 0.671 1.047859883e-38
0.077028573 0.13736762 0.67400002 1.029922562e-38
0.078312382 0.13736762 0.67400002 1.021206205e-38
0.079596192 0.13736762 0.67400002 1.039646032e-38
0.080880001 0.13736762 0.67400002 1.058122012e-38
0.082285717 0.13757142 0.67500001 1.113583443e-38
0.083571427 0.13757142 0.67500001 1.17826682e-38
0.084857143 0.13757142 0.67500001 1.159939658e-38
0.08614286 0.13757142 0.67500001 1.151216014e-38
0.087558098 0.13777526 0.67600006 1.140232357e-38
0.089108571 0.13818286 0.67800003 1.130977761e-38
0.090400003 0.13818286 0.67800003 1.149417448e-38
0.091826662 0.13838667 0.67900002 1.167856433e-38
0.093120001 0.13838667 0.67900002 1.186367166e-38
0.094413333 0.13838667 0.67900002 1.20488e-38
0.095847614 0.13859048 0.68000001 1.204918115e-38
0.097142853 0.13859048 0.68000001 1.204952307e-38
0.098872378 0.13920191 0.68300003 1.214062569e-38
0.10032 0.13940571 0.68400002 1.214170329e-38
0.10162286 0.13940571 0.68400002 1.223354018e-38
0.10322668 0.13981335 0.68600005 1.233005041e-38
0.10453334 0.13981335 0.68600005 1.269883994e-38
0.10584001 0.13981335 0.68600005 1.306760284e-38
0.10730286 0.14001715 0.68700004 1.29732436e-38
0.10861143 0.14001715 0.68700004 1.297288767e-38
0.11024 0.14042476 0.68900001 1.315656147e-38
0.1117143 0.14062859 0.69000006 1.334165898e-38
0.11302858 0.14062859 0.69000006 1.352388664e-38
0.11450858 0.14083239 0.69100004 1.370648564e-38
0.11582477 0.14083239 0.69100004 1.370648984e-38
0.11714096 0.14083239 0.69100004 1.370683876e-38
0.11880001 0.14124 0.69300002 1.352280063e-38
0.12012 0.14124 0.69300002 1.333913945e-38
0.12144 0.14124 0.69300002 1.306220784e-38
0.12276001 0.14124 0.69300002 1.269235052e-38
0.12407999 0.14124 0.69300002 1.241684123e-38
0.12558095 0.14144382 0.69400001 1.223317304e-38
0.12708572 0.14164762 0.69500005 1.214062429e-38
0.12840953 0.14164762 0.69500005 1.204842165e-38
0.12973335 0.14164762 0.69500005 1.186546112e-38
0.13143429 0.14205524 0.69700003 1.168214886e-38
0.13295239 0.14225906 0.69800001 1.149919533e-38
0.1342819 0.14225906 0.69800001 1.140843042e-38
0.13600001 0.14266667 0.70000005 1.104036537e-38
0.13792191 0.14327809 0.70300001 1.067266185e-38
0.13926095 0.14327809 0.70300001 1.030280734e-38
0.1406 0.14327809 0.70300001 1.002693651e-38
0.14214097 0.14348191 0.70400006 9.843618646e-39
0.14348191 0.14348191 0.70400006 9.568475094e-39
0.14502858 0.14368573 0.70500004 9.56883803e-39
0.14699428 0.14429714 0.708 9.569209374e-39
0.14834285 0.14429714 0.708 9.569223387e-39
0.14969142 0.14429714 0.708 9.477373878e-39
0.15103999 0.14429714 0.708 9.569554093e-39
0.15281905 0.14470476 0.71000004 9.662104252e-39
0.15417144 0.14470476 0.71000004 9.845773843e-39
0.15552381 0.14470476 0.71000004 1.012127893e-38
0.15687619 0.14470476 0.71000004 9.937606536e-39
0.15845144 0.14490858 0.71100003 9.754294276e-39
0.15980572 0.14490858 0.71100003 9.75608934e-39
0.28476 0.16121334 0.79100001 8.927441302e-39
0.28626668 0.16121334 0.79100001 8.835622621e-39
0.28777334 0.16121334 0.79100001 8.834536615e-39
0.28928003 0.16121334 0.79100001 8.743050042e-39
0.29299241 0.1624362 0.79700005 8.743401768e-39
0.29451048 0.1624362 0.79700005 8.558647572e-39
0.29640001 0.16264001 0.79800004 8.465735879e-39
0.29792002 0.16264001 0.79800004 8.281706154e-39
0.29944003 0.16264001 0.79800004 8.189507722e-39
0.30096003 0.16264001 0.79800004 8.005115061e-39
0.30248001 0.16264001 0.79800004 7.823955195e-39
0.30361906 0.1624362 0.79700005 7.822878998e-39
0.30513716 0.1624362 0.79700005 7.821802801e-39
0.30665523 0.1624362 0.79700005 7.821444068e-39
0.30817336 0.1624362 0.79700005 7.913279564e-39
0.30969146 0.1624362 0.79700005 7.637055611e-39
0.31120953 0.1624362 0.79700005 7.360835862e-39
0.31272763 0.1624362 0.79700005 7.634552892e-39
0.31424573 0.1624362 0.79700005 7.908621648e-39
0.31576383 0.1624362 0.79700005 7.724590522e-39
0.31728193 0.1624362 0.79700005 7.540557995e-39
0.3188 0.1624362 0.79700005 7.082096578e-39
0.3203181 0.1624362 0.79700005 6.623636562e-39
0.3218362 0.1624362 0.79700005 6.805874026e-39
0.32376003 0.16264001 0.79800004 7.078150521e-39
0.3248724 0.1624362 0.79700005 6.897708121e-39
0.32680002 0.16264001 0.79800004 6.807307554e-39
0.32996574 0.16345525 0.80200005 6.254142183e-39
0.33149335 0.16345525 0.80200005 5.702776078e-39
0.33302099 0.16345525 0.80200005 6.161243101e-39
0.33454859 0.16345525 0.80200005 6.62221004e-39
0.3360762 0.16345525 0.80200005 6.621848505e-39
0.33844572 0.16386285 0.80400002 6.531092009e-39
0.33997715 0.16386285 0.80400002 6.53073748e-39
0.34150857 0.16386285 0.80400002 6.530759901e-39
0.34304002 0.16386285 0.80400002 6.622977951e-39
0.34457144 0.16386285 0.80400002 6.713004371e-39
0.34696382 0.16427048 0.80600005 7.355478698e-39
0.34849906 0.16427048 0.80600005 7.997954425e-39
0.3500343 0.16427048 0.80600005 7.448362365e-39
0.35069713 0.16386285 0.80400002 6.991700215e-39
0.35310477 0.16427048 0.80600005 6.990628222e-39
0.35464004 0.16427048 0.80600005 6.989913559e-39
0.35617527 0.16427048 0.80600005 7.082111992e-39
0.35948575 0.16508572 0.81000006 7.174306221e-39
0.36102858 0.16508572 0.81000006 7.265782984e-39
0.36346668 0.16549334 0.81200004 7.265781583e-39
0.36636192 0.16610478 0.81500006 6.806602701e-39
0.36791432 0.16610478 0.81500006 6.255591125e-39
0.36946669 0.16610478 0.81500006 6.529305353e-39
0.37192953 0.16651239 0.81700003 6.895211007e-39
0.37348571 0.16651239 0.81700003 6.894492141e-39
0.3750419 0.16651239 0.81700003 6.985617178e-39
0.37659809 0.16651239 0.81700003 6.711554027e-39
0.37908003 0.16692001 0.81900007 6.3460001e-39
0.38156953 0.16732763 0.82100004 6.254877864e-39
0.38313335 0.16732763 0.82100004 6.255593928e-39
0.3856343 0.16773525 0.82300001 6.071921534e-39
0.38814288 0.16814286 0.82500005 5.888254746e-39
0.3897143 0.16814286 0.82500005 5.519123303e-39
0.39128575 0.16814286 0.82500005 5.241810541e-39
0.39380953 0.16855049 0.82700002 5.60842385e-39
0.39538479 0.16855049 0.82700002 6.066885268e-39
0.39792004 0.1689581 0.82900006 6.617183582e-39
0.39853525 0.16855049 0.82700002 7.167480496e-39
0.4010781 0.1689581 0.82900006 7.716702613e-39
0.40362859 0.16936572 0.83100003 8.357758826e-39
0.40521145 0.16936572 0.83100003 8.453183047e-39
0.40777335 0.16977334 0.83300006 8.548980014e-39
0.41132572 0.17058857 0.83700001 8.926742054e-39
0.41292 0.17058857 0.83700001 9.396717941e-39
0.4145143 0.17058857 0.83700001 9.772348606e-39
0.41610858 0.17058857 0.83700001 1.014797367e-38
0.41770285 0.17058857 0.83700001 1.14376489e-38
0.41929713 0.17058857 0.83700001 1.281914702e-38
0.41888002 0.16977334 0.83300006 1.373895652e-38
0.42046669 0.16977334 0.83300006 1.475057911e-38
0.42205337 0.16977334 0.83300006 1.50239318e-38
0.42364001 0.16977334 0.83300006 1.529907816e-38
0.42522669 0.16977334 0.83300006 1.493101731e-38
0.42783809 0.17018095 0.83500004 1.456331799e-38
0.42942858 0.17018095 0.83500004 1.474734912e-38
0.43101904 0.17018095 0.83500004 1.502429053e-38
0.058792382 0.13803428 0.671 1.141597221e-38
0.060070477 0.13803428 0.671 1.10418045e-38
0.061257143 0.13782857 0.67000002 1.002478972e-38
0.062533334 0.13782857 0.67000002 9.10320757e-39
0.063714288 0.13762286 0.66900003 9.283652773e-39
0.064988576 0.13762286 0.66900003 9.569203769e-39
0.066262864 0.13762286 0.66900003 9.752157296e-39
0.067537144 0.13762286 0.66900003 9.936907288e-39
0.068811432 0.13762286 0.66900003 1.012165868e-38
0.070190482 0.13782857 0.67000002 1.03078422e-38
0.071466669 0.13782857 0.67000002 1.058586122e-38
0.072742864 0.13782857 0.67000002 1.086279983e-38
0.074019045 0.13782857 0.67000002 1.104826028e-38
0.075407617 0.13803428 0.671 1.13241227e-38
0.076800004 0.13824001 0.67200005 1.178401485e-38
0.078312382 0.13865143 0.67400002 1.224320354e-38
0.079714291 0.13885714 0.67500001 1.224321335e-38
0.081 0.13885714 0.67500001 1.224393922e-38
0.082285717 0.13885714 0.67500001 1.242833468e-38
0.08369524 0.13906287 0.67600006 1.261022743e-38
0.084982865 0.13906287 0.67600006 1.205779353e-38
0.086270481 0.13906287 0.67600006 1.149850309e-38
0.087817147 0.1394743 0.67800003 1.158242125e-38
0.08924 0.13968 0.67900002 1.167784547e-38
0.090533338 0.13968 0.67900002 1.186331292e-38
0.091826662 0.13968 0.67900002 1.213917955e-38
0.093120001 0.13968 0.67900002 1.241791603e-38
0.094413333 0.13968 0.67900002 1.278347696e-38
0.095847614 0.13988572 0.68000001 1.259981998e-38
0.097142853 0.13988572 0.68000001 1.250761454e-38
0.098872378 0.14050286 0.68300003 1.250760474e-38
0.10032 0.14070857 0.68400002 1.25083222e-38
0.10192001 0.14112 0.68600005 1.25093984e-38
0.10322668 0.14112 0.68600005 1.25115606e-38
0.10453334 0.14112 0.68600005 1.297325902e-38
0.10584001 0.14112 0.68600005 1.352390766e-38
0.10730286 0.14132573 0.68700004 1.324839556e-38
0.10861143 0.14132573 0.68700004 1.306437285e-38
0.10992001 0.14132573 0.68700004 1.315621395e-38
0.11155239 0.14173715 0.68900001 1.333951079e-38
0.11286476 0.14173715 0.68900001 1.333913524e-38
0.11434287 0.14194286 0.69000006 1.343025468e-38
0.11565715 0.14194286 0.69000006 1.342954001e-38
0.11714096 0.14214858 0.69100004 1.342989594e-38
0.11845715 0.14214858 0.69100004 1.315510552e-38
0.11977334 0.14214858 0.69100004 1.297144013e-38
0.12108953 0.14214858 0.69100004 1.260159263e-38
0.12276001 0.14256001 0.69300002 1.223281431e-38
0.12407999 0.14256001 0.69300002 1.195587289e-38
0.12539999 0.14256001 0.69300002 1.177291376e-38
0.12690286 0.14276572 0.69400001 1.168179012e-38
0.12840953 0.14297144 0.69500005 1.158959309e-38
0.12973335 0.14297144 0.69500005 1.14059193e-38
0.13143429 0.14338286 0.69700003 1.122188817e-38
0.13276191 0.14338286 0.69700003 1.103821578e-38
0.1342819 0.14358857 0.69800001 1.094709354e-38
0.13600001 0.14400001 0.70000005 1.058082495e-38
0.13752952 0.14420572 0.70100003 1.021348437e-38
0.13886477 0.14420572 0.70100003 1.002837845e-38
0.14000002 0.14400001 0.70000005 9.936904486e-39
0.14153525 0.14420572 0.70100003 9.75395236e-39
0.14368573 0.14502858 0.70500004 9.569918431e-39
0.14544 0.14544 0.70700002 9.661749723e-39
0.14678667 0.14544 0.70700002 9.844350124e-39
0.14813334 0.14544 0.70700002 1.021205785e-38
0.1501143 0.14605716 0.71000004 1.057939142e-38
0.15146667 0.14605716 0.71000004 1.021275709e-38
0.15281905 0.14605716 0.71000004 9.845772441e-39
0.15417144 0.14605716 0.71000004 9.936890473e-39
0.15552381 0.14605716 0.71000004 1.012056287e-38
0.15687619 0.14605716 0.71000004 9.845416512e-39
0.29640001 0.16416001 0.79800004 8.833080666e-39
0.29792002 0.16416001 0.79800004 8.741965437e-39
0.30094096 0.16498287 0.80200005 8.64797054e-39
0.3017143 0.16457143 0.80000001 8.55648677e-39
0.30323809 0.16457143 0.80000001 8.466086203e-39
0.30400002 0.16416001 0.79800004 8.374969573e-39
0.30513716 0.16395429 0.79700005 8.373175911e-39
0.30665523 0.16395429 0.79700005 8.46537014e-39
0.30817336 0.16395429 0.79700005 8.649039731e-39
0.30969146 0.16395429 0.79700005 8.468956063e-39
0.31120953 0.16395429 0.79700005 8.372459848e-39
0.31272763 0.16395429 0.79700005 8.463939414e-39
0.31424573 0.16395429 0.79700005 8.555414777e-39
0.31576383 0.16395429 0.79700005 8.187712658e-39
0.31728193 0.16395429 0.79700005 7.911847437e-39
0.3188 0.16395429 0.79700005 7.728175044e-39
0.32072002 0.16416001 0.79800004 7.543069122e-39
0.32224002 0.16416001 0.79800004 7.448363766e-39
0.32538286 0.16498287 0.80200005 7.356168137e-39
0.32609522 0.16457143 0.80000001 6.988826152e-39
0.32761905 0.16457143 0.80000001 6.713679797e-39
0.32996574 0.16498287 0.80200005 5.795684969e-39
0.33232 0.16539429 0.80400002 4.968092109e-39
0.33385143 0.16539429 0.80400002 5.61022592e-39
0.33538285 0.16539429 0.80400002 6.346342016e-39
0.3369143 0.16539429 0.80400002 6.254503718e-39
0.33844572 0.16539429 0.80400002 6.16338989e-39
0.34082288 0.16580573 0.80600005 6.07191733e-39
0.34235811 0.16580573 0.80600005 5.980093045e-39
0.34389335 0.16580573 0.80600005 6.071939751e-39
0.34542859 0.16580573 0.80600005 6.253096814e-39
0.34782475 0.16621715 0.80800003 7.170730107e-39
0.3493638 0.16621715 0.80800003 8.181626819e-39
0.35090286 0.16621715 0.80800003 7.5394846e-39
0.35156953 0.16580573 0.80600005 6.990986954e-39
0.35310477 0.16580573 0.80600005 6.806602701e-39
0.35552001 0.16621715 0.80800003 6.714052543e-39
0.35794288 0.16662857 0.81000006 6.897367605e-39
0.36037335 0.16704001 0.81200004 7.172160833e-39
0.36281142 0.16745143 0.81400001 7.171806304e-39
0.36436191 0.16745143 0.81400001 7.171077629e-39
0.36636192 0.16765715 0.81500006 6.160159897e-39
0.36881715 0.16806857 0.81700003 5.148177179e-39
0.37037337 0.16806857 0.81700003 5.60591973e-39
0.37192953 0.16806857 0.81700003 6.156215242e-39
0.37348571 0.16806857 0.81700003 6.247690604e-39
0.37596002 0.16848001 0.81900007 6.431009871e-39
0.37752002 0.16848001 0.81900007 5.971837995e-39
0.38000572 0.16889144 0.82100004 5.513733909e-39
0.38156953 0.16889144 0.82100004 5.33113491e-39
0.38406667 0.16930287 0.82300001 5.237863083e-39
0.3856343 0.16930287 0.82300001 4.960921665e-39
0.38814288 0.1697143 0.82500005 4.777260482e-39
0.39065906 0.17012572 0.82700002 4.134421818e-39
0.3922343 0.17012572 0.82700002 3.491943287e-39
0.39476192 0.17053714 0.82900006 4.226997199e-39
0.39634097 0.17053714 0.82900006 4.97101802e-39
0.39888 0.17094857 0.83100003 7.643584261e-39
0.39949906 0.17053714 0.82900006 1.031185132e-38
0.4010781 0.17053714 0.82900006 1.077606647e-38
0.40460005 0.17136 0.83300006 1.124062353e-38
0.4061867 0.17136 0.83300006 1.207288272e-38
0.40875241 0.17177144 0.83500004 1.299268522e-38
0.41132572 0.17218286 0.83700001 1.354550447e-38
0.41292 0.17218286 0.83700001 1.419231862e-38
0.4145143 0.17218286 0.83700001 1.46558205e-38
0.41610858 0.17218286 0.83700001 1.520864396e-38
0.41770285 0.17218286 0.83700001 1.557779642e-38
0.41929713 0.17218286 0.83700001 1.603267612e-38
0.42089143 0.17218286 0.83700001 1.539055352e-38
0.42046669 0.17136 0.83300006 1.474806518e-38
0.42205337 0.17136 0.83300006 1.51157673e-38
0.42364001 0.17136 0.83300006 1.557422451e-38
0.42522669 0.17136 0.83300006 1.50228514e-38
0.42783809 0.17177144 0.83500004 1.456403546e-38
0.42942858 0.17177144 0.83500004 1.456439839e-38
0.43101904 0.17177144 0.83500004 1.465587375e-38
0.058792382 0.13931239 0.671 1.187586295e-38
0.060070477 0.13931239 0.671 1.196769705e-38
0.061257143 0.13910475 0.67000002 1.113794899e-38
0.062533334 0.13910475 0.67000002 1.021672277e-38
0.063809521 0.13910475 0.67000002 1.021636404e-38
0.065085717 0.13910475 0.67000002 1.030820093e-38
0.066361904 0.13910475 0.67000002 1.040183149e-38
0.067537144 0.13889715 0.66900003 1.049582079e-38
0.068914287 0.13910475 0.67000002 1.058729895e-38
0.070190482 0.13910475 0.67000002 1.067913305e-38
0.071466669 0.13910475 0.67000002 1.086423897e-38
0.072851434 0.13931239 0.671 1.114117058e-38
0.074129522 0.13931239 0.671 1.132375556e-38
0.075407617 0.13931239 0.671 1.160069838e-38
0.076800004 0.13952002 0.67200005 1.178329458e-38
0.078312382 0.13993524 0.67400002 1.187442382e-38
0.079714291 0.14014286 0.67500001 1.187479516e-38
0.081 0.14014286 0.67500001 1.17833198e-38
0.082285717 0.14014286 0.67500001 1.178404007e-38
0.08369524 0.14035049 0.67600006 1.178474632e-38
0.084982865 0.14035049 0.67600006 1.140950242e-38
0.086525716 0.14076571 0.67800003 1.11214515e-38
0.087946668 0.14097333 0.67900002 1.130764624e-38
0.08924 0.14097333 0.67900002 1.149526048e-38
0.090533338 0.14097333 0.67900002 1.177148163e-38
0.091826662 0.14097333 0.67900002 1.204878318e-38
0.093120001 0.14097333 0.67900002 1.250796207e-38
0.094413333 0.14097333 0.67900002 1.305897785e-38
0.095847614 0.14118096 0.68000001 1.278311683e-38
0.097142853 0.14118096 0.68000001 1.241576924e-38
0.098872378 0.14180382 0.68300003 1.250760053e-38
0.10032 0.14201143 0.68400002 1.259979336e-38
0.10162286 0.14201143 0.68400002 1.25083166e-38
0.10292572 0.14201143 0.68400002 1.241720557e-38
0.10453334 0.14242667 0.68600005 1.269379666e-38
0.10584001 0.14242667 0.68600005 1.297073948e-38
0.10714667 0.14242667 0.68600005 1.278635383e-38
0.10845334 0.14242667 0.68600005 1.269416941e-38
0.10992001 0.14263429 0.68700004 1.287820894e-38
0.11122858 0.14263429 0.68700004 1.306257358e-38
0.11253715 0.14263429 0.68700004 1.306219102e-38
0.11417715 0.14304952 0.68900001 1.306183089e-38
0.11565715 0.14325716 0.69000006 1.296963666e-38
0.11714096 0.14346477 0.69100004 1.296964087e-38
0.11845715 0.14346477 0.69100004 1.269485745e-38
0.11977334 0.14346477 0.69100004 1.251190532e-38
0.12108953 0.14346477 0.69100004 1.214133615e-38
0.12240572 0.14346477 0.69100004 1.167821541e-38
0.12407999 0.14388001 0.69300002 1.140307046e-38
0.12539999 0.14388001 0.69300002 1.112826602e-38
0.12690286 0.14408763 0.69400001 1.094565721e-38
0.12840953 0.14429525 0.69500005 1.085561678e-38
0.13010666 0.14471048 0.69700003 1.030424787e-38
0.13143429 0.14471048 0.69700003 9.844348722e-39
0.13295239 0.1449181 0.69800001 1.011949368e-38
0.1342819 0.1449181 0.69800001 1.039499876e-38
0.13600001 0.14533333 0.70000005 1.012164467e-38
0.13733335 0.14533333 0.70000005 9.846499715e-39
0.13886477 0.14554095 0.70100003 9.844351525e-39
0.14000002 0.14533333 0.70000005 9.845078799e-39
0.14153525 0.14554095 0.70100003 9.569582119e-39
0.14327809 0.14595619 0.70300001 9.202226122e-39
0.14482287 0.14616382 0.70400006 9.569196762e-39
0.14616382 0.14616382 0.70400006 9.844344518e-39
0.14813334 0.14678667 0.70700002 1.002837424e-38
0.1501143 0.14740953 0.71000004 1.030315906e-38
0.15146667 0.14740953 0.71000004 1.002872457e-38
0.30094096 0.16651049 0.80200005 8.831285603e-39
0.3017143 0.16609524 0.80000001 8.73979903e-39
0.30248001 0.16568001 0.79800004 8.557205636e-39
0.30400002 0.16568001 0.79800004 8.557207037e-39
0.30552003 0.16568001 0.79800004 8.465371541e-39
0.3058857 0.16505714 0.79500002 8.740519297e-39
0.30740002 0.16505714 0.79500002 8.92598255e-39
0.3089143 0.16505714 0.79500002 8.649758597e-39
0.31120953 0.1654724 0.79700005 8.465730274e-39
0.31272763 0.1654724 0.79700005 8.557567171e-39
0.31424573 0.1654724 0.79700005 8.649401266e-39
0.31616002 0.16568001 0.79800004 8.465371541e-39
0.31768003 0.16568001 0.79800004 8.281700549e-39
0.31920001 0.16568001 0.79800004 8.188431524e-39
0.32232764 0.16651049 0.80200005 8.003682934e-39
0.32385528 0.16651049 0.80200005 8.003324201e-39
0.32538286 0.16651049 0.80200005 8.094799564e-39
0.3269105 0.16651049 0.80200005 8.187709856e-39
0.3284381 0.16651049 0.80200005 8.280983084e-39
0.33078858 0.16692571 0.80400002 7.544149523e-39
0.33232 0.16692571 0.80400002 6.899505986e-39
0.33385143 0.16692571 0.80400002 6.714041332e-39
0.33621716 0.16734096 0.80600005 6.529651474e-39
0.3369143 0.16692571 0.80400002 5.978995828e-39
0.33928764 0.16734096 0.80600005 5.428345787e-39
0.34082288 0.16734096 0.80600005 5.427991259e-39
0.34320763 0.1677562 0.80800003 5.427991259e-39
0.34389335 0.16734096 0.80600005 5.518750558e-39
0.34628573 0.1677562 0.80800003 5.701353761e-39
0.34868574 0.16817145 0.81000006 6.43640487e-39
0.35022858 0.16817145 0.81000006 7.168926636e-39
0.35090286 0.1677562 0.80800003 6.713328071e-39
0.35156953 0.16734096 0.80600005 6.34742522e-39
0.35398096 0.1677562 0.80800003 6.438907589e-39
0.35640001 0.16817145 0.81000006 6.52823336e-39
0.36015242 0.16920954 0.81500006 6.622581384e-39
0.3617048 0.16920954 0.81500006 6.805543319e-39
0.36414859 0.16962476 0.81700003 7.171817514e-39
0.36570477 0.16962476 0.81700003 7.444434525e-39
0.36816001 0.17004001 0.81900007 7.258951654e-39
0.36972001 0.17004001 0.81900007 7.073845732e-39
0.37128001 0.17004001 0.81900007 7.073845732e-39
0.37284002 0.17004001 0.81900007 7.073845732e-39
0.37440002 0.17004001 0.81900007 7.440470252e-39
0.37596002 0.17004001 0.81900007 7.899293204e-39
0.3784419 0.17045525 0.82100004 7.623792321e-39
0.38000572 0.17045525 0.82100004 7.440477259e-39
0.38156953 0.17045525 0.82100004 7.625223047e-39
0.38406667 0.17087048 0.82300001 7.810327568e-39
0.38657144 0.17128572 0.82500005 8.181974341e-39
0.38908383 0.17170095 0.82700002 8.553636529e-39
0.39065906 0.17170095 0.82700002 8.560110528e-39
0.3931829 0.17211621 0.82900006 8.658795571e-39
0.39476192 0.17211621 0.82900006 9.308494992e-39
0.39634097 0.17211621 0.82900006 9.8663407e-39
0.39888 0.17253143 0.83100003 1.115707812e-38
0.39949906 0.17211621 0.82900006 1.244782534e-38
0.40204573 0.17253143 0.83100003 1.291241324e-38
0.40460005 0.17294668 0.83300006 1.3285132e-38
0.4061867 0.17294668 0.83300006 1.356027696e-38
0.40875241 0.17336191 0.83500004 1.383579185e-38
0.41132572 0.17377715 0.83700001 1.411094942e-38
0.41292 0.17377715 0.83700001 1.438609858e-38
0.4145143 0.17377715 0.83700001 1.456295646e-38
0.41610858 0.17377715 0.83700001 1.483989927e-38
0.41770285 0.17377715 0.83700001 1.50228542e-38
0.41829526 0.17336191 0.83500004 1.529763902e-38
0.41988572 0.17336191 0.83500004 1.493029424e-38
0.42420572 0.17253143 0.83100003 1.483810281e-38
0.42783809 0.17336191 0.83500004 1.456224319e-38
0.42942858 0.17336191 0.83500004 1.456404386e-38
0.059980955 0.14038096 0.67000002 1.297897491e-38
0.061257143 0.14038096 0.67000002 1.215244284e-38
0.062533334 0.14038096 0.67000002 1.14181148e-38
0.063714288 0.14017144 0.66900003 1.123515987e-38
0.065085717 0.14038096 0.67000002 1.105077562e-38
0.066361904 0.14038096 0.67000002 1.105042249e-38
0.067537144 0.14017144 0.66900003 1.114118599e-38
0.068914287 0.14038096 0.67000002 1.1140114e-38
0.070190482 0.14038096 0.67000002 1.1140121e-38
0.071466669 0.14038096 0.67000002 1.123196351e-38
0.072851434 0.14059047 0.671 1.141561068e-38
0.074129522 0.14059047 0.671 1.169109334e-38
0.075407617 0.14059047 0.671 1.196625511e-38
0.077028573 0.14121905 0.67400002 1.1782238e-38
0.078428566 0.14142857 0.67500001 1.159892434e-38
0.079714291 0.14142857 0.67500001 1.150708884e-38
0.081120007 0.14163812 0.67600006 1.141489742e-38
0.082651429 0.14205715 0.67800003 1.113939373e-38
0.08394286 0.14205715 0.67800003 1.095033615e-38
0.085234284 0.14205715 0.67800003 1.085311406e-38
0.086653329 0.14226668 0.67900002 1.084667509e-38
0.087946668 0.14226668 0.67900002 1.103287543e-38
0.089371428 0.1424762 0.68000001 1.130980564e-38
0.090533338 0.14226668 0.67900002 1.158781344e-38
0.091826662 0.14226668 0.67900002 1.195586869e-38
0.093120001 0.14226668 0.67900002 1.269126592e-38
0.094552375 0.1424762 0.68000001 1.342559116e-38
0.095847614 0.1424762 0.68000001 1.287457958e-38
0.097142853 0.1424762 0.68000001 1.24154021e-38
0.098872378 0.14310478 0.68300003 1.259907309e-38
0.10032 0.1433143 0.68400002 1.278310702e-38
0.10162286 0.1433143 0.68400002 1.259979896e-38
0.10292572 0.1433143 0.68400002 1.241649231e-38
0.10453334 0.14373334 0.68600005 1.241685665e-38
0.10584001 0.14373334 0.68600005 1.242008384e-38
0.10714667 0.14373334 0.68600005 1.232824834e-38
0.10845334 0.14373334 0.68600005 1.232789521e-38
0.10976001 0.14373334 0.68600005 1.260340871e-38
0.11106668 0.14373334 0.68600005 1.287818232e-38
0.11253715 0.14394286 0.68700004 1.278597408e-38
0.11417715 0.1443619 0.68900001 1.278669294e-38
0.11565715 0.14457144 0.69000006 1.260374082e-38
0.11697143 0.14457144 0.69000006 1.251118926e-38
0.11845715 0.14478095 0.69100004 1.232715953e-38
0.11977334 0.14478095 0.69100004 1.214169208e-38
0.12108953 0.14478095 0.69100004 1.168107546e-38
0.12240572 0.14478095 0.69100004 1.122010292e-38
0.12407999 0.1452 0.69300002 1.085168333e-38
0.12539999 0.1452 0.69300002 1.05768845e-38
0.12690286 0.14540952 0.69400001 1.03013696e-38
0.12840953 0.14561905 0.69500005 1.01209272e-38
0.13010666 0.1460381 0.69700003 9.294766471e-39
0.13143429 0.1460381 0.69700003 8.560439833e-39
0.13295239 0.14624761 0.69800001 9.203647038e-39
0.1342819 0.14624761 0.69800001 9.938329606e-39
0.13561143 0.14624761 0.69800001 9.754657213e-39
0.13752952 0.14687619 0.70100003 9.570630291e-39
0.13926095 0.14729524 0.70300001 9.660676329e-39
0.1402 0.14687619 0.70100003 9.844711659e-39
0.14193904 0.14729524 0.70300001 9.385539783e-39
0.14327809 0.14729524 0.70300001 8.925993761e-39
0.14461716 0.14729524 0.70300001 9.384804101e-39
0.14595619 0.14729524 0.70300001 9.936177212e-39
0.30248001 0.16720001 0.79800004 8.740161966e-39
0.30400002 0.16720001 0.79800004 8.647613209e-39
0.30552003 0.16720001 0.79800004 8.649048139e-39
0.3058857 0.16657144 0.79500002 8.924195895e-39
0.30740002 0.16657144 0.79500002 9.292977013e-39
0.3089143 0.16657144 0.79500002 8.926355296e-39
0.31160003 0.16720001 0.79800004 8.557934311e-39
0.31312001 0.16720001 0.79800004 8.649767005e-39
0.31464002 0.16720001 0.79800004 8.741242367e-39
0.31616002 0.16720001 0.79800004 8.742674494e-39
0.31847617 0.16761905 0.80000001 8.742315762e-39
0.31999999 0.16761905 0.80000001 8.650120132e-39
0.32232764 0.1680381 0.80200005 8.555772108e-39
0.32304764 0.16761905 0.80000001 8.646530005e-39
0.32619429 0.16845715 0.80400002 8.830917061e-39
0.32772571 0.16845715 0.80400002 9.290812007e-39
0.32925713 0.16845715 0.80400002 9.842196328e-39
0.33078858 0.16845715 0.80400002 9.291913427e-39
0.33232 0.16845715 0.80400002 8.83057094e-39
0.33385143 0.16845715 0.80400002 7.816781948e-39
0.33621716 0.1688762 0.80600005 6.805516695e-39
0.3377524 0.1688762 0.80600005 5.70026355e-39
0.34012952 0.16929525 0.80800003 4.691152092e-39
0.34251431 0.1697143 0.81000006 4.784425321e-39
0.34405717 0.1697143 0.81000006 4.87554055e-39
0.34560004 0.1697143 0.81000006 4.967014511e-39
0.34714288 0.1697143 0.81000006 5.150692509e-39
0.34954667 0.17013335 0.81200004 5.610235729e-39
0.3519581 0.17055239 0.81400001 6.161967572e-39
0.35264 0.17013335 0.81200004 5.887537281e-39
0.35505906 0.17055239 0.81400001 5.703870493e-39
0.35704765 0.17076191 0.81500006 5.979381185e-39
0.35860002 0.17076191 0.81500006 6.347087507e-39
0.36103621 0.17118095 0.81700003 6.439646073e-39
0.3625924 0.17118095 0.81700003 6.53041378e-39
0.36504 0.1716 0.81900007 7.172194464e-39
0.36570477 0.17118095 0.81700003 7.821865859e-39
0.36816001 0.1716 0.81900007 8.379700357e-39
0.36972001 0.1716 0.81900007 9.021831365e-39
0.37128001 0.1716 0.81900007 8.470100923e-39
0.37375048 0.17201905 0.82100004 8.014150633e-39
0.37440002 0.1716 0.81900007 8.660585029e-39
0.37687811 0.17201905 0.82100004 9.396356406e-39
0.3784419 0.17201905 0.82100004 9.397445215e-39
0.38000572 0.17201905 0.82100004 9.491078577e-39
0.38156953 0.17201905 0.82100004 9.952412656e-39
0.38500002 0.17285715 0.82500005 1.041625646e-38
0.38938287 0.17411429 0.83100003 1.133963508e-38
0.39190671 0.17453334 0.83300006 1.235055561e-38
0.39254859 0.17411429 0.83100003 1.308632839e-38
0.39508003 0.17453334 0.83300006 1.39153758e-38
0.39571428 0.17411429 0.83100003 1.437708262e-38
0.39729714 0.17411429 0.83100003 1.483805937e-38
0.39888 0.17411429 0.83100003 1.474838047e-38
0.40046287 0.17411429 0.83100003 1.465655759e-38
0.40204573 0.17411429 0.83100003 1.502427092e-38
0.40460005 0.17453334 0.83300006 1.538981784e-38
0.4061867 0.17453334 0.83300006 1.502103952e-38
0.40777335 0.17453334 0.83300006 1.465514087e-38
0.40936002 0.17453334 0.83300006 1.465658421e-38
0.41390669 0.17579049 0.83900005 1.465514928e-38
0.41550478 0.17579049 0.83900005 1.456223759e-38
0.41610858 0.17537142 0.83700001 1.447004897e-38
0.41770285 0.17537142 0.83700001 1.456153274e-38
0.41829526 0.17495239 0.83500004 1.465407589e-38
0.41988572 0.17495239 0.83500004 1.456294805e-38
0.42420572 0.17411429 0.83100003 1.465155916e-38
0.42783809 0.17495239 0.83500004 1.465479195e-38
0.42942858 0.17495239 0.83500004 1.456367953e-38
0.059980955 0.14165714 0.67000002 1.233470412e-38
0.061257143 0.14165714 0.67000002 1.187586015e-38
0.062533334 0.14165714 0.67000002 1.141739593e-38
0.063809521 0.14165714 0.67000002 1.123372074e-38
0.065182857 0.14186858 0.671 1.114189365e-38
0.066361904 0.14165714 0.67000002 1.123373895e-38
0.067638099 0.14165714 0.67000002 1.141741555e-38
0.068914287 0.14165714 0.67000002 1.132343467e-38
0.070295237 0.14186858 0.671 1.123053699e-38
0.071573332 0.14186858 0.671 1.12305524e-38
0.072851434 0.14186858 0.671 1.132235006e-38
0.074129522 0.14186858 0.671 1.150634335e-38
0.075407617 0.14186858 0.671 1.16903983e-38
0.077028573 0.14250286 0.67400002 1.159894676e-38
0.078428566 0.14271429 0.67500001 1.150745598e-38
0.079714291 0.14271429 0.67500001 1.132341224e-38
0.081479996 0.14356001 0.67900002 1.113795179e-38
0.082773335 0.14356001 0.67900002 1.086137331e-38
0.084066667 0.14356001 0.67900002 1.048506162e-38
0.085360005 0.14356001 0.67900002 1.039071359e-38
0.086653329 0.14356001 0.67900002 1.020491403e-38
0.087946668 0.14356001 0.67900002 1.04811632e-38
0.08924 0.14356001 0.67900002 1.084848697e-38
0.090533338 0.14356001 0.67900002 1.112612764e-38
0.091826662 0.14356001 0.67900002 1.149525348e-38
0.093120001 0.14356001 0.67900002 1.204805031e-38
0.094413333 0.14356001 0.67900002 1.250722638e-38
0.095706671 0.14356001 0.67900002 1.232319526e-38
0.097142853 0.14377144 0.68000001 1.213916974e-38
0.098727629 0.14419429 0.68200004 1.213881661e-38
0.10017334 0.14440572 0.68300003 1.222958432e-38
0.10162286 0.14461716 0.68400002 1.204807413e-38
0.10292572 0.14461716 0.68400002 1.19569603e-38
0.10422857 0.14461716 0.68400002 1.19580407e-38
0.10553142 0.14461716 0.68400002 1.186978833e-38
0.10714667 0.14504001 0.68600005 1.177615496e-38
0.10845334 0.14504001 0.68600005 1.168252861e-38
0.10976001 0.14504001 0.68600005 1.177364944e-38
0.11106668 0.14504001 0.68600005 1.17732851e-38
0.11253715 0.14525144 0.68700004 1.186475766e-38
0.11417715 0.14567429 0.68900001 1.204807273e-38
0.11565715 0.14588572 0.69000006 1.19569589e-38
0.11714096 0.14609715 0.69100004 1.186583666e-38
0.11845715 0.14609715 0.69100004 1.16814454e-38
0.11977334 0.14609715 0.69100004 1.149740727e-38
0.12108953 0.14609715 0.69100004 1.103822138e-38
0.12240572 0.14609715 0.69100004 1.057831943e-38
0.12407999 0.14652 0.69300002 1.04861196e-38
0.12539999 0.14652 0.69300002 1.03942799e-38
0.12690286 0.14673144 0.69400001 1.02116823e-38
0.12840953 0.14694287 0.69500005 1.01209216e-38
0.12973335 0.14694287 0.69500005 9.662101449e-39
0.13143429 0.14736572 0.69700003 9.204360299e-39
0.13276191 0.14736572 0.69700003 9.663539181e-39
0.13408953 0.14736572 0.69700003 1.012271386e-38
0.13541715 0.14736572 0.69700003 9.938682734e-39
0.13674477 0.14736572 0.69700003 9.753939748e-39
0.13926095 0.1486343 0.70300001 9.753585219e-39
0.1402 0.14821143 0.70100003 9.753586621e-39
0.14193904 0.1486343 0.70300001 9.477364069e-39
0.14327809 0.1486343 0.70300001 9.201493243e-39
0.14461716 0.1486343 0.70300001 9.477711591e-39
0.14595619 0.1486343 0.70300001 9.753939748e-39
0.31160003 0.16872001 0.79800004 8.558304254e-39
0.31312001 0.16872001 0.79800004 8.649774011e-39
0.31464002 0.16872001 0.79800004 8.741605304e-39
0.31695241 0.16914286 0.80000001 8.649767005e-39
0.31847617 0.16914286 0.80000001 8.558287438e-39
0.31999999 0.16914286 0.80000001 8.557568572e-39
0.32232764 0.16956572 0.80200005 8.649042533e-39
0.32304764 0.16914286 0.80000001 8.740876628e-39
0.32619429 0.16998857 0.80400002 8.833069456e-39
0.32772571 0.16998857 0.80400002 9.384441165e-39
0.32925713 0.16998857 0.80400002 9.936194027e-39
0.33314669 0.17041144 0.80600005 8.557585388e-39
0.33468193 0.17041144 0.80600005 7.727456178e-39
0.33705145 0.17083429 0.80800003 6.898071057e-39
0.3385905 0.17083429 0.80800003 5.699191557e-39
0.34097144 0.17125715 0.81000006 4.59644954e-39
0.34251431 0.17125715 0.81000006 4.323096847e-39
0.34405717 0.17125715 0.81000006 4.139061517e-39
0.34645334 0.17168 0.81200004 4.415638597e-39
0.34885716 0.17210287 0.81400001 4.691509424e-39
0.35040763 0.17210287 0.81400001 5.150692509e-39
0.35636762 0.17273715 0.81700003 4.784809277e-39
0.35880002 0.17316 0.81900007 5.336901253e-39
0.36036003 0.17316 0.81900007 5.798958402e-39
0.36280385 0.17358287 0.82100004 5.79717455e-39
0.36436763 0.17358287 0.82100004 5.796465492e-39
0.36682287 0.17400572 0.82300001 7.180464927e-39
0.36749527 0.17358287 0.82100004 8.564844114e-39
0.36905906 0.17358287 0.82100004 9.024771289e-39
0.37152573 0.17400572 0.82300001 9.393189471e-39
0.37218669 0.17358287 0.82100004 9.769499766e-39
0.37375048 0.17358287 0.82100004 1.014580586e-38
0.3753143 0.17358287 0.82100004 1.051529743e-38
0.37687811 0.17358287 0.82100004 1.088516876e-38
0.3784419 0.17358287 0.82100004 1.097630641e-38
0.38000572 0.17358287 0.82100004 1.115962988e-38
0.3834286 0.17442858 0.82500005 1.15316466e-38
0.38500002 0.17442858 0.82500005 1.190365631e-38
0.39032003 0.17612001 0.83300006 1.226095939e-38
0.39190671 0.17612001 0.83300006 1.263046218e-38
0.39254859 0.17569715 0.83100003 1.308606074e-38
0.39508003 0.17612001 0.83300006 1.355313174e-38
0.39571428 0.17569715 0.83100003 1.419311175e-38
0.39729714 0.17569715 0.83100003 1.483666928e-38
0.39888 0.17569715 0.83100003 1.437784353e-38
0.40046287 0.17569715 0.83100003 1.391937931e-38
0.40204573 0.17569715 0.83100003 1.41938068e-38
0.40460005 0.17612001 0.83300006 1.456043132e-38
0.4061867 0.17612001 0.83300006 1.447003215e-38
0.40777335 0.17612001 0.83300006 1.437605127e-38
0.40936002 0.17612001 0.83300006 1.465300109e-38
0.41390669 0.17738858 0.83900005 1.50217752e-38
0.41550478 0.17738858 0.83900005 1.474518972e-38
0.062533334 0.14293334 0.67000002 1.141704e-38
0.063809521 0.14293334 0.67000002 1.132448424e-38
0.065182857 0.14314666 0.671 1.123265435e-38
0.066361904 0.14293334 0.67000002 1.150816644e-38
0.067638099 0.14293334 0.67000002 1.178331139e-38
0.068914287 0.14293334 0.67000002 1.150672731e-38
0.070295237 0.14314666 0.671 1.132235286e-38
0.071573332 0.14314666 0.671 1.132200955e-38
0.072851434 0.14314666 0.671 1.132198432e-38
0.074129522 0.14314666 0.671 1.141415333e-38
0.081479996 0.14485334 0.67900002 1.095498566e-38
0.082773335 0.14485334 0.67900002 1.049186492e-38
0.084066667 0.14485334 0.67900002 1.011914615e-38
0.085360005 0.14485334 0.67900002 9.837186686e-39
0.086653329 0.14485334 0.67900002 9.65388984e-39
0.087946668 0.14485334 0.67900002 1.00219647e-38
0.08924 0.14485334 0.67900002 1.038965561e-38
0.090533338 0.14485334 0.67900002 1.075734792e-38
0.091826662 0.14485334 0.67900002 1.112575629e-38
0.093120001 0.14485334 0.67900002 1.14048403e-38
0.094413333 0.14485334 0.67900002 1.167998525e-38
0.095706671 0.14485334 0.67900002 1.177145921e-38
0.097142853 0.14506668 0.68000001 1.186294158e-38
0.098727629 0.14549334 0.68200004 1.177111169e-38
0.10017334 0.14570667 0.68300003 1.167964333e-38
0.10147429 0.14570667 0.68300003 1.158817498e-38
0.10277524 0.14570667 0.68300003 1.158961271e-38
0.10422857 0.14592001 0.68400002 1.149957368e-38
0.10553142 0.14592001 0.68400002 1.140486412e-38
0.10683428 0.14592001 0.68400002 1.121831906e-38
0.10845334 0.14634669 0.68600005 1.11279227e-38
0.10976001 0.14634669 0.68600005 1.094569084e-38
0.11106668 0.14634669 0.68600005 1.076273311e-38
0.11253715 0.14656 0.68700004 1.103859413e-38
0.11417715 0.14698666 0.68900001 1.131409781e-38
0.11548952 0.14698666 0.68900001 1.131409501e-38
0.11697143 0.1472 0.69000006 1.131373628e-38
0.11845715 0.14741334 0.69100004 1.103786966e-38
0.11977334 0.14741334 0.69100004 1.085455039e-38
0.12108953 0.14741334 0.69100004 1.039572604e-38
0.12240572 0.14741334 0.69100004 9.937260416e-39
0.12372191 0.14741334 0.69100004 1.002980917e-38
0.12539999 0.14784001 0.69300002 1.021311863e-38
0.12690286 0.14805332 0.69400001 1.01209202e-38
0.12840953 0.14826667 0.69500005 1.012127893e-38
0.13010666 0.14869334 0.69700003 9.93796667e-39
0.13143429 0.14869334 0.69700003 9.845772441e-39
0.13276191 0.14869334 0.69700003 1.012127893e-38
0.13408953 0.14869334 0.69700003 1.039857908e-38
0.13541715 0.14869334 0.69700003 1.012307259e-38
0.13674477 0.14869334 0.69700003 9.939048472e-39
0.31695241 0.17066666 0.80000001 8.557214044e-39
0.31847617 0.17066666 0.80000001 8.373182918e-39
0.35724002 0.17472 0.81900007 3.958278601e-39
0.35880002 0.17472 0.81900007 4.60292494e-39
0.36124003 0.17514667 0.82100004 5.339409578e-39
0.36368763 0.17557333 0.82300001 5.246863623e-39
0.36525524 0.17557333 0.82300001 5.155412083e-39
0.36682287 0.17557333 0.82300001 7.28128695e-39
0.36839047 0.17557333 0.82300001 9.392808318e-39
0.3717562 0.17642666 0.82700002 9.584752577e-39
0.37333143 0.17642666 0.82700002 9.864565255e-39
0.37490666 0.17642666 0.82700002 1.106309303e-38
0.37557146 0.17600001 0.82500005 1.225767755e-38
0.37714288 0.17600001 0.82500005 1.226091034e-38
0.37871429 0.17600001 0.82500005 1.235275565e-38
0.38028574 0.17600001 0.82500005 1.253643505e-38
0.38185716 0.17600001 0.82500005 1.281194855e-38
0.3834286 0.17600001 0.82500005 1.308782077e-38
0.38500002 0.17600001 0.82500005 1.336440766e-38
0.39125714 0.17813334 0.83500004 1.31821758e-38
0.39284763 0.17813334 0.83500004 1.299671816e-38
0.39821717 0.17984001 0.84300005 1.308604953e-38
0.39982289 0.17984001 0.84300005 1.318434221e-38
0.40142861 0.17984001 0.84300005 1.400942675e-38
0.39729714 0.17728001 0.83100003 1.492742017e-38
0.066361904 0.14420952 0.67000002 1.114046292e-38
0.067638099 0.14420952 0.67000002 1.104861621e-38
0.085360005 0.14614667 0.67900002 9.836825151e-39
0.086653329 0.14614667 0.67900002 9.55845581e-39
0.087946668 0.14614667 0.67900002 9.743210006e-39
0.08924 0.14614667 0.67900002 1.001979129e-38
0.090533338 0.14614667 0.67900002 1.029673271e-38
0.091826662 0.14614667 0.67900002 1.066478235e-38
0.093120001 0.14614667 0.67900002 1.084844353e-38
0.094413333 0.14614667 0.67900002 1.103246905e-38
0.095706671 0.14614667 0.67900002 1.112501781e-38
0.097142853 0.14636192 0.68000001 1.121757638e-38
0.098727629 0.14679238 0.68200004 1.112538915e-38
0.10002667 0.14679238 0.68200004 1.103356207e-38
0.10147429 0.14700761 0.68300003 1.103392921e-38
0.10277524 0.14700761 0.68300003 1.103428934e-38
0.10422857 0.14722286 0.68400002 1.094245665e-38
0.10553142 0.14722286 0.68400002 1.094245244e-38
0.10683428 0.14722286 0.68400002 1.085097147e-38
0.10813715 0.14722286 0.68400002 1.075950032e-38
0.10976001 0.14765334 0.68600005 1.066874662e-38
0.11106668 0.14765334 0.68600005 1.057870058e-38
0.11237334 0.14765334 0.68600005 1.076272751e-38
0.11384572 0.14786857 0.68700004 1.094746489e-38
0.11548952 0.14829905 0.68900001 1.076414422e-38
0.11697143 0.1485143 0.69000006 1.067302759e-38
0.11828572 0.1485143 0.69000006 1.067231293e-38
0.11977334 0.14872953 0.69100004 1.057975436e-38
0.12144 0.14916001 0.69300002 1.039715536e-38
0.12276001 0.14916001 0.69300002 1.0123081e-38
0.12407999 0.14916001 0.69300002 1.02138375e-38
0.12539999 0.14916001 0.69300002 1.021311583e-38
0.12690286 0.14937523 0.69400001 1.030566599e-38
0.12840953 0.14959048 0.69500005 1.039857908e-38
0.12973335 0.14959048 0.69500005 1.021347456e-38
0.13143429 0.15002096 0.69700003 9.937607938e-39
0.13276191 0.15002096 0.69700003 1.030530725e-38
0.13408953 0.15002096 0.69700003 1.067480303e-38
0.085360005 0.14744002 0.67900002 9.928659246e-39
0.086653329 0.14744002 0.67900002 9.4687643e-39
0.087946668 0.14744002 0.67900002 9.560241064e-39
0.08924 0.14744002 0.67900002 9.744633725e-39
0.090533338 0.14744002 0.67900002 9.928667653e-39
0.091826662 0.14744002 0.67900002 1.020416714e-38
0.093120001 0.14744002 0.67900002 1.029635436e-38
0.094413333 0.14744002 0.67900002 1.048038128e-38
0.095706671 0.14744002 0.67900002 1.047786735e-38
0.097142853 0.14765716 0.68000001 1.057042031e-38
0.098727629 0.14809144 0.68200004 1.047930228e-38
0.10002667 0.14809144 0.68200004 1.038855139e-38
0.10147429 0.14830858 0.68300003 1.038963599e-38
0.10277524 0.14830858 0.68300003 1.048290782e-38
0.10422857 0.14852571 0.68400002 1.048075683e-38
0.10553142 0.14852571 0.68400002 1.048147009e-38
0.10714667 0.14896001 0.68600005 1.039034645e-38
0.10845334 0.14896001 0.68600005 1.039178699e-38
0.10976001 0.14896001 0.68600005 1.039179259e-38
0.11106668 0.14896001 0.68600005 1.039465965e-38
0.11253715 0.14917715 0.68700004 1.048613501e-38
0.11384572 0.14917715 0.68700004 1.058047603e-38
0.11548952 0.14961143 0.68900001 1.030532407e-38
0.11697143 0.14982858 0.69000006 1.012130275e-38
0.11845715 0.15004572 0.69100004 1.021494032e-38
0.11977334 0.15004572 0.69100004 1.039931756e-38
0.12144 0.15048 0.69300002 1.040002382e-38
0.12276001 0.15048 0.69300002 1.039822595e-38
0.12407999 0.15048 0.69300002 1.030638765e-38
0.12558095 0.15069714 0.69400001 1.030638485e-38
0.12672 0.15048 0.69300002 1.049041318e-38
0.12877905 0.15134858 0.69700003 1.076556514e-38
0.13010666 0.15134858 0.69700003 1.039751129e-38
0.13143429 0.15134858 0.69700003 1.01219992e-38
0.13276191 0.15134858 0.69700003 1.048933698e-38
0.085360005 0.14873333 0.67900002 1.021277391e-38
0.086653329 0.14873333 0.67900002 9.746414775e-39
0.087946668 0.14873333 0.67900002 9.470185217e-39
0.08924 0.14873333 0.67900002 9.194328404e-39
0.090533338 0.14873333 0.67900002 9.560602599e-39
0.091826662 0.14873333 0.67900002 9.927581647e-39
0.093120001 0.14873333 0.67900002 9.836100679e-39
0.094413333 0.14873333 0.67900002 9.744981247e-39
0.095706671 0.14873333 0.67900002 9.927933373e-39
0.097142853 0.14895239 0.68000001 1.011123863e-38
0.098727629 0.14939049 0.68200004 9.836443998e-39
0.10017334 0.14960954 0.68300003 9.561663382e-39
0.10147429 0.14960954 0.68300003 9.747496578e-39
0.10277524 0.14960954 0.68300003 1.002372053e-38
0.10422857 0.14982858 0.68400002 1.011663363e-38
0.10553142 0.14982858 0.68400002 1.011770422e-38
0.10683428 0.14982858 0.68400002 1.020845791e-38
0.10813715 0.14982858 0.68400002 1.020774465e-38
0.10976001 0.15026668 0.68600005 1.039285618e-38
0.11106668 0.15026668 0.68600005 1.05779607e-38
0.11253715 0.15048572 0.68700004 1.048756013e-38
0.11417715 0.1509238 0.68900001 1.03975169e-38
0.11565715 0.15114287 0.69000006 1.021312844e-38
0.11714096 0.15136191 0.69100004 1.012094822e-38
0.11845715 0.15136191 0.69100004 1.021531026e-38
0.11977334 0.15136191 0.69100004 1.04007567e-38
0.12144 0.15179999 0.69300002 1.021563396e-38
0.12276001 0.15179999 0.69300002 1.012271806e-38
0.12407999 0.15179999 0.69300002 1.003052103e-38
0.12539999 0.15179999 0.69300002 1.00301609e-38
0.12672 0.15179999 0.69300002 1.003051823e-38
0.12804 0.15179999 0.69300002 1.012272087e-38
0.13010666 0.15267619 0.69700003 9.93870095e-39
0.085360005 0.15002666 0.67900002 1.049509071e-38
0.086653329 0.15002666 0.67900002 1.012164467e-38
0.087946668 0.15002666 0.67900002 9.381215376e-39
0.08924 0.15002666 0.67900002 8.73585998e-39
0.090533338 0.15002666 0.67900002 9.192890671e-39
0.091826662 0.15002666 0.67900002 9.74605324e-39
0.093120001 0.15002666 0.67900002 9.38121958e-39
0.094413333 0.15002666 0.67900002 9.013518863e-39
0.095847614 0.15024762 0.68000001 9.380860847e-39
0.097142853 0.15024762 0.68000001 9.747841297e-39
0.098727629 0.15068954 0.68200004 9.196468186e-39
0.10017334 0.15091048 0.68300003 8.738373909e-39
0.10162286 0.15113144 0.68400002 9.198633192e-39
0.10292572 0.15113144 0.68400002 9.658888272e-39
0.10422857 0.15113144 0.68400002 9.752158698e-39
0.10553142 0.15113144 0.68400002 9.844352926e-39
0.10683428 0.15113144 0.68400002 9.936545753e-39
0.10813715 0.15113144 0.68400002 1.012021534e-38
0.10976001 0.15157335 0.68600005 1.039572183e-38
0.11106668 0.15157335 0.68600005 1.076377988e-38
0.11253715 0.15179428 0.68700004 1.048899086e-38
0.11434287 0.15245716 0.69000006 1.021455776e-38
0.11582477 0.1526781 0.69100004 1.021527243e-38
0.11714096 0.1526781 0.69100004 1.021528223e-38
0.11845715 0.1526781 0.69100004 1.030748767e-38
0.12012 0.15312 0.69300002 1.039895323e-38
0.12144 0.15312 0.69300002 1.012343693e-38
0.12276001 0.15312 0.69300002 9.938688339e-39
0.12407999 0.15312 0.69300002 9.845775244e-39
0.12539999 0.15312 0.69300002 9.753938347e-39
0.12672 0.15312 0.69300002 9.662101449e-39
0.12804 0.15312 0.69300002 9.571346354e-39
0.085360005 0.15132 0.67900002 1.040432581e-38
0.086653329 0.15132 0.67900002 1.031212737e-38
0.087946668 0.15132 0.67900002 9.94119386e-39
0.08924 0.15132 0.67900002 9.662100048e-39
0.090533338 0.15132 0.67900002 9.845413709e-39
0.091826662 0.15132 0.67900002 1.00290833e-38
0.093120001 0.15132 0.67900002 9.753576812e-39
0.094552375 0.15154286 0.68000001 9.569905819e-39
0.095847614 0.15154286 0.68000001 9.752860748e-39
0.097428575 0.15198858 0.68200004 9.844340314e-39
0.098872378 0.15221143 0.68300003 9.569195361e-39
0.10032 0.15243429 0.68400002 9.29440914e-39
0.10162286 0.15243429 0.68400002 9.478801801e-39
0.10292572 0.15243429 0.68400002 9.755384487e-39
0.10422857 0.15243429 0.68400002 9.755385888e-39
0.10553142 0.15243429 0.68400002 9.755390092e-39
0.10683428 0.15243429 0.68400002 9.938706556e-39
0.10813715 0.15243429 0.68400002 1.003017631e-38
0.10992001 0.15310286 0.68700004 1.012272227e-38
0.11122858 0.15310286 0.68700004 1.030746806e-38
0.11286476 0.15354857 0.68900001 1.012343833e-38
0.11417715 0.15354857 0.68900001 9.939763135e-39
0.11582477 0.15399429 0.69100004 9.940117663e-39
