# .PCD v0.7 - Point Cloud Data file format
VERSION 0.7
FIELDS x y z rgb
SIZE 4 4 4 4
TYPE F F F F
COUNT 1 1 1 1
WIDTH 844
HEIGHT 1
VIEWPOINT 0 0 0 1 0 0 0
POINTS 844
DATA ascii
0.239584403 -0.06397216439 0.7867636542 8.284585822e-39
0.2262978493 -0.05200963039 0.7765833791 8.47112247e-39
0.2297947895 -0.05619479995 0.7774089255 8.838461652e-39
0.2444568685 -0.04619785571 0.7840289755 9.299089477e-39
0.2226765825 -0.0623414104 0.7734583121 1.049153141e-38
0.2258405998 -0.05425802785 0.7791987316 1.169437659e-38
0.2525893598 -0.04987941948 0.7799416618 1.18769868e-38
0.2585835618 -0.04864728201 0.7680994261 1.205992911e-38
0.2493702032 -0.056639925 0.7903390282 1.233506566e-38
0.261511067 -0.06475548421 0.7833723743 1.270204751e-38
0.2235871465 -0.0551112567 0.7790803169 1.334489458e-38
0.2642073028 -0.05092790441 0.7787027876 1.407958696e-38
0.2539684755 -0.04103607422 0.7641983458 1.380337141e-38
0.2534869851 -0.06576799728 0.7755952168 1.362186543e-38
0.2713065644 -0.02952931911 0.7796537653 1.398993749e-38
0.2594073624 -0.03256130828 0.7857800615 1.435833465e-38
0.2527232509 -0.05771045389 0.7502619648 1.472529828e-38
0.2645421811 -0.04591192642 0.7707475147 1.518447576e-38
0.2761476617 -0.05308579288 0.791344929 1.491076294e-38
0.2727470086 -0.05989100275 0.7715651201 1.472817375e-38
0.2689664274 -0.05699308001 0.7794106812 1.472459203e-38
0.2752782923 -0.05491997502 0.7769557675 1.481606879e-38
0.2683045919 -0.05131558121 0.7790687723 1.472387597e-38
0.2773928018 -0.04577130505 0.7878632638 1.47253137e-38
0.2749429299 -0.05022304151 0.7830344264 1.47253179e-38
0.2705742937 -0.04109645681 0.7807454967 1.472566262e-38
0.2914206842 -0.04709576806 0.7793255658 1.48174841e-38
0.2820263568 -0.04133537101 0.778351299 1.490933782e-38
0.2749822738 -0.04271302601 0.7728055667 1.490863857e-38
0.2882219801 -0.03836742088 0.773322035 1.481677505e-38
0.2749889548 -0.05116316597 0.7810930528 1.46305663e-38
0.2821613808 -0.056256626 0.7602202722 1.444438278e-38
0.2685749719 -0.04709678797 0.8015631726 1.361140613e-38
0.2912482593 -0.04203305756 0.7968996702 1.278201821e-38
0.2857253962 -0.05147149342 0.7717523374 1.186438352e-38
0.2869536474 -0.03205126211 0.7809029534 1.095392207e-38
0.2978031884 -0.06253548674 0.7794115267 1.131983053e-38
0.2812229513 -0.07251987121 0.7752176754 1.168610052e-38
0.3054869463 -0.05892811628 0.7805380147 1.205344671e-38
0.3044739182 -0.07151778243 0.7813913922 1.242079009e-38
0.2937437212 -0.04850623086 0.792897983 1.214421021e-38
0.2973166857 -0.04949450764 0.797511437 1.195945321e-38
0.3087550471 -0.05078172483 0.7953660818 1.186832677e-38
0.3007153155 -0.04284117569 0.7924561414 1.177758289e-38
0.3096080136 -0.03643864468 0.7803121109 1.223569958e-38
0.3065929441 -0.03838545361 0.7906245197 1.269416941e-38
0.3096534456 -0.05724888206 0.7991106548 1.278996077e-38
0.3356949582 -0.05153367518 0.8046450208 1.288430459e-38
0.3195556338 -0.04696740359 0.7966876004 1.279246629e-38
0.3296932894 -0.05065351634 0.8163709692 1.270099654e-38
0.334555691 -0.05844179453 0.8227171673 1.233330282e-38
0.3263069535 -0.03817568245 0.804040965 1.196921606e-38
0.3200323794 -0.05630820379 0.8057345205 1.123635378e-38
0.3217256887 -0.03856717433 0.8014837962 1.059817163e-38
0.2260614423 -0.03035609008 0.7771249668 1.031070786e-38
0.2462336763 -0.04755224355 0.7784971493 9.760412346e-39
0.2357016844 -0.05077640304 0.7811641601 9.296925872e-39
0.2395635611 -0.04684873933 0.7893386172 8.833798131e-39
0.2300652603 -0.04314759223 0.7699735317 8.466458949e-39
0.2420039771 -0.04240794102 0.7589759304 8.281714562e-39
0.2346058924 -0.04368366368 0.7823448811 8.193820918e-39
0.2336224711 -0.04910916283 0.8032485726 8.562953762e-39
0.2383617166 -0.03955876153 0.7928282222 8.930662887e-39
0.2406749712 -0.02707148874 0.7869298863 1.049223346e-38
0.2480868969 -0.05061822211 0.7890016939 1.205631797e-38
0.2584057104 -0.06266984885 0.7795613296 1.196736354e-38
0.2517711008 -0.0504970935 0.769911005 1.187552524e-38
0.2476763895 -0.05440378905 0.7772348597 1.215103033e-38
0.25922998 -0.05807829243 0.7836679551 1.242653962e-38
0.254690411 -0.04965471222 0.7882841062 1.279388441e-38
0.259417801 -0.03788018112 0.7903391671 1.325235003e-38
0.2384905412 -0.04656522041 0.7569519428 1.33438338e-38
0.2693078312 -0.0673288603 0.7722046904 1.343746856e-38
0.2579503754 -0.05554767042 0.7723343865 1.380660841e-38
0.249990177 -0.05587954974 0.7835908921 1.417358045e-38
0.2601520878 -0.04790995626 0.7817338911 1.408137501e-38
0.2627744337 -0.05586936253 0.7692415819 1.408137221e-38
0.2555504846 -0.05119994255 0.7857860335 1.445194139e-38
0.2532099033 -0.03420428967 0.7939875445 1.481929598e-38
0.2615110419 -0.0515828394 0.777528829 1.490935183e-38
0.2586102242 -0.04103898528 0.7892965298 1.509229835e-38
0.2751976962 -0.05267452813 0.7705892939 1.509157528e-38
0.2662098288 -0.05772540769 0.7869516346 1.518448698e-38
0.2797267873 -0.03491682005 0.7669007212 1.500153485e-38
0.2736093288 -0.05952965236 0.7687438294 1.491004968e-38
0.2709535644 -0.04546423036 0.7800741148 1.49103986e-38
0.2825179691 -0.04007798238 0.78916558 1.490897488e-38
0.2863315577 -0.06050112587 0.7793392613 1.509229695e-38
0.2805275295 -0.05432183869 0.7790589882 1.527594692e-38
0.2993132572 -0.06732018684 0.7676497156 1.601096861e-38
0.2803197192 -0.04523177489 0.783019406 1.683461681e-38
0.289622021 -0.05515754175 0.7772741301 1.554353888e-38
0.2840432808 -0.05039759005 0.7835110405 1.425354415e-38
0.2806587705 -0.05400090432 0.7821403795 1.241289518e-38
0.3031929131 -0.04173475072 0.7787783967 1.058012991e-38
0.2959827147 -0.03495604023 0.7925167688 1.131911867e-38
0.3024462364 -0.04206446779 0.7855877871 1.214455773e-38
0.2793701203 -0.03751314945 0.7896609023 1.307115793e-38
0.2949823688 -0.04969284662 0.7717161741 1.398915837e-38
0.3001894595 -0.03684702432 0.7835435914 1.32544772e-38
0.3050468839 -0.05789841619 0.7754189441 1.251907436e-38
0.2991152333 -0.05264859569 0.7757176983 1.270202649e-38
0.3161713863 -0.05015919455 0.8073879997 1.288642616e-38
0.3135735767 -0.05818405865 0.8025917108 1.353036204e-38
0.3150459788 -0.06629013298 0.8177184718 1.417178959e-38
0.3065951322 -0.053973833 0.7905368012 1.380302809e-38
0.3323947584 -0.05500450535 0.7996513664 1.343531897e-38
0.3206791695 -0.04097957329 0.7870558939 1.325164097e-38
0.3180961975 -0.05895891452 0.8215584495 1.306796577e-38
0.3179431301 -0.04438539995 0.8054461963 1.270097972e-38
0.3281694228 -0.06226038782 0.7999396991 1.233510209e-38
0.3292436669 -0.04340520598 0.8065477158 1.206249629e-38
0.3345514761 -0.0657879924 0.8077687292 1.178951775e-38
0.2396733674 -0.02755051573 0.7954641853 9.205792426e-39
0.2265167105 -0.05803226592 0.7790552758 8.742317163e-39
0.2422865732 -0.05728909335 0.7964160394 8.008000334e-39
0.2381072083 -0.04691088624 0.7887000091 7.273670893e-39
0.2562254602 -0.04489478967 0.7931184449 7.917234029e-39
0.2566985905 -0.04725856079 0.7750939038 8.652995596e-39
0.2506174723 -0.03476264071 0.7694129558 9.572429558e-39
0.2361657043 -0.04851884765 0.7781462408 1.049186772e-38
0.2474420546 -0.03127189981 0.7775186715 1.104539883e-38
0.2319231572 -0.04741979883 0.7963609589 1.159928727e-38
0.2587473028 -0.03435541149 0.7787049431 1.178224781e-38
0.2639189242 -0.04659645454 0.7692590649 1.187157918e-38
0.2529773157 -0.0333202102 0.7770078378 1.223892818e-38
0.2556833892 -0.0471744768 0.7575329491 1.269810986e-38
0.2366913416 -0.04319247825 0.7832155383 1.278851603e-38
0.2556212113 -0.0503873001 0.7630446254 1.287927253e-38
0.2583662546 -0.02717114037 0.8059178211 1.30693979e-38
0.281795249 -0.03659871177 0.7787872369 1.334454285e-38
0.2609287825 -0.03802387374 0.7875296133 1.362076401e-38
0.2684490726 -0.05258483295 0.804533847 1.389698376e-38
0.2551009309 -0.0452687696 0.8009853622 1.417392237e-38
0.2612669776 -0.04598959255 0.790713491 1.445124214e-38
0.2796813792 -0.04220195983 0.7824260763 1.463457542e-38
0.2816067631 -0.04023648863 0.7794149762 1.490970916e-38
0.2591366964 -0.05312700593 0.7735231387 1.518484431e-38
0.2808691157 -0.04295041178 0.7778502284 1.555182616e-38
0.260938168 -0.05923278241 0.7739047517 1.527739446e-38
0.2772348188 -0.05626437608 0.7829360286 1.50033187e-38
0.2674657165 -0.06314405893 0.7861271255 1.500259703e-38
0.2658142903 -0.04370393123 0.7679617925 1.490861195e-38
0.2792791887 -0.04378994113 0.7860495702 1.50930032e-38
0.2895763719 -0.05311294122 0.758886278 1.527737625e-38
0.2891884911 -0.07183035678 0.7826483502 1.564398535e-38
0.3140534721 -0.05815953088 0.7896866448 1.61028027e-38
0.2951798978 -0.04077142005 0.7914410597 1.554999606e-38
0.2880625063 -0.06249272489 0.7847075433 1.499720063e-38
0.2900874082 -0.04400409108 0.7922932955 1.407311856e-38
0.269516559 -0.0587344834 0.7854908237 1.324121531e-38
0.289716225 -0.05089693534 0.796717457 1.269271206e-38
0.3022079834 -0.04001309413 0.7921382557 1.21441962e-38
0.2935535019 -0.06078650001 0.8085818335 1.279097671e-38
0.3020838127 -0.05429842699 0.8012949825 1.352996967e-38
0.2953634342 -0.05706040067 0.7867774608 1.279457385e-38
0.2958469667 -0.0372669471 0.7780598343 1.205917802e-38
0.3001618439 -0.04485921939 0.7992853908 1.261055673e-38
0.3138068137 -0.04559393802 0.7996196724 1.307009855e-38
0.3034183488 -0.05112405764 0.8172997804 1.362147727e-38
0.3077816429 -0.04749350135 0.7983783247 1.40799569e-38
0.3167084052 -0.03597020892 0.8100860559 1.380375397e-38
0.3205045678 -0.04124855895 0.787062808 1.3527516e-38
0.3055840777 -0.03898361195 0.7994214129 1.334419113e-38
0.3134375883 -0.04775535607 0.8172528421 1.325305908e-38
0.3171769716 -0.04927710564 0.8029819015 1.288426816e-38
0.3394763297 -0.04176260369 0.8031825409 1.251731854e-38
0.3369050386 -0.05089333374 0.8182784302 1.224399807e-38
0.3328108822 -0.03429466121 0.7912890762 1.197103354e-38
0.2338064476 -0.02963843557 0.7758593912 9.113257682e-39
0.2281293567 -0.04921370062 0.7902282778 7.733565839e-39
0.238440941 -0.03725851107 0.7799450988 6.354952995e-39
0.2464533789 -0.05475435494 0.776265464 7.363346989e-39
0.2285575037 -0.05063638567 0.7859948804 8.467529541e-39
0.2448408821 -0.07058989618 0.7820522611 8.652998399e-39
0.2404936859 -0.03965499065 0.7715044933 8.92958669e-39
0.2509611938 -0.02893218988 0.7674578225 1.012489008e-38
0.2564563019 -0.04964011828 0.7843770755 1.141202756e-38
0.2457784552 -0.05469595513 0.7939963857 1.141382823e-38
0.2475897623 -0.04474804779 0.775298169 1.141167863e-38
0.2523137484 -0.03935390413 0.757688659 1.177938215e-38
0.2544935601 -0.0414433934 0.7831075419 1.214636541e-38
0.2530319947 -0.04663577748 0.7758851444 1.22382023e-38
0.2518269954 -0.05230983483 0.7799297462 1.242115443e-38
0.2623062899 -0.0387689851 0.7739161466 1.242438162e-38
0.2422285832 -0.0329639203 0.7682297095 1.251693878e-38
0.2561669942 -0.04390782215 0.7629334385 1.306903216e-38
0.2367147067 -0.04820716202 0.7672518951 1.371080304e-38
0.2696346152 -0.057604209 0.7817180924 1.389339643e-38
0.2640605633 -0.04661449038 0.8111376061 1.408138482e-38
0.2638644249 -0.05331938774 0.7827439381 1.445232815e-38
0.2628024903 -0.06098887673 0.7868965906 1.48171506e-38
0.2625912309 -0.04848506223 0.788208568 1.53685153e-38
0.2673669707 -0.0248351344 0.7969523484 1.591952828e-38
0.2711263186 -0.04173004929 0.7914057227 1.555326249e-38
0.270692553 -0.04171591456 0.7680819551 1.518628204e-38
0.2908006805 -0.05122706845 0.7747203065 1.509516681e-38
0.2787848121 -0.03233520592 0.7798960712 1.500260964e-38
0.2868409332 -0.04560745991 0.7858441683 1.509408361e-38
0.2831332539 -0.03717871407 0.7741763237 1.527774479e-38
0.2718965372 -0.05624845398 0.7817176477 1.536957188e-38
0.2838510271 -0.04762088367 0.7662010689 1.545997665e-38
0.2816351293 -0.04639715106 0.7792168814 1.555397014e-38
0.2588725407 -0.04786196798 0.7836020472 1.573656214e-38
0.310400711 -0.04828745454 0.7878366951 1.582732003e-38
0.2931394878 -0.05184451811 0.7757536682 1.591807933e-38
0.2930930873 -0.05089675339 0.7694866515 1.408065194e-38
0.3038198802 -0.04506424503 0.7854733884 1.223997775e-38
0.2894079113 -0.04595269704 0.7863999313 1.260335546e-38
0.2760529451 -0.06533176195 0.799705965 1.306970899e-38
0.3058610214 -0.04847257458 0.7826298152 1.233251529e-38
0.2857230767 -0.0347580832 0.8135602781 1.169003817e-38
0.3124768726 -0.04153615605 0.7930500947 1.251693038e-38
0.3192826174 -0.0397432362 0.8021663548 1.334668404e-38
0.3084113893 -0.03772424705 0.8000215369 1.37136743e-38
0.3113591932 -0.04603703527 0.7905191296 1.408066876e-38
0.3149604449 -0.04921394737 0.8015636632 1.389700898e-38
0.3187349509 -0.04788935688 0.8148748983 1.371261351e-38
0.3289762907 -0.06550273256 0.8287998359 1.352857678e-38
0.3129358189 -0.03782227605 0.8130648135 1.343601401e-38
0.3190023433 -0.04425478908 0.8166270991 1.306794616e-38
0.3122686004 -0.03565488059 0.8089493551 1.279245929e-38
0.329866911 -0.02803123987 0.8174945218 1.251589622e-38
0.312533603 -0.04071271473 0.8102292209 1.224365195e-38
0.3239295801 -0.03899403584 0.8083211877 1.225444896e-38
0.2242935843 -0.02562710309 0.7866391444 8.654787857e-39
0.2455770679 -0.05907205321 0.7705013901 7.732123903e-39
0.2349587788 -0.04943495369 0.7864952135 8.006191258e-39
0.2405593457 -0.03673086069 0.7758385198 8.374256312e-39
0.2369888616 -0.04175619476 0.7836562923 8.374980784e-39
0.2564509667 -0.03464456335 0.7814233836 8.376062586e-39
0.2306335093 -0.05733099404 0.78784936 9.019992862e-39
0.2460869288 -0.06031159095 0.7690737782 9.756117366e-39
0.23634512 -0.04788398184 0.7901859083 1.021637805e-38
0.2718533173 -0.04084602657 0.7923291193 1.067663033e-38
0.2540143828 -0.03947542175 0.7724131788 1.113616514e-38
0.2522927877 -0.04638756438 0.7670276838 1.159533982e-38
0.2548964296 -0.04728095297 0.7715981829 1.177900801e-38
0.2509085908 -0.04923949429 0.7690334666 1.196303633e-38
0.2622180169 -0.05844746952 0.7857093819 1.196375379e-38
0.2496329002 -0.05861584072 0.7810510067 1.187264697e-38
0.2538163172 -0.04333839609 0.8032470968 1.22392827e-38
0.2509903937 -0.03885821215 0.7678044195 1.260590722e-38
0.2760477566 -0.0456222147 0.7844517389 1.297612047e-38
0.2801174475 -0.04268345637 0.7653596273 1.334454426e-38
0.2826629333 -0.03794487387 0.769143256 1.380516367e-38
0.2699442525 -0.03591813504 0.7745055958 1.435760878e-38
0.2534668874 -0.05170934955 0.7771498218 1.490897909e-38
0.2626124475 -0.03064905433 0.7832662042 1.546071093e-38
0.2695112299 -0.06920449727 0.796986096 1.536887823e-38
0.2891980748 -0.05111388228 0.7801747322 1.527705115e-38
0.283468518 -0.04710875241 0.794070261 1.509518363e-38
0.2798646488 -0.04560725818 0.7949968129 1.500405578e-38
0.2723771098 -0.04248529649 0.7793551891 1.536887823e-38
0.2825778732 -0.04810944274 0.7768247764 1.564366305e-38
0.2688113997 -0.04563546355 0.7747445123 1.545998926e-38
0.289062525 -0.05557853322 0.7855456025 1.518485131e-38
0.2846001368 -0.05236688888 0.78100144 1.536889225e-38
0.2824691484 -0.05664376918 0.7979728545 1.546142839e-38
0.2888981595 -0.05352800236 0.7833151112 1.555145481e-38
0.287131336 -0.05477382841 0.7907672684 1.555109888e-38
0.2944800133 -0.02600552691 0.7862276479 1.490789448e-38
0.3014606548 -0.04189333243 0.8092008533 1.417318809e-38
0.2978753713 -0.04847061163 0.7909691014 1.389622425e-38
0.2897536782 -0.0469176809 0.7932215648 1.361963876e-38
0.3071644591 -0.04583327986 0.7957478337 1.306754679e-38
0.3084594581 -0.06497860653 0.7891007649 1.260444287e-38
0.3131182358 -0.05020613881 0.7926167475 1.306938109e-38
0.302873141 -0.04322941993 0.8195610301 1.362362826e-38
0.3040021894 -0.05856538898 0.7861682294 1.398882486e-38
0.3072557221 -0.05470222638 0.8042881151 1.435652838e-38
0.324483363 -0.05861707075 0.7987696361 1.408066596e-38
0.3066271475 -0.04155669657 0.8005506724 1.389663483e-38
0.3124898688 -0.0481638564 0.7994680078 1.398739413e-38
0.3170864245 -0.04698863568 0.8091084304 1.398523613e-38
0.3058043566 -0.03553365044 0.8061537005 1.343565388e-38
0.3084395563 -0.04054444379 0.8114480521 1.279388721e-38
0.3369670921 -0.04213157243 0.8009580752 1.251623533e-38
0.3471760732 -0.04594927136 0.8202370576 1.214892978e-38
0.320854473 -0.04484630103 0.8340314785 1.206717663e-38
0.2320053643 -0.04644670397 0.7876639638 9.111810141e-39
0.2527272982 -0.02751613864 0.763891051 8.740879431e-39
0.2253358146 -0.02807568569 0.7845730896 8.372825587e-39
0.2680407398 -0.04674192513 0.7911192732 8.096607239e-39
0.2468959592 -0.05177055834 0.7772258644 7.824689475e-39
0.2625805804 -0.04148578896 0.7915761144 8.009796799e-39
0.2519453881 -0.0398900941 0.795094191 8.192761537e-39
0.2469673555 -0.02345637695 0.7679196701 9.110411645e-39
0.2513458775 -0.0532522901 0.7804068935 1.003127633e-38
0.2545373382 -0.04776757272 0.7600935473 1.058515777e-38
0.2532309934 -0.04062756598 0.7818889672 1.113544908e-38
0.2460865089 -0.03685759901 0.791861418 1.131875713e-38
0.2584426378 -0.05614871809 0.788140958 1.159390489e-38
0.2752831141 -0.03864797813 0.7884137339 1.140987656e-38
0.2669101899 -0.02688643673 0.7999547975 1.131804948e-38
0.2638780988 -0.04529508371 0.7622835906 1.141025351e-38
0.2660891165 -0.03746743579 0.7830324817 1.150173168e-38
0.2652580401 -0.05096799458 0.7709386608 1.205920324e-38
0.2627456836 -0.03200475563 0.7777095351 1.261094349e-38
0.2721730741 -0.05618217039 0.7753249973 1.325451924e-38
0.25469182 -0.03499730018 0.7845224075 1.389915437e-38
0.2693229136 -0.05888706654 0.7948352521 1.44519554e-38
0.2740601971 -0.04167235873 0.7965822823 1.509372768e-38
0.2644890812 -0.04247649451 0.748428925 1.518484571e-38
0.2799837268 -0.04105833616 0.7944906712 1.536780764e-38
0.2904985194 -0.03737502852 0.7837182809 1.518737365e-38
0.2871578235 -0.04000849891 0.8069908745 1.509373889e-38
0.2883995163 -0.04580499226 0.7834289451 1.55500409e-38
0.2743480352 -0.03407838798 0.7919441639 1.610248461e-38
0.2806576945 -0.05601413176 0.7807577704 1.555110869e-38
0.2866673903 -0.03018704886 0.7898367308 1.500045725e-38
0.2936926321 -0.0423979848 0.7770857175 1.509265568e-38
0.3011785626 -0.05309297951 0.7759055549 1.527595953e-38
0.2720464554 -0.03592419806 0.7861633488 1.527559239e-38
0.2817387405 -0.04177318332 0.80405273 1.527525188e-38
0.284955024 -0.05782304645 0.8044096341 1.573731744e-38
0.315703474 -0.03740980887 0.7854031269 1.619359983e-38
0.2963363334 -0.02877305473 0.7862983393 1.518302542e-38
0.2881998439 -0.03675130474 0.7833917972 1.426322992e-38
0.2911930539 -0.0391333715 0.7959586196 1.3894446e-38
0.2938327096 -0.04696081381 0.8035062569 1.352855296e-38
0.2932039098 -0.03373275909 0.7939878543 1.371403163e-38
0.3221057237 -0.03918289802 0.777110658 1.389734529e-38
0.3080955181 -0.01959321805 0.7972263536 1.426433134e-38
0.3256446344 -0.03770446563 0.8105441228 1.463167893e-38
0.3340483833 -0.03122740184 0.8149993748 1.435617805e-38
0.3084197026 -0.03787429899 0.8072810419 1.417215533e-38
0.3136274413 -0.04296582036 0.8068657606 1.43543984e-38
0.3281255683 -0.04226904915 0.8088919203 1.462989228e-38
0.3225699511 -0.03569251984 0.8223902295 1.371152471e-38
0.3239042769 -0.03322586751 0.8142963777 1.288465211e-38
0.3283090285 -0.03784748328 0.8158978349 1.25169584e-38
0.3238391624 -0.05051780953 0.8245196506 1.214964304e-38
0.3130920358 -0.03946130309 0.812350687 1.178842613e-38
0.2549368135 -0.05957200437 0.7897437155 9.385885904e-39
0.2352773447 -0.02816502566 0.7730667036 9.290467287e-39
0.243346778 -0.02600520003 0.7847655128 8.281717364e-39
0.2439842536 -0.02634774542 0.7825653141 7.273317766e-39
0.2466597372 -0.0411583638 0.7832766635 7.639222019e-39
0.2316189641 -0.04564005866 0.7635455043 8.097340118e-39
0.2584229871 -0.0406572558 0.7873038346 8.741281604e-39
0.258091681 -0.02558825136 0.7874997179 9.385204873e-39
0.258546838 -0.02677617079 0.7663636024 9.845099818e-39
0.2676512487 -0.03906025166 0.7781592735 1.030534789e-38
0.2535640414 -0.04025423712 0.7926403952 1.067232554e-38
0.2670136966 -0.04247119531 0.7682189596 1.103966892e-38
0.2676806855 -0.03315138126 0.7783406434 1.094604117e-38
0.2675735068 -0.03778551022 0.7862610399 1.094461324e-38
0.2634047524 -0.05181226903 0.7721916806 1.094641531e-38
0.2753323357 -0.05111283187 0.7820674175 1.104040461e-38
0.2571887344 -0.05469689545 0.7735900508 1.140882559e-38
0.2679880757 -0.02666665421 0.7746827723 1.177725638e-38
0.2501381432 -0.03720615752 0.7727145305 1.278997058e-38
0.2521398635 -0.02542580646 0.79287429 1.389449785e-38
0.2557072992 -0.03978453787 0.7748392921 1.435689411e-38
0.2720659683 -0.05491237803 0.7656623304 1.482037358e-38
0.2907321977 -0.04344909773 0.7707260255 1.472387176e-38
0.2690394349 -0.04910135249 0.7736057239 1.47242375e-38
0.2946440125 -0.04908205185 0.7917964857 1.463241041e-38
0.2711650095 -0.04961226839 0.7874022194 1.463276634e-38
0.2798668182 -0.04542749751 0.7897370843 1.509194242e-38
0.2738577858 -0.05321250635 0.7761135191 1.55511157e-38
0.274326833 -0.05794073746 0.8002003768 1.527524627e-38
0.2758574509 -0.05646673041 0.7869678178 1.509157108e-38
0.296246551 -0.03995771688 0.7931699314 1.527487913e-38
0.3047777471 -0.04039437648 0.787919998 1.555002549e-38
0.2781481876 -0.0482273306 0.800291965 1.536671323e-38
0.2851452077 -0.02542732487 0.793844623 1.51834346e-38
0.2825315334 -0.02180891672 0.7937147081 1.536713922e-38
0.2774970838 -0.04390817296 0.7701223606 1.555078219e-38
0.3177889778 -0.03993129193 0.7724418069 1.490718963e-38
0.3052108838 -0.04596771199 0.7762156046 1.435580811e-38
0.3063837793 -0.03039499066 0.7989072721 1.398881505e-38
0.3113735225 -0.05949753926 0.7930853275 1.37136743e-38
0.3058766923 -0.04878369213 0.7957760716 1.38973523e-38
0.3033642721 -0.05951494494 0.8135011311 1.398846753e-38
0.3293433375 -0.03596666677 0.8017027885 1.417213712e-38
0.3228531141 -0.04150549014 0.800532511 1.435617525e-38
0.2932141874 -0.04888955618 0.8139299556 1.426399083e-38
0.3045566053 -0.05452357238 0.7950442091 1.417216935e-38
0.3284776872 -0.05599801934 0.8024717472 1.408034926e-38
0.3169299922 -0.0179054563 0.8120358348 1.408032824e-38
0.3202761395 -0.03969851991 0.806607267 1.352857818e-38
0.3049239887 -0.04379967834 0.7985497301 1.297649462e-38
0.342112478 -0.03901355329 0.8146013398 1.251768147e-38
0.3396063253 -0.03363475342 0.8084524064 1.215071504e-38
0.3397017843 -0.04143636128 0.8309702163 1.169442423e-38
0.247373568 -0.03043153341 0.8010744141 1.030639606e-38
0.2416035496 -0.02480052217 0.7685386668 8.558653177e-39
0.2318602307 -0.03336801791 0.7699774899 6.812703954e-39
0.2449368821 -0.04324356526 0.7738802137 7.362643537e-39
0.2468110299 -0.05798194629 0.7910980046 8.005141685e-39
0.2426123489 -0.02420773515 0.7743624724 8.372493479e-39
0.2444066006 -0.03287720934 0.7788484359 8.832387023e-39
0.2389756786 -0.03742168452 0.7711996954 9.2029576e-39
0.2620601213 -0.05313899234 0.7716969572 9.572444972e-39
0.2756578093 -0.04208147694 0.7736752045 1.003376924e-38
0.2692420889 -0.0508165299 0.7792851557 1.048864334e-38
0.2561412895 -0.0260869497 0.7733449901 1.048685248e-38
0.2466693156 -0.03727764822 0.7829529055 1.057833625e-38
0.2665497255 -0.03851040548 0.7833598535 1.057798592e-38
0.2687407717 -0.05434381629 0.7863241981 1.058050546e-38
0.2753660736 -0.03888062225 0.7827924946 1.076705472e-38
0.2475405473 -0.03460314842 0.7900389943 1.094893905e-38
0.2710095996 -0.0257778601 0.7854987277 1.241687907e-38
0.2716490773 -0.0591451081 0.7849181002 1.398417114e-38
0.2565101081 -0.01712222695 0.7828873102 1.426181882e-38
0.2650199953 -0.03485897369 0.7775157918 1.453804417e-38
0.2734434643 -0.03975190528 0.7901473774 1.426325515e-38
0.2792905145 -0.0541653276 0.78294032 1.408030863e-38
0.267930801 -0.04701267746 0.7667498645 1.417287e-38
0.2834191807 -0.03242676826 0.7735720014 1.426506282e-38
0.2821972581 -0.04099709345 0.7856136639 1.463276214e-38
0.2845342042 -0.04198567875 0.7873247861 1.500046846e-38
0.2931897459 -0.05594925558 0.799719322 1.509266829e-38
0.2838186854 -0.04888465291 0.7940324371 1.527560921e-38
0.2781639981 -0.05122171038 0.7828475487 1.555074435e-38
0.2946621845 -0.04146557371 0.793124641 1.582588931e-38
0.2947751141 -0.03211936318 0.7885904798 1.545854452e-38
0.2729693608 -0.0376647774 0.7968350997 1.518306045e-38
0.2772569847 -0.03164444399 0.7816103649 1.509052991e-38
0.3053627022 -0.05639381257 0.7745547708 1.49986748e-38
0.2795920702 -0.0461326188 0.7982787718 1.472315009e-38
0.3027616161 -0.01656334146 0.7755472601 1.444727646e-38
0.2839560847 -0.04676114157 0.7890399084 1.416422819e-38
0.2918799584 -0.02087808319 0.7736381589 1.398738853e-38
0.3316909062 -0.02772008621 0.7957909016 1.40810345e-38
0.3051693565 -0.02559089929 0.7889200596 1.417286299e-38
0.3115283751 -0.03830500709 0.8014873799 1.417321612e-38
0.306914301 -0.04695992616 0.8061384986 1.417322032e-38
0.3162779369 -0.0280977521 0.8087042713 1.417322593e-38
0.3354850312 -0.04115842327 0.8343995231 1.417287e-38
0.3119480482 -0.03734121787 0.836940926 1.389736491e-38
0.3155324718 -0.03010711514 0.8166592 1.362149408e-38
0.3166304151 -0.02798002218 0.798700891 1.334598199e-38
0.3295938896 -0.05100156682 0.8227925817 1.307012097e-38
0.3452388101 -0.04508893063 0.8227283381 1.261058896e-38
0.3325540444 -0.03864087146 0.8217315154 1.224289105e-38
0.3284725952 -0.03467729426 0.8318794674 1.150857001e-38
0.2644376915 -0.03797653491 0.782857506 9.296201401e-39
0.2439897557 -0.04512433676 0.782051214 7.912218781e-39
0.2439096769 -0.02922736099 0.7776825396 8.097690442e-39
0.2515234495 -0.02526523696 0.790046443 8.282797766e-39
0.2463719429 -0.04796112515 0.7742984315 8.373201135e-39
0.2455110486 -0.04348647399 0.7754882241 8.4636003e-39
0.2408918154 -0.03320713136 0.7864645832 8.557228057e-39
0.2392559871 -0.04436079808 0.7783095818 8.656948659e-39
0.2612041029 -0.04671158156 0.7924573424 9.205086172e-39
0.2572303894 -0.030443459 0.7666558672 9.845783652e-39
0.2627827844 -0.05215336705 0.7970225273 9.935110824e-39
0.2683578469 -0.04008976159 0.7915257309 1.00244422e-38
0.2386804094 -0.05008262958 0.7758879941 9.748585386e-39
0.2771376363 -0.04519348505 0.7910137433 9.473094312e-39
0.2757181723 -0.04715261072 0.7834290669 9.840810444e-39
0.2511880408 -0.03697904919 0.7686310802 1.030034806e-38
0.2743092614 -0.01887486842 0.7634706097 1.131197485e-38
0.2846822178 -0.04382785741 0.7740526152 1.223713451e-38
0.2763604585 -0.03432679581 0.7847907537 1.297467713e-38
0.254258803 -0.03940044305 0.7730728584 1.380407066e-38
0.270095636 -0.04109985516 0.7991207794 1.380371613e-38
0.2827734025 -0.02825827276 0.7844599177 1.380336441e-38
0.2889465733 -0.03222846225 0.7963216672 1.38973593e-38
0.2776083717 -0.02709506516 0.8056924209 1.408067156e-38
0.288116592 -0.03081390636 0.7793233396 1.435725425e-38
0.2832114656 -0.03833312717 0.7912517823 1.463349362e-38
0.2731243574 -0.03322412887 0.7874873974 1.481718002e-38
0.3112853381 -0.0446820713 0.7845616045 1.500118733e-38
0.296984759 -0.03335476495 0.7968247584 1.527631406e-38
0.2872787778 -0.0485341865 0.7748155616 1.564329311e-38
0.2853996419 -0.04497776699 0.7872999086 1.536706495e-38
0.3058659435 -0.02747948272 0.7845399895 1.509120954e-38
0.3001828557 -0.03804856294 0.7897229005 1.490647356e-38
0.2835675606 -0.03660831775 0.7939857413 1.47220739e-38
0.2898158237 -0.03414764132 0.7975904626 1.44465576e-38
0.3145182842 -0.04158292831 0.787586556 1.417140284e-38
0.3042547424 -0.02930867866 0.7767097882 1.380297765e-38
0.299192219 -0.02950697662 0.8068813206 1.352642019e-38
0.3030598646 -0.04138959721 0.7836953088 1.398956895e-38
0.2958163048 -0.04253955872 0.8084005393 1.444981141e-38
0.3015269082 -0.06016137301 0.8171546825 1.417393638e-38
0.3242850785 -0.02767492811 0.8053187919 1.398990806e-38
0.306957562 -0.0329252201 0.810260832 1.398955073e-38
0.3118724028 -0.04923208616 0.8101668863 1.389806275e-38
0.311291085 -0.02624913023 0.7986275754 1.371330576e-38
0.3244935692 -0.05135311765 0.7929269468 1.35300019e-38
0.3185416496 -0.01646751197 0.8155014076 1.325378776e-38
0.30346197 -0.04161809872 0.8240468909 1.297756521e-38
0.3362082748 -0.04899825073 0.805697644 1.279389702e-38
0.3227686989 -0.04065603935 0.8302222072 1.260985748e-38
0.3210465965 -0.04410256834 0.800552019 1.205955356e-38
0.2439051184 -0.02891317792 0.789389835 1.012594946e-38
0.2449362666 -0.03208334374 0.7999726978 9.019978849e-39
0.2563750923 -0.01588385411 0.7895893382 8.740886437e-39
0.2365845858 -0.0494326311 0.7881371999 8.556503585e-39
0.253422517 -0.04216737149 0.7881782381 8.368892142e-39
0.2372912188 -0.02563903655 0.7917721418 8.187729474e-39
0.2470879317 -0.04089795108 0.7766932565 7.911862852e-39
0.2522375734 -0.03296558707 0.7914490767 7.730701585e-39
0.2493446774 -0.05366977231 0.7934513602 8.468255413e-39
0.2542907666 -0.0291079268 0.7930575692 9.202223319e-39
0.2671073737 -0.05635853048 0.7763941064 9.286528237e-39
0.2565735428 -0.02927739554 0.7757188763 9.474143885e-39
0.27024111 -0.02808115707 0.7757065844 8.922770774e-39
0.2742916076 -0.02656106022 0.7805618839 8.371414479e-39
0.2629504726 -0.03654448046 0.7859038446 9.013918233e-39
0.2824466351 -0.0433754881 0.7865195507 9.748960934e-39
0.2655246976 -0.03661086193 0.7899118438 1.011522812e-38
0.2830488461 -0.04171799437 0.7781003952 1.058085718e-38
0.2661743759 -0.02027147086 0.7944851988 1.177614936e-38
0.2612842007 -0.03115002853 0.7794620757 1.306005965e-38
0.2873968778 -0.03032772383 0.7877230484 1.324230412e-38
0.272933446 -0.02817084269 0.7718568271 1.352390906e-38
0.2779463883 -0.04423173367 0.7804971668 1.37136799e-38
0.2672901463 -0.02382747346 0.7715105306 1.398847313e-38
0.2667463911 -0.04139762661 0.7695984922 1.408174636e-38
0.2720182562 -0.02899846166 0.7570535821 1.426578589e-38
0.2757211281 -0.03941077075 0.7894518909 1.445018276e-38
0.2950153008 -0.02534383227 0.7869837596 1.47253109e-38
0.2847894767 -0.02561532366 0.7870216685 1.509263326e-38
0.2968558101 -0.03038104551 0.7747094462 1.545961932e-38
0.2883265062 -0.02972858467 0.8090614482 1.51848331e-38
0.2887681373 -0.02451379777 0.7940806879 1.500080477e-38
0.3040648482 -0.03845131255 0.7762874375 1.472529969e-38
0.3036651217 -0.03642883884 0.8030506716 1.453875743e-38
0.2957771797 -0.03072488303 0.7928944718 1.426288941e-38
0.3071880085 -0.0289746021 0.8049807213 1.398701858e-38
0.3250862016 -0.04986293056 0.7814359158 1.352640057e-38
0.3083587537 -0.04288950536 0.8006359225 1.306867203e-38
0.3045913168 -0.03114173403 0.7915238172 1.389807677e-38
0.3121399215 -0.04237433525 0.8237444058 1.472530529e-38
0.2991683718 -0.02906737959 0.7963958966 1.42661208e-38
0.3106588509 -0.02558007689 0.8141368369 1.389806416e-38
0.3152231693 -0.01061825027 0.807546982 1.380587273e-38
0.3146827035 -0.05486753652 0.8101120422 1.37136785e-38
0.3344018392 -0.03869832019 0.8040665665 1.362148427e-38
0.334776839 -0.03957442077 0.8013092219 1.353001171e-38
0.3272766986 -0.04134539168 0.8114987755 1.325343323e-38
0.3263131265 -0.05118780695 0.8107846661 1.297756381e-38
0.3197568828 -0.03832040347 0.8073355713 1.2977561e-38
0.314181829 -0.01884875483 0.8240415446 1.297754559e-38
0.3537115998 -0.03995998301 0.8271494776 1.260875186e-38
0.3348207612 -0.02141162956 0.7972442819 1.233547344e-38
0.2241937244 -0.03763611772 0.7790664766 9.389469024e-39
0.2436307932 -0.02371005328 0.7852237141 9.110012275e-39
0.2668360334 -0.01800869982 0.7891810829 8.922403634e-39
0.2571642387 -0.04148504979 0.7988273489 8.646905553e-39
0.2560244454 -0.02463695019 0.7965599848 8.463231758e-39
0.255831513 -0.03209983008 0.7860284899 8.188441333e-39
0.2233555974 -0.03298652258 0.7826152309 7.914015246e-39
0.2481248641 -0.01679978898 0.7889227173 8.466108624e-39
0.2711524564 -0.03524451959 0.7878523314 8.926365105e-39
0.269039966 -0.05672118118 0.787831376 9.10860397e-39
0.2731269291 -0.04983366052 0.7909154233 9.199352059e-39
0.2745390003 -0.03765027995 0.7930364607 8.923118296e-39
0.2591733916 -0.02319591398 0.7935575789 8.647267088e-39
0.2673344041 -0.05359975534 0.7640699106 9.10609985e-39
0.2756647925 -0.027439156 0.7730225673 9.565275929e-39
0.2743283591 -0.04198537258 0.7837566968 9.841858615e-39
0.2817734315 -0.03327242767 0.7854431945 1.021063693e-38
0.2640813811 -0.03589033446 0.8010599285 1.085348821e-38
0.2547522297 -0.03599743377 0.7847464376 1.149634649e-38
0.2739755325 -0.03315545937 0.7852789625 1.168182235e-38
0.2886910009 -0.04190261852 0.7755201212 1.195875817e-38
0.2552405626 -0.02402017333 0.7951127026 1.233075947e-38
0.2749340671 -0.03573649078 0.7792868789 1.279460748e-38
0.2891957091 -0.05640144006 0.7791974073 1.32530745e-38
0.29851673 -0.02972674521 0.7807199001 1.371153732e-38
0.2940561231 -0.01332852326 0.7999730498 1.398704661e-38
0.3040223345 -0.04003955258 0.769844752 1.426253488e-38
0.2864434426 -0.04577042036 0.7958293537 1.426502779e-38
0.2851853181 -0.02982791583 0.7835506965 1.435759056e-38
0.3189036968 -0.03537940525 0.7878708272 1.445015473e-38
0.2888026705 -0.03176999075 0.7912725918 1.454305802e-38
0.2912486978 -0.03599484853 0.7800595262 1.426467466e-38
0.3032921061 -0.02716054311 0.7970540267 1.407993308e-38
0.3003890625 -0.02930145631 0.7964683047 1.398702839e-38
0.2978353657 -0.03156304001 0.7825672352 1.380299306e-38
0.311239526 -0.03486504719 0.797369035 1.362003533e-38
0.3005635463 -0.03475921468 0.7954218418 1.343744474e-38
0.3199011313 -0.04437187227 0.7984433486 1.389842009e-38
0.3099655724 -0.04711615072 0.7974513274 1.435831083e-38
0.3042535312 -0.0326404674 0.7842044783 1.408208267e-38
0.3094784363 -0.04981678157 0.8076894822 1.389805715e-38
0.3107491681 -0.02837274986 0.8080174065 1.389770262e-38
0.3100269498 -0.03479643754 0.8010116522 1.398918919e-38
0.3141133889 -0.0498413477 0.8219805208 1.380552941e-38
0.3129274798 -0.01812436979 0.8221581125 1.362185702e-38
0.3255945833 -0.03212294189 0.8210225598 1.307048391e-38
0.3108836469 -0.03100599845 0.8103673167 1.261129802e-38
0.32378578 -0.02758801653 0.821881788 1.288643737e-38
0.3360261094 -0.05556037242 0.801048418 1.325375553e-38
0.3388570244 -0.02479291453 0.8018294194 1.279455563e-38
0.3355883781 -0.0410110867 0.8216139102 1.242730052e-38
0.2439700967 -0.02281324538 0.7904895272 9.483817048e-39
0.2485064224 -0.03610152676 0.782487523 9.293695879e-39
0.2634520437 -0.02956304826 0.801070851 9.014610474e-39
0.2533180261 -0.04580016424 0.8029844623 8.831289807e-39
0.2604122121 -0.04056146954 0.8040836529 8.465734477e-39
0.262767707 -0.04599389104 0.7802281881 8.18987346e-39
0.2550216903 -0.04057300179 0.7792529237 8.465384153e-39
0.2427750334 -0.006391810813 0.7919704595 8.74233538e-39
0.2591096069 -0.02409079983 0.7929962873 8.83346322e-39
0.2697240528 -0.01350600865 0.8082565806 9.015686671e-39
0.2665025472 -0.03696250574 0.7915675995 9.016391525e-39
0.2730429975 -0.008972658783 0.788186295 9.014604869e-39
0.2810636862 -0.02560782477 0.7783713506 9.199000333e-39
0.2544827872 -0.03971638411 0.8012204376 9.381596529e-39
0.2608924228 -0.01649024577 0.7907033965 9.567421317e-39
0.2628457793 -0.03685295952 0.8003457219 9.842930608e-39
0.281255074 -0.03555283386 0.775963249 9.843292143e-39
0.2736375075 -0.03959471775 0.7716662247 9.93620804e-39
0.2628225376 -0.02866607298 0.7782027775 1.012131817e-38
0.2737800636 -0.03249467043 0.783151699 1.039647013e-38
0.2859417488 -0.04244375197 0.7799119653 1.094748871e-38
0.2838870922 -0.03132982005 0.7741983497 1.159464197e-38
0.2749785141 -0.05486069849 0.797069122 1.233398946e-38
0.2920534779 -0.02386773953 0.791172096 1.316051173e-38
0.2806098435 -0.02715168378 0.7794739149 1.343530496e-38
0.287200128 -0.04051710724 0.7880868713 1.380371193e-38
0.2910647985 -0.03139954714 0.8174286095 1.352927183e-38
0.2945226493 -0.02610918439 0.7962202081 1.325341221e-38
0.2934831641 -0.01971426693 0.7803317637 1.362039967e-38
0.2807486587 -0.03919280226 0.8138681622 1.407957294e-38
0.2966316501 -0.02494990323 0.7875697123 1.389589775e-38
0.2968649257 -0.03280712134 0.7913759579 1.371187223e-38
0.306284248 -0.02967104962 0.7939309239 1.37115177e-38
0.307156008 -0.02277696616 0.793328492 1.371115336e-38
0.2885757831 -0.03754697551 0.7933193281 1.371330155e-38
0.311938989 -0.02395972243 0.8151029723 1.380585591e-38
0.3256507051 -0.03319669544 0.8082036767 1.389876901e-38
0.3060674187 -0.03804205832 0.7823490368 1.408208267e-38
0.312337891 -0.02884557821 0.7944637857 1.398989124e-38
0.3295781865 -0.03789006518 0.8119845299 1.389805014e-38
0.3035690744 -0.02870292427 0.8218120709 1.408171553e-38
0.3165800233 -0.04618304152 0.8047280564 1.426505161e-38
0.3272128178 -0.0454885246 0.8203855576 1.399064514e-38
0.3083199746 -0.02014509197 0.8056800071 1.380553221e-38
0.3312623079 -0.05671537593 0.8102568751 1.297936448e-38
0.3053154334 -0.03268894049 0.8116428762 1.22435931e-38
0.3335179946 -0.02775863616 0.8115463453 1.288643176e-38
0.3423757352 -0.02145820984 0.7989593316 1.352854035e-38
0.3227112016 -0.02966997828 0.8110246238 1.306647199e-38
0.3329281144 -0.0167943817 0.8142593949 1.260917085e-38
0.3548134774 -0.01658842597 0.8077259132 1.252602761e-38
0.2368573336 -0.03352955357 0.7805269575 9.758970409e-39
0.2517447278 -0.04504590878 0.8048386014 9.573154029e-39
0.2631629082 -0.01161227736 0.7746697707 9.386261452e-39
0.2454902581 -0.03678995697 0.7797495565 9.199706587e-39
0.2653189653 -0.03952018743 0.7778707551 8.557562967e-39
0.2542910202 -0.02827162349 0.7892265481 8.006912926e-39
0.2682273075 -0.03814059229 0.8012140242 8.281707555e-39
0.253324203 -0.04132376875 0.7992756179 8.650499884e-39
0.2664018557 -0.02902929622 0.7837279003 8.83239403e-39
0.2679322234 -0.03107381686 0.7865273761 9.107526372e-39
0.2610341037 -0.04955641163 0.7779196973 9.107512359e-39
0.2722827743 -0.03359130721 0.7895054165 9.106794894e-39
0.2829616861 -0.03285482036 0.7907433503 9.106796295e-39
0.2684551975 -0.04582907748 0.7848894477 9.198275861e-39
0.2721935612 -0.02712347658 0.7987953445 9.290472893e-39
0.2836977802 -0.02255261667 0.7908046192 9.474865554e-39
0.2836700888 -0.02236596408 0.7836202798 9.475587222e-39
0.2618552961 -0.02510919032 0.7907295957 9.478095547e-39
0.2749576459 -0.02776537787 0.7808944489 9.661405004e-39
0.2750227324 -0.02242150849 0.7731429932 9.936926907e-39
0.2687041139 -0.02894981815 0.7829040195 1.039683727e-38
0.2957855491 -0.0397901486 0.7800501713 1.094461465e-38
0.2892594265 -0.0400344757 0.8171467494 1.196663627e-38
0.2931339379 -0.02529275052 0.7962115555 1.306902375e-38
0.2720576404 -0.05219492327 0.7853299503 1.315978726e-38
0.2940302168 -0.03869171444 0.7963717414 1.334166179e-38
0.2983720156 -0.02835396229 0.788130948 1.315834812e-38
0.2882497897 -0.03152684512 0.7888635119 1.297503446e-38
0.2959419425 -0.0431338031 0.800905339 1.315978165e-38
0.3053318717 -0.03256674037 0.7946066174 1.334452744e-38
0.2719811615 -0.04350070109 0.7799810246 1.334416871e-38
0.2842478242 -0.0260702089 0.8082445189 1.325233461e-38
0.2934375108 -0.03685787148 0.7972058608 1.334309531e-38
0.3010853204 -0.02672289306 0.8018331658 1.343384901e-38
0.2982835907 -0.03225490262 0.7944390159 1.362217932e-38
0.3035929974 -0.02390189895 0.7992934173 1.380836003e-38
0.2942394314 -0.03649178071 0.8018989358 1.380728384e-38
0.316091624 -0.03547018757 0.8048852808 1.389840888e-38
0.3240763236 -0.0348246255 0.7955906797 1.362255206e-38
0.313082465 -0.03551013969 0.813606842 1.343743073e-38
0.3309733989 -0.04997044663 0.8067011486 1.398842829e-38
0.31154673 -0.03148821008 0.8076017622 1.44476422e-38
0.3161689383 -0.04690209018 0.8135954069 1.408069679e-38
0.3325765564 -0.03337932592 0.8082390711 1.380589515e-38
0.3171044873 -0.04192556119 0.8197294657 1.325451223e-38
0.3375453082 -0.04178504161 0.8206479164 1.270276778e-38
0.314666341 -0.02811099275 0.8256788371 1.297790292e-38
0.3551963165 -0.03903775772 0.8179233695 1.316083683e-38
0.3470962131 -0.03357240716 0.8101648571 1.27909641e-38
0.3458660032 -0.03827668726 0.8259775605 1.242370059e-38
0.3416380186 -0.01984861491 0.803933101 1.215437102e-38
0.245538426 -0.02974223093 0.8057168162 9.572428157e-39
0.2469180962 -0.02181679489 0.7658817553 8.741236762e-39
0.2509620141 -0.02130825283 0.7998063694 7.914361367e-39
0.2577150226 -0.03239108816 0.8117689747 8.189872059e-39
0.269710015 -0.006327033742 0.7904348875 8.556506388e-39
0.2883522407 -0.02404054541 0.7701539909 8.831663953e-39
0.2735308035 -0.02677540436 0.7983097358 9.19899753e-39
0.2728853878 -0.03072510832 0.7754234647 9.199346453e-39
0.2636912062 -0.01577809484 0.7793804975 9.198987721e-39
0.2507204335 -0.03139471535 0.7840668734 9.106794894e-39
0.2702564969 -0.02303517841 0.8253374895 9.014959398e-39
0.2809617781 -0.04532516878 0.802708984 9.014960799e-39
0.288065574 -0.03661016273 0.7704975184 9.107516562e-39
0.2774275614 -0.02397312318 0.7766947376 9.016402735e-39
0.290494484 -0.01670051432 0.7878013454 9.018193594e-39
0.2993202239 -0.02832936024 0.7716751345 9.296209808e-39
0.2864524385 -0.007584560067 0.7609304689 9.571008641e-39
0.2864634413 -0.01380802975 0.7961117421 9.938001702e-39
0.2772818157 -0.04683851418 0.7752355964 1.030390736e-38
0.28266526 -0.02824346441 0.8006095057 1.159964881e-38
0.2893017227 -0.02575258297 0.7903397563 1.297682252e-38
0.2752000475 -0.02831133164 0.7726751787 1.297646519e-38
0.281934753 -0.01150673487 0.797578451 1.297538619e-38
0.2971598716 -0.04511816072 0.7887657541 1.288283183e-38
0.2786253931 -0.03752408275 0.7837637517 1.279135506e-38
0.2985535861 -0.0390303041 0.7814717879 1.26998797e-38
0.3094307306 -0.01994569818 0.7896144061 1.269951396e-38
0.2822874461 -0.02762600843 0.7779338843 1.279134245e-38
0.2986473905 -0.031998116 0.7880205131 1.288282622e-38
0.3081271273 -0.04530037211 0.8154326734 1.306614549e-38
0.309139557 -0.04219371695 0.7994101622 1.325161855e-38
0.3187735124 -0.03951072295 0.8093734119 1.353143964e-38
0.2959669742 -0.03286709152 0.7982921866 1.380729785e-38
0.3077087022 -0.04520450493 0.818947928 1.371581548e-38
0.3060145012 -0.03379274221 0.8006933148 1.371438476e-38
0.3181716216 -0.04726854461 0.8158570403 1.334704838e-38
0.3048163116 -0.04127883549 0.8161413905 1.307045728e-38
0.3225286835 -0.01575043933 0.7826350267 1.389660961e-38
0.3261035639 -0.04022204292 0.8173443715 1.472314869e-38
0.3136245711 -0.04176998775 0.8119157946 1.426435096e-38
0.3289187947 -0.01230780477 0.8060756756 1.380516788e-38
0.3309153289 -0.01969492616 0.8306504544 1.352965578e-38
0.3154624454 -0.04943734794 0.8099468125 1.325378356e-38
0.3249714554 -0.02764735991 0.8128619871 1.306974682e-38
0.341706584 -0.02174931612 0.8205256038 1.288499263e-38
0.3118651096 -0.04652273654 0.8217993142 1.251549264e-38
0.348308358 -0.02382104853 0.8185444996 1.224075127e-38
0.3613088829 -0.02877277568 0.8332442044 1.178305636e-38
0.2547395761 -0.01863299915 0.7798839774 9.854747758e-39
0.2589643173 -0.03125493821 0.789821874 9.29799226e-39
0.2426956672 -0.02736652671 0.7711909848 8.835587589e-39
0.2642454343 -0.01501434521 0.7880739942 8.834155462e-39
0.2594611178 -0.02674408483 0.7998102972 8.9242015e-39
0.2722946307 -0.02949470555 0.7999195146 8.647623018e-39
0.2639779373 -0.04248406509 0.7902920159 8.371036129e-39
0.2630249091 -0.03021831974 0.8042881667 8.647257279e-39
0.2537572897 -0.02782997732 0.8095852551 8.833439398e-39
0.2721377804 -0.02440698801 0.780323148 8.924198697e-39
0.2602541957 -0.03166875826 0.7997084521 8.923479831e-39
0.2810512326 -0.009421430907 0.773475223 8.924554627e-39
0.2625411424 -0.01723736175 0.8048289251 9.017469123e-39
0.2829591668 -0.02491360355 0.7754978742 8.92563643e-39
0.2697195744 -0.01843313482 0.796526504 8.925635028e-39
0.2759934924 -0.04017286366 0.7833275971 8.835593194e-39
0.2662014033 -0.03016680899 0.7762439876 8.745554163e-39
0.290837108 -0.03524022892 0.7867987961 9.388048107e-39
0.2687273178 -0.03799236759 0.778901528 1.003054345e-38
0.2729192705 -0.0359033321 0.7797036192 1.113544487e-38
0.2838127193 -0.02284576049 0.7633249166 1.214886252e-38
0.2842615963 -0.03046933185 0.8052679702 1.224105535e-38
0.2641091102 -0.02176674324 0.7892807327 1.242508227e-38
0.2889986601 -0.03377060766 0.7732954743 1.242185087e-38
0.2824202352 -0.02564287588 0.8120794665 1.251225424e-38
0.2967100532 -0.02540280372 0.7795781939 1.242042155e-38
0.3012952244 -0.03132683555 0.7942964586 1.242040754e-38
0.2932825125 -0.05346206655 0.8086538135 1.269805241e-38
0.3053996808 -0.02494847091 0.8045186032 1.288245348e-38
0.3109302895 -0.01730807304 0.7891917788 1.315904877e-38
0.308331693 -0.02949986632 0.8054610105 1.343673148e-38
0.3130013256 -0.02056017491 0.8082452168 1.362114376e-38
0.308081806 -0.0331080515 0.7986277415 1.389771383e-38
0.3098723698 -0.02592533759 0.7944977804 1.380586572e-38
0.3142538418 -0.02647251109 0.8087882844 1.380586853e-38
0.3217409205 -0.01656945067 0.7961615892 1.36218416e-38
0.3048966433 -0.03663623749 0.7953130486 1.343816921e-38
0.3160566418 -0.04236267419 0.8095777744 1.389734529e-38
0.3223562271 -0.0277672708 0.8045703517 1.44487198e-38
0.3323213559 -0.02333216287 0.8182926413 1.417285738e-38
0.321334092 -0.01666627015 0.838503891 1.38962761e-38
0.3180107257 -0.03098900433 0.8073225175 1.371296524e-38
0.3231495882 -0.03583203689 0.8176308818 1.343889228e-38
0.3246384981 -0.04817483533 0.8414672814 1.3161232e-38
0.305950726 -0.01114383904 0.8071294423 1.288501505e-38
0.340458071 -0.04332661062 0.8179032375 1.251732134e-38
0.3296090056 -0.03765698514 0.8228439697 1.214963744e-38
0.3193302946 -0.02991366817 0.8201130911 1.159900141e-38
0.260598154 -0.03812723551 0.7783824035 9.944077733e-39
0.2515568028 -0.04362137094 0.7878226679 9.75610055e-39
0.2628485767 -0.01850884171 0.7904923106 9.570275762e-39
0.2578938528 -0.0450554227 0.7777977298 9.38481391e-39
0.2585968505 -0.01702325161 0.7901184888 8.463950625e-39
0.2698058715 -0.01472569432 0.8005400924 7.636708089e-39
0.2627818635 -0.03142571363 0.7868681799 8.095521232e-39
0.2682278067 -0.03295002484 0.7833886361 8.55720984e-39
0.2655548735 -0.03011067316 0.7827548879 8.741240966e-39
0.2621122435 -0.0148530246 0.785623629 8.923838564e-39
0.2687798198 -0.009583272953 0.7921352865 8.927068557e-39
0.272244553 -0.02182147208 0.7831185325 8.925996563e-39
0.2850247093 -0.02808680008 0.8033904298 8.924925971e-39
0.2861532775 -0.02136506295 0.7837227269 8.924560232e-39
0.2816082344 -0.02019637296 0.7950164808 8.465375745e-39
0.2797442015 -0.03196637668 0.7914653517 8.008356264e-39
0.290419607 -0.03251102256 0.7863486142 8.929227958e-39
0.2851499355 -0.01634448611 0.7955762916 9.845797665e-39
0.2817462759 -0.006523440151 0.7828006562 1.057941525e-38
0.2785765567 -0.02664900677 0.8045017774 1.140809691e-38
0.2815039363 -0.02453150553 0.7988000609 1.159428884e-38
0.2980527351 -0.02404423762 0.7776772782 1.186942679e-38
0.2964740792 -0.01910695351 0.7824688757 1.205308937e-38
0.2947659854 -0.0383588953 0.7914093476 1.22360401e-38
0.3046235069 -0.03632073659 0.8040177683 1.223532123e-38
0.3059340819 -0.02935980679 0.7829337881 1.223674776e-38
0.299687103 -0.02298736633 0.7777793963 1.260515753e-38
0.2959033441 -0.01982527671 0.7895921827 1.297501905e-38
0.3161189527 -0.03623548127 0.8013278529 1.325232761e-38
0.3039694636 -0.03126546249 0.7950378752 1.362040107e-38
0.3072212564 -0.02446185193 0.7971860507 1.380480494e-38
0.2986959609 -0.02285735511 0.7941168001 1.398918499e-38
0.3083368969 -0.0120936685 0.817001422 1.389770122e-38
0.3044694487 -0.04408034163 0.8070393452 1.389734389e-38
0.3185255962 -0.01100412913 0.7947317073 1.380550979e-38
0.3226575449 -0.02179191893 0.7936033856 1.380586853e-38
0.3278582294 -0.01051102299 0.8056684081 1.399025698e-38
0.3306645863 -0.02980705791 0.8159054448 1.426540614e-38
0.30363191 -0.02081858345 0.8054558931 1.417321471e-38
0.3242713063 -0.03187004169 0.8242575374 1.408030302e-38
0.3154107756 -0.001381213258 0.819961698 1.389663343e-38
0.3287084169 -0.02990771702 0.8107830208 1.371403583e-38
0.3383223829 -0.03150730029 0.8100274397 1.334489878e-38
0.3369244401 -0.02060409382 0.8176376423 1.297684634e-38
0.3232745658 -0.02683570177 0.8221863861 1.25169584e-38
0.3408884825 -0.03310337075 0.8358798017 1.214962342e-38
0.3364610898 -0.02913377254 0.8207398561 1.141530379e-38
0.2758885914 -0.05164398505 0.8063310029 1.00323245e-38
0.256866427 -0.02866087382 0.7745986741 1.021420324e-38
0.27310518 -0.009876286234 0.8002653448 9.293698682e-39
0.2696737901 -0.03819596628 0.7897321482 8.465018414e-39
0.2726202363 -0.01005968075 0.8090354951 8.464651274e-39
0.2652204152 -0.03295449207 0.8100442497 8.556488171e-39
