# .PCD v0.7 - Point Cloud Data file format
VERSION 0.7
FIELDS x y z rgb
SIZE 4 4 4 4
TYPE F F F F
COUNT 1 1 1 1
WIDTH 845
HEIGHT 1
VIEWPOINT 0 0 0 1 0 0 0
POINTS 845
DATA ascii
0.2516138124 -0.03616906236 0.7329007454 1.306544904e-38
0.2532364916 -0.06327944603 0.7310631752 1.352606005e-38
0.2493666329 -0.0555998707 0.7337827896 1.398559907e-38
0.2647122196 -0.06463645102 0.7228657651 1.435258652e-38
0.2736999271 -0.06100637993 0.7113240028 1.471994672e-38
0.2806898364 -0.06229542071 0.7389473414 1.481395423e-38
0.2671814663 -0.07165657647 0.7190461324 1.490541979e-38
0.2740452968 -0.07349320275 0.7265766459 1.462918462e-38
0.2659474801 -0.03034117593 0.7402063395 1.42603993e-38
0.2638366043 -0.06100714819 0.7342894885 1.416891553e-38
0.2952781213 -0.0433291309 0.7380088399 1.416927146e-38
0.2728500532 -0.04921087893 0.7105070213 1.416927006e-38
0.2842797478 -0.07098331442 0.7213099465 1.426112097e-38
0.2999175179 -0.0678602505 0.7806850873 1.435333201e-38
0.285586034 -0.05468962452 0.7661793318 1.444587236e-38
0.281335168 -0.07666786645 0.7733536037 1.463024961e-38
0.2946743804 -0.05692567473 0.7451709351 1.481427233e-38
0.2967884924 -0.06049699154 0.7602068494 1.490574349e-38
0.2974529673 -0.05685189954 0.7611006502 1.490502602e-38
0.3016174427 -0.06712315353 0.7496153883 1.463059713e-38
0.2992151832 -0.05365764523 0.7549415844 1.435617385e-38
0.3238112862 -0.0811253044 0.7749916191 1.408139323e-38
0.3140496331 -0.05291026797 0.7784333861 1.380662242e-38
0.3027126064 -0.05110355403 0.7676678304 1.270533215e-38
0.1659362633 -0.04996609532 0.7356132646 1.086100477e-38
0.1837890828 -0.058069516 0.703646167 1.113399313e-38
0.1742778414 -0.0665858843 0.7435622042 1.058297314e-38
0.1990085288 -0.04896602294 0.7174240788 1.012272227e-38
0.1928163722 -0.06776046202 0.7289500068 9.386606171e-39
0.1966570512 -0.04666172031 0.7392772122 8.741971042e-39
0.1869961396 -0.05806292796 0.7324429206 9.565629056e-39
0.1879172844 -0.05813434995 0.735915066 1.048901328e-38
0.2115461443 -0.07608798164 0.7264843601 1.177974089e-38
0.1824484554 -0.05895819337 0.752036366 1.315656007e-38
0.2097624743 -0.05283433288 0.7275736301 1.361610048e-38
0.1824483771 -0.0505355292 0.7329922614 1.416998472e-38
0.2019050742 -0.07396317367 0.7327131536 1.426469008e-38
0.2011840613 -0.06363372908 0.744012848 1.435472771e-38
0.1846791494 -0.04935405016 0.7550221022 1.472278435e-38
0.1890224514 -0.0470975379 0.7336114045 1.518125278e-38
0.2176625647 -0.04886799426 0.7275615544 1.472172637e-38
0.2050192944 -0.05410510097 0.7527191075 1.426218596e-38
0.1914139319 -0.05285609434 0.7369004089 1.444585415e-38
0.2256026222 -0.06645824192 0.7664192173 1.462953074e-38
0.1907609426 -0.06069967061 0.7393902743 1.490612044e-38
0.1929799077 -0.0665833053 0.733549382 1.527309808e-38
0.2074887658 -0.05321076068 0.7354853892 1.518125698e-38
0.2125361122 -0.06227917398 0.733714025 1.508799356e-38
0.2266719049 -0.07100571728 0.7453414882 1.481177662e-38
0.2200307538 -0.06852489982 0.7268105889 1.462953775e-38
0.2139130434 -0.05152996882 0.7441264901 1.453769805e-38
0.2228337032 -0.06346770499 0.7365403968 1.444658562e-38
0.2443139487 -0.04887322947 0.7690628498 1.435583193e-38
0.2381420214 -0.07232816455 0.7780496008 1.435475293e-38
0.2389310834 -0.04754249265 0.7795944588 1.426219717e-38
0.2149885022 -0.06415576355 0.774336002 1.426002515e-38
0.2443178151 -0.07138347789 0.7701871982 1.398234805e-38
0.2447016558 -0.04242109763 0.7566248484 1.370684157e-38
0.2390078465 -0.05791569981 0.7610196713 1.333950098e-38
0.2387273864 -0.04308194385 0.7619971084 1.306436023e-38
0.2478061638 -0.05491157771 0.7574637861 1.297324921e-38
0.2373152831 -0.07141492014 0.7769028915 1.287961445e-38
0.2493687647 -0.04786197491 0.7709410489 1.278598108e-38
0.2488479269 -0.08899132587 0.7835754683 1.269342812e-38
0.2535125907 -0.06129074504 0.7610219099 1.223389191e-38
0.2604489212 -0.08309775897 0.776363539 1.186654292e-38
0.275726493 -0.06543706718 0.7654712084 1.131588307e-38
0.2664824592 -0.05735570165 0.7687685749 1.076594208e-38
0.2537198559 -0.06999908281 0.7702225985 1.104359536e-38
0.2870490934 -0.07914207774 0.7816945622 1.141059123e-38
0.2646030905 -0.05313752513 0.7726768575 1.150243933e-38
0.2494810766 -0.05099645423 0.7280321363 1.159428604e-38
0.2546387419 -0.05595218399 0.7255919575 1.15993181e-38
0.2686430587 -0.06916044907 0.7365397759 1.168720194e-38
0.2454861591 -0.04447877502 0.7242579114 1.168719633e-38
0.2441106139 -0.05338889705 0.7244643727 1.177723256e-38
0.2757579861 -0.07803942468 0.7413395215 1.17732823e-38
0.2561056118 -0.05314362114 0.7273176817 1.186690165e-38
0.2725040916 -0.04879160786 0.7421852808 1.20512803e-38
0.2559441943 -0.06578893639 0.7133237816 1.223639603e-38
0.2661604007 -0.05692666616 0.7126493172 1.269737838e-38
0.2631839456 -0.06531934637 0.7381216147 1.32487557e-38
0.2451329484 -0.04417477807 0.7367967585 1.370937371e-38
0.2702640971 -0.0495211585 0.7457850311 1.416962879e-38
0.2638287204 -0.05612967945 0.7225421219 1.435509625e-38
0.2569894115 -0.06148077602 0.7304536984 1.463061535e-38
0.2565212573 -0.04393551105 0.7240747819 1.490649318e-38
0.2444958239 -0.05070950252 0.7311789204 1.527310789e-38
0.277428122 -0.07474482826 0.7273299391 1.472136904e-38
0.2742470843 -0.05728374904 0.7201608067 1.416783513e-38
0.2521990254 -0.06944941145 0.7245984466 1.398451446e-38
0.2640246395 -0.06460538165 0.7403338732 1.380048614e-38
0.2792748513 -0.06938793049 0.7095519523 1.38919643e-38
0.297687553 -0.04546222082 0.7673113483 1.398488721e-38
0.2945493115 -0.05395574737 0.7693031096 1.407852898e-38
0.3008914942 -0.04763967518 0.7619672925 1.417035747e-38
0.2829389163 -0.07342924159 0.7579292527 1.444693455e-38
0.2812277877 -0.03962983439 0.7647715759 1.47220753e-38
0.2990204963 -0.05053283711 0.7657033913 1.462987546e-38
0.2974082884 -0.05041718913 0.7642774102 1.453804277e-38
0.3248463204 -0.05260425371 0.7712928753 1.426289782e-38
0.3040220406 -0.05736960091 0.7709377076 1.398738853e-38
0.3128726885 -0.06230280139 0.7754603805 1.352820824e-38
0.3072964097 -0.06754220155 0.7509690049 1.316303967e-38
0.3233889833 -0.05054801242 0.759712901 1.242945432e-38
0.172081323 -0.06494042306 0.7334382897 1.030710232e-38
0.1868691294 -0.07543238061 0.7326936894 9.84720597e-39
0.1683000168 -0.0874386847 0.7424608745 9.384456579e-39
0.1671275375 -0.05520875665 0.7419154319 9.750737781e-39
0.1876594247 -0.06050648117 0.7404406638 1.011450365e-38
0.214627037 -0.06677616163 0.7321089852 1.094785024e-38
0.2069587134 -0.05173070043 0.7505159389 1.177902903e-38
0.1886240261 -0.08109218644 0.7371704347 1.242043837e-38
0.2141463036 -0.05498373267 0.7470143458 1.306185611e-38
0.1857967173 -0.05282749128 0.7047519444 1.343207356e-38
0.1998853461 -0.05026373994 0.7334890579 1.389410969e-38
0.1949319406 -0.0686555848 0.7260410678 1.389625088e-38
0.2092834572 -0.06083753587 0.7212319122 1.389877041e-38
0.1888161849 -0.06028272097 0.7464138461 1.380299727e-38
0.2228984853 -0.0669675727 0.7367773283 1.361681795e-38
0.2020750919 -0.04864985001 0.7226898212 1.389304611e-38
0.1893996269 -0.05001986564 0.736841191 1.426146429e-38
0.2167533155 -0.03344007223 0.7393777787 1.453804697e-38
0.2143742293 -0.05487209912 0.7482497079 1.481534853e-38
0.2122550725 -0.04113080507 0.7645507817 1.47220795e-38
0.2141059104 -0.06963068307 0.7449295373 1.462738816e-38
0.2264683696 -0.05359836347 0.7431443604 1.444516611e-38
0.2254550034 -0.05705814774 0.7357470289 1.43543984e-38
0.2060934199 -0.07268579174 0.7527047534 1.435438999e-38
0.2381578078 -0.0510256352 0.7645971599 1.435653959e-38
0.2220234261 -0.05038863642 0.7478540912 1.426434256e-38
0.2336988591 -0.06420863728 0.762275517 1.417178959e-38
0.2288547008 -0.061621785 0.7657037941 1.41707148e-38
0.2291866187 -0.04873290689 0.7549033115 1.416853438e-38
0.2189270198 -0.04942181372 0.7599849602 1.398376056e-38
0.2363543498 -0.06476588574 0.7619176628 1.379938472e-38
0.2436965329 -0.04924852799 0.7636856537 1.343133788e-38
0.23709535 -0.06809337114 0.7715940966 1.306364137e-38
0.2320681234 -0.06369210066 0.759018621 1.287997598e-38
0.2553089257 -0.05662705583 0.7530943068 1.278813348e-38
0.2446197984 -0.06874520661 0.7605513115 1.251154519e-38
0.2474473923 -0.05545086033 0.7807650412 1.232715673e-38
0.2447460886 -0.05874857398 0.76593925 1.205165164e-38
0.2475251096 -0.04754423226 0.7718426994 1.168466138e-38
0.2583291654 -0.06707867382 0.7908778776 1.131659633e-38
0.2516463524 -0.06196103532 0.794252202 1.094745087e-38
0.2368611788 -0.04486375409 0.7689450862 1.113469938e-38
0.2360060993 -0.04306132597 0.7297532413 1.132018225e-38
0.2408452893 -0.05808636145 0.7406994925 1.132020187e-38
0.2521094241 -0.06625758365 0.7376311082 1.141241432e-38
0.2387706927 -0.06499939499 0.7170726915 1.15039093e-38
0.2422756289 -0.05156918674 0.7174986613 1.159537345e-38
0.2583449202 -0.06018887846 0.7257089776 1.177795563e-38
0.2581720105 -0.05430322519 0.733142279 1.186870372e-38
0.2377899173 -0.05897822134 0.7415066368 1.196052941e-38
0.2567877763 -0.0594259712 0.7343607529 1.214454372e-38
0.2392077336 -0.04714470423 0.7245765219 1.232927689e-38
0.2382782168 -0.05735689081 0.7424378656 1.25140381e-38
0.2546222924 -0.03827269873 0.7370034112 1.297287226e-38
0.2656885651 -0.0640308665 0.7351739587 1.334022686e-38
0.2667597344 -0.04413529004 0.720285533 1.370901778e-38
0.2581705959 -0.05025713581 0.7211941397 1.407815343e-38
0.2552712729 -0.04279444444 0.7145318835 1.426290062e-38
0.2579637707 -0.06433405076 0.7209162335 1.453841411e-38
0.2658701366 -0.0680726867 0.7269169563 1.453877985e-38
0.2851525447 -0.05129768764 0.7146899704 1.46324006e-38
0.2696348205 -0.05630389184 0.7228512933 1.407599963e-38
0.2615407014 -0.0528182604 0.7223803527 1.361609348e-38
0.2692694882 -0.07258502782 0.7133198003 1.352353071e-38
0.2648635074 -0.07054498076 0.7234597763 1.343098195e-38
0.2769496724 -0.07072734879 0.7289870271 1.352389925e-38
0.3017192788 -0.07159135251 0.7803068435 1.370865345e-38
0.283793976 -0.06321545437 0.7486850554 1.371045552e-38
0.2738622543 -0.06418318165 0.7555813366 1.371153031e-38
0.2914047554 -0.06525620419 0.7811584079 1.407851356e-38
0.3038770364 -0.04859646988 0.7708546046 1.444584994e-38
0.2733903125 -0.06803780995 0.7593242235 1.435400884e-38
0.2916993879 -0.0493170228 0.7621570116 1.435508924e-38
0.2936484447 -0.05684872201 0.7823714634 1.407887089e-38
0.3102011059 -0.06364096533 0.7873746292 1.380263293e-38
0.2954280959 -0.06447576713 0.7669002794 1.362002552e-38
0.3216370033 -0.05866862639 0.7707494224 1.334633652e-38
0.3051411597 -0.07417326119 0.7502903553 1.224397705e-38
0.2905472124 -0.06349158538 0.766078899 1.11416302e-38
0.1705875239 -0.05215651137 0.7026864919 1.030817851e-38
0.199357577 -0.07166895527 0.7447927805 1.01220048e-38
0.1992039741 -0.05085760572 0.731736417 9.936191225e-39
0.1832509172 -0.04937252947 0.7359524332 9.842206137e-39
0.1961120937 -0.04530563295 0.7215803507 1.011592317e-38
0.2062578924 -0.03852142927 0.7176518438 1.039896584e-38
0.1875080345 -0.05537895931 0.7474478395 1.113293655e-38
0.2097142819 -0.05423362297 0.7229896683 1.195910289e-38
0.1907258769 -0.05152918261 0.7381563809 1.269343373e-38
0.1978606225 -0.06476982669 0.7279543395 1.342990996e-38
0.2048314685 -0.04251939424 0.727725068 1.306472037e-38
0.2054320054 -0.03108291739 0.728171323 1.269881752e-38
0.1979686502 -0.03820048665 0.7319072908 1.288428778e-38
0.2140507756 -0.06143798936 0.7470012012 1.306437144e-38
0.2161160238 -0.05866327469 0.7402507112 1.34302799e-38
0.2241486498 -0.0624349325 0.7341608227 1.389160978e-38
0.2164721761 -0.05426431406 0.7472019889 1.407815063e-38
0.2218348045 -0.05611554551 0.7381285225 1.435401585e-38
0.2202333863 -0.06071078488 0.7400471287 1.426289922e-38
0.2141797574 -0.0568276083 0.7380986568 1.426290903e-38
0.2197485535 -0.06691350276 0.7468036191 1.417144207e-38
0.2285090634 -0.06762053659 0.7547053448 1.407924224e-38
0.2373648942 -0.05456247554 0.745868248 1.417143086e-38
0.2309980747 -0.05446330975 0.7539344461 1.435582072e-38
0.2192762472 -0.06303298887 0.7718498579 1.417286719e-38
0.2351637037 -0.03827959502 0.7646131359 1.407924644e-38
0.2426459547 -0.05560958971 0.7582198552 1.407925485e-38
0.2231173741 -0.06509682039 0.7625193101 1.416891273e-38
0.2402156136 -0.0646814701 0.7665308697 1.398450045e-38
0.2298249287 -0.05800481074 0.758547488 1.389159296e-38
0.2339168442 -0.05895262496 0.7527718936 1.352318038e-38
0.2474427969 -0.04560882451 0.749790841 1.315727333e-38
0.2442770015 -0.04263437959 0.770113773 1.288320177e-38
0.2397933539 -0.05005104281 0.7766100474 1.269593925e-38
0.2425001468 -0.06422629489 0.778588348 1.232931193e-38
0.2516652903 -0.05586506454 0.7771898299 1.205379983e-38
0.2374346277 -0.04015484679 0.7485776515 1.177828914e-38
0.2610205586 -0.07878252677 0.7913786333 1.159246295e-38
0.2566951724 -0.06748863669 0.7657743078 1.141022549e-38
0.257178488 -0.06021820875 0.7647357331 1.122618876e-38
0.2457259233 -0.05944569193 0.7521187544 1.122618315e-38
0.2451430822 -0.02903178057 0.7385218217 1.122835096e-38
0.2312569791 -0.0519356704 0.7340273182 1.122765031e-38
0.2631858287 -0.03416123511 0.7201373929 1.131877815e-38
0.2532553986 -0.05197559216 0.7527620017 1.141026472e-38
0.2339869078 -0.06548907947 0.7458347343 1.159500491e-38
0.2518779221 -0.05099318575 0.71835301 1.177687523e-38
0.2565743952 -0.05312441239 0.7450964951 1.205273204e-38
0.2518194844 -0.05157150349 0.7293189472 1.223675336e-38
0.2743115879 -0.0549417501 0.7312909376 1.242077328e-38
0.2598293118 -0.03463539928 0.7340526741 1.260479459e-38
0.2532143289 -0.06384749256 0.7186523218 1.288031089e-38
0.2612512845 -0.05921311208 0.7346538878 1.315582719e-38
0.2682592647 -0.05966834646 0.7291501811 1.352353912e-38
0.2656221797 -0.05796697126 0.7454919105 1.380085048e-38
0.2435067048 -0.05782750445 0.7150197125 1.407814642e-38
0.2582790009 -0.03561551321 0.725367256 1.426288941e-38
0.2704651984 -0.05286313505 0.7289725054 1.44465632e-38
0.2699147643 -0.04335874366 0.7344898389 1.417141825e-38
0.2749283042 -0.06528548065 0.720850326 1.398451446e-38
0.2807745653 -0.0485349945 0.7185492831 1.352246432e-38
0.262131293 -0.03869784288 0.7415844014 1.306256377e-38
0.2659769611 -0.05810676986 0.7391664347 1.30618407e-38
0.2607836949 -0.04981854336 0.7195296383 1.306220223e-38
0.2817486688 -0.05864108558 0.752591028 1.324659489e-38
0.3131668906 -0.06650333088 0.7616079434 1.352390345e-38
0.2800022032 -0.04542153984 0.7602614482 1.343423016e-38
0.2921477665 -0.05700149768 0.7366856126 1.33427534e-38
0.3035745835 -0.06965228694 0.7556264915 1.380264834e-38
0.2759866396 -0.06615222111 0.756745494 1.426182162e-38
0.2935109762 -0.06437687602 0.7626030035 1.417033925e-38
0.2877665973 -0.07086893468 0.7740525446 1.417034205e-38
0.3006733238 -0.043701404 0.7763157542 1.38951971e-38
0.318282001 -0.04420377578 0.7633450789 1.371116317e-38
0.2964814571 -0.07272670064 0.78293775 1.362004234e-38
0.2995531413 -0.05912696537 0.7623418671 1.362256608e-38
0.3253491127 -0.05201504045 0.7827063491 1.205707046e-38
0.3115497254 -0.05187403168 0.7736760827 1.058989976e-38
0.1979124496 -0.06917458528 0.7269216211 1.002980217e-38
0.2010730801 -0.03435786069 0.7257902424 1.030495973e-38
0.2011127426 -0.05911461464 0.7258775769 1.067159546e-38
0.1936572967 -0.04849378252 0.7436926096 1.094639009e-38
0.1913862962 -0.06128224906 0.7221910764 1.140665077e-38
0.2074397567 -0.0687739896 0.7364506268 1.177687243e-38
0.198478237 -0.06268377138 0.7211921324 1.205167126e-38
0.2081492201 -0.05241034309 0.7393538663 1.232682042e-38
0.2172631727 -0.06451992218 0.7358907782 1.241937478e-38
0.2299987664 -0.04457493126 0.7464304064 1.251192494e-38
0.206763012 -0.04664272924 0.7275483762 1.297074229e-38
0.190276053 -0.04930558226 0.7433069335 1.352175526e-38
0.2224995158 -0.05426566372 0.7476802556 1.370686118e-38
0.2105965628 -0.07040900478 0.7522144305 1.389196711e-38
0.2013632305 -0.04412144692 0.7397163603 1.3802284e-38
0.2191451239 -0.06600091843 0.7332409889 1.362005355e-38
0.228901025 -0.06851606188 0.7398426642 1.362005915e-38
0.2161990011 -0.04573071421 0.7511555149 1.361969762e-38
0.2152397381 -0.06913524501 0.7716264643 1.39870382e-38
0.212968842 -0.04615753054 0.7627591958 1.444621989e-38
0.247335335 -0.05374029892 0.7472132152 1.40788821e-38
0.2196333297 -0.03696900158 0.7611400194 1.380339103e-38
0.2330876327 -0.05710808901 0.7622092583 1.380340644e-38
0.2421469359 -0.05949062426 0.7535527602 1.389378459e-38
0.2323520869 -0.06513970354 0.7454230996 1.380192808e-38
0.2394904875 -0.03904733554 0.7499720582 1.3802284e-38
0.2331408417 -0.03444362564 0.7657339813 1.352641738e-38
0.2428007767 -0.05627631746 0.7845265748 1.315906979e-38
0.2484198955 -0.06018707883 0.7662214735 1.297575193e-38
0.247739621 -0.05641196024 0.7586129677 1.287961164e-38
0.2645134233 -0.05528171117 0.774265134 1.232859867e-38
0.2514520813 -0.07059331135 0.7553194408 1.177757448e-38
0.2558350446 -0.0639915049 0.7735910325 1.150133931e-38
0.2531922506 -0.03529562803 0.7727960935 1.122511676e-38
0.2651932469 -0.05924597762 0.7751840349 1.113543646e-38
0.2331108864 -0.07062033012 0.7394616089 1.104575056e-38
0.2463395948 -0.0456699425 0.7404532583 1.104503169e-38
0.2355339673 -0.05703900019 0.7441185348 1.104468557e-38
0.2260148875 -0.05203781882 0.750052654 1.113545748e-38
0.2619289818 -0.06108388277 0.7473506876 1.122585945e-38
0.2543936854 -0.03544778741 0.7368649725 1.141060804e-38
0.2418188272 -0.05447953098 0.7284308363 1.168683059e-38
0.2487410361 -0.06613623224 0.7380508775 1.196197835e-38
0.2457435173 -0.05540092135 0.7171553262 1.22371191e-38
0.2596041757 -0.05024427044 0.7333647863 1.242114322e-38
0.2513805872 -0.05269917579 0.728097976 1.269736297e-38
0.2495880388 -0.03271437406 0.723384178 1.287959483e-38
0.248356014 -0.04931182335 0.7238333554 1.306219383e-38
0.2464808028 -0.04852718763 0.7425492804 1.324766409e-38
0.2620313 -0.04129937437 0.7386575733 1.342990996e-38
0.2674697243 -0.04208783988 0.7298995713 1.352426639e-38
0.2592388104 -0.04018939054 0.721185182 1.361932067e-38
0.2674810551 -0.0823009543 0.7231577523 1.334308831e-38
0.2718854618 -0.04567271594 0.7290362679 1.315905718e-38
0.252752733 -0.04812225195 0.7100685525 1.287960323e-38
0.2827427057 -0.05771794599 0.7049214365 1.260015209e-38
0.2633165936 -0.03933715179 0.7287860641 1.259943603e-38
0.2609879799 -0.05459036791 0.7370391313 1.269091139e-38
0.2622376025 -0.0524346506 0.7211553626 1.287529845e-38
0.3019180292 -0.03703515622 0.7759341054 1.296785421e-38
0.2657157761 -0.06146741816 0.7846850139 1.352173985e-38
0.2866240129 -0.06924123398 0.777075593 1.407419756e-38
0.2851990835 -0.06122511643 0.7700524042 1.380013581e-38
0.2741388996 -0.06003879995 0.7692455262 1.361825989e-38
0.2879790356 -0.05673936237 0.7692629559 1.380193228e-38
0.2928158292 -0.08528470908 0.7497395565 1.407599963e-38
0.3010293944 -0.07717189451 0.7643421708 1.39859536e-38
0.3211452648 -0.06316205928 0.7459040562 1.389447683e-38
0.2965016355 -0.06950380685 0.7639642888 1.361861301e-38
0.3044856882 -0.06576804998 0.7607917873 1.343494763e-38
0.3077099225 -0.06788395774 0.7829320644 1.343710563e-38
0.3191117813 -0.04544341419 0.7632554469 1.343961815e-38
0.317978006 -0.03109358444 0.7724389515 1.178084091e-38
0.3003639101 -0.069568731 0.7695150444 1.003817072e-38
0.1948415116 -0.05374361008 0.7296578987 1.00333951e-38
0.1923151214 -0.0567075459 0.7431053653 1.030675479e-38
0.1697286666 -0.05850634472 0.7286301007 1.012022095e-38
0.1978891444 -0.04470332571 0.7380656356 1.002839246e-38
0.2031669725 -0.04803692304 0.7450227165 1.012023496e-38
0.1913854114 -0.05108170244 0.7533652783 1.021243199e-38
0.2154662099 -0.06147893066 0.7291044153 1.113150722e-38
0.2071370598 -0.06228678534 0.7290033719 1.205022372e-38
0.2095618634 -0.05943819555 0.7259579934 1.205094399e-38
0.2047535307 -0.067417503 0.755230388 1.205129992e-38
0.189456248 -0.0675566055 0.7459462502 1.260302756e-38
0.2241014706 -0.05589055813 0.7452570529 1.315404053e-38
0.2034800971 -0.04508535912 0.7435377903 1.334022125e-38
0.1956995126 -0.05762119799 0.7465700307 1.35246055e-38
0.2333546953 -0.05119414484 0.7495552087 1.325017101e-38
0.2245380516 -0.04370829202 0.7427886393 1.306794195e-38
0.2005099578 -0.05225537231 0.7433088092 1.316086065e-38
0.2258120005 -0.04088356658 0.7317975692 1.325233742e-38
0.2251257561 -0.06167358748 0.7611081343 1.389482716e-38
0.2148751123 -0.06595657549 0.7449396125 1.453803436e-38
0.2141762992 -0.07414631992 0.7493119787 1.407921561e-38
0.2126601432 -0.05665581917 0.7516613294 1.361969201e-38
0.2420210639 -0.05335607178 0.7500702284 1.361970603e-38
0.2457989575 -0.05346042398 0.772487008 1.362005495e-38
0.2485050681 -0.04271925471 0.752040129 1.371224077e-38
0.2419192383 -0.05757729848 0.7827434941 1.380372314e-38
0.2252348397 -0.05314161849 0.774711308 1.352786492e-38
0.2352111999 -0.05878509368 0.7658851581 1.325235003e-38
0.2418877483 -0.05716369218 0.7713042521 1.316050612e-38
0.2288609732 -0.06315780134 0.7821851659 1.306687136e-38
0.2449129569 -0.05277850766 0.7683698277 1.223855123e-38
0.2339269538 -0.0337108005 0.7748456689 1.150242532e-38
0.2490815366 -0.06081736759 0.7543894337 1.12254755e-38
0.2554880669 -0.04562591637 0.7795488096 1.094961168e-38
0.2517354053 -0.0368671569 0.7452480551 1.086064884e-38
0.2391432573 -0.05353919498 0.7412016261 1.08613579e-38
0.2561515388 -0.05245381678 0.7414005266 1.086206836e-38
0.2354242647 -0.05950896729 0.7403837236 1.095248294e-38
0.2515453435 -0.04659493071 0.7367318476 1.104325485e-38
0.2359836255 -0.04555886212 0.7141923054 1.122693144e-38
0.2468035681 -0.04731050227 0.7337022728 1.150280087e-38
0.2598305656 -0.05487801641 0.7432886153 1.177866609e-38
0.246929666 -0.04655295964 0.7228888525 1.214636681e-38
0.2752002649 -0.06500629632 0.7339284192 1.251370319e-38
0.2543719329 -0.05737213321 0.719500063 1.269772871e-38
0.2490033791 -0.06948300453 0.722450803 1.297323099e-38
0.2592310551 -0.05774201666 0.7336404223 1.306290849e-38
0.2556257576 -0.05796200573 0.7326954117 1.324694102e-38
0.2630034431 -0.04206038554 0.7221637487 1.333949678e-38
0.2576817907 -0.06042348517 0.717325774 1.343133508e-38
0.2724947208 -0.05974428497 0.7257092726 1.324766689e-38
0.2500216388 -0.0369723021 0.7291883843 1.315654605e-38
0.2689679188 -0.04502262756 0.7256764301 1.251441224e-38
0.239159743 -0.03863281636 0.7154050091 1.196124267e-38
0.2588026851 -0.04660702342 0.7203396746 1.158815816e-38
0.2785872734 -0.04913250702 0.7337899648 1.122225671e-38
0.272270689 -0.06726938784 0.7090714894 1.177291656e-38
0.2611766211 -0.05461695105 0.734000014 1.241576504e-38
0.2867021591 -0.03947597707 0.7573111207 1.269198759e-38
0.2850169735 -0.07352811817 0.7676943328 1.296821154e-38
0.2971199828 -0.04992016347 0.7667147266 1.37968834e-38
0.308769376 -0.05171224354 0.7652765172 1.462556507e-38
0.2866044188 -0.05924412273 0.7803549901 1.425787416e-38
0.3000086696 -0.05482926471 0.750458967 1.389196571e-38
0.2988606299 -0.03979400714 0.778326789 1.389339923e-38
0.2823611715 -0.05547248897 0.7631153968 1.389232164e-38
0.3006728138 -0.0450234101 0.7580435549 1.371008417e-38
0.3096232685 -0.0540863123 0.7798366258 1.361861582e-38
0.3030552182 -0.06233813977 0.7650659799 1.34345931e-38
0.3022491472 -0.0412322713 0.7630052089 1.325164237e-38
0.3156022656 -0.04957958706 0.7875861926 1.32541563e-38
0.3148618108 -0.059763473 0.7669056232 1.334957632e-38
0.3022511543 -0.05464674982 0.7838995417 1.141313598e-38
0.2065943093 -0.05892252354 0.7316116224 1.040146015e-38
0.1831356799 -0.03087432019 0.743248239 1.067589324e-38
0.2011367011 -0.0495854522 0.7330319323 1.039931336e-38
0.223227184 -0.07821561536 0.7341389005 1.011699796e-38
0.1927791476 -0.03718648262 0.7447276284 9.660340017e-39
0.2043725854 -0.04736265631 0.7426691243 9.29191623e-39
0.2165775424 -0.04356374524 0.7418263198 9.935477964e-39
0.1992570169 -0.04019369499 0.7576822987 1.067124233e-38
0.205857434 -0.03108788206 0.714814672 1.0855635e-38
0.2026035232 -0.04533845645 0.7512361963 1.113185615e-38
0.2213624553 -0.05090274811 0.7304373642 1.140879476e-38
0.2028913125 -0.05181304148 0.7495747741 1.168429985e-38
0.2100898455 -0.06236106782 0.7446824166 1.186796944e-38
0.2096543652 -0.05020286967 0.74768533 1.205199076e-38
0.2070157432 -0.04655203519 0.7305834744 1.214632897e-38
0.223848324 -0.04927607807 0.7368238041 1.2240684e-38
0.2224809964 -0.04878026909 0.7489906577 1.233252791e-38
0.2221182747 -0.06161367245 0.7485350735 1.25162003e-38
0.2388486607 -0.03807770355 0.7615258157 1.278991593e-38
0.2241683488 -0.05240198504 0.7540283991 1.306398188e-38
0.2311933066 -0.04458095057 0.768218056 1.306613007e-38
0.2346171463 -0.03894353201 0.740241155 1.316012917e-38
0.2288470472 -0.05667117369 0.7504426802 1.325305208e-38
0.2353471143 -0.05299666174 0.7665459205 1.334596657e-38
0.2192761662 -0.06260752352 0.7697249395 1.334597078e-38
0.236518352 -0.05123571755 0.7592531856 1.343782029e-38
0.2337289315 -0.07931308049 0.7739654702 1.306690639e-38
0.2376584477 -0.04835419537 0.7706404849 1.278995376e-38
0.2478041849 -0.05425626865 0.7778299427 1.214996534e-38
0.229356457 -0.0394544409 0.7733137877 1.150710426e-38
0.2392146912 -0.05513494686 0.7716337111 1.103966332e-38
0.2554000707 -0.04922226213 0.766843263 1.057797051e-38
0.2336776488 -0.06737756216 0.7302394507 1.057868377e-38
0.222163524 -0.05952079052 0.7375440799 1.057976137e-38
0.2414656227 -0.05737440283 0.7257663072 1.058155643e-38
0.2470405221 -0.05804966098 0.7248886459 1.067517298e-38
0.2414142484 -0.05881085596 0.7427434426 1.07662784e-38
0.2441525099 -0.05095575033 0.7411337781 1.094960467e-38
0.2315691034 -0.03897180604 0.7337044813 1.113508334e-38
0.258708672 -0.05619531944 0.7534886793 1.131983893e-38
0.2501124583 -0.0511614007 0.7168169752 1.15949951e-38
0.2395188019 -0.04384842067 0.7402928175 1.196305455e-38
0.2369719688 -0.04453789415 0.7156228377 1.22382023e-38
0.2566469695 -0.05944550068 0.7325538751 1.251514092e-38
0.2529503006 -0.04812367121 0.7236100129 1.279028587e-38
0.2671981879 -0.0479351701 0.719298266 1.306578676e-38
0.2588575357 -0.04994720689 0.7319798392 1.306542242e-38
0.2559570879 -0.06248360039 0.7499724333 1.306542242e-38
0.2419827496 -0.06764349417 0.7371419535 1.306470635e-38
0.2426924763 -0.04696280326 0.725336316 1.306290709e-38
0.2670099573 -0.04150831472 0.7299008436 1.287994936e-38
0.2631649208 -0.04839649417 0.7231551434 1.269735736e-38
0.2832547763 -0.05030733932 0.735216586 1.223567296e-38
0.2582316942 -0.06417750115 0.7114170625 1.177397875e-38
0.2653738229 -0.04739508211 0.7286217266 1.103677805e-38
0.2624050338 -0.05036905023 0.7274827561 1.039537431e-38
0.2725186023 -0.05518339464 0.7254131212 1.113006949e-38
0.2904268147 -0.0707827631 0.7643828293 1.186511219e-38
0.2800864057 -0.05542684155 0.7607477739 1.223245418e-38
0.2851225043 -0.06042935244 0.7665316545 1.250939279e-38
0.2988735423 -0.04688424878 0.7620150116 1.315367339e-38
0.2783396879 -0.05073821376 0.7900365936 1.370792477e-38
0.2929824816 -0.03690068125 0.756890598 1.361358796e-38
0.3189463278 -0.05524396644 0.7732280371 1.352067066e-38
0.2986845472 -0.05110989855 0.7684048145 1.36175242e-38
0.2875477485 -0.05019186833 0.7683603461 1.370864364e-38
0.2957601407 -0.05759714253 0.7712293258 1.361788714e-38
0.2975997082 -0.05192131415 0.7686324289 1.343530636e-38
0.3124255909 -0.04499141728 0.7839012778 1.325129205e-38
0.3148837904 -0.05122954627 0.7735035256 1.306833712e-38
0.2879489301 -0.04402920404 0.7610801947 1.288717725e-38
0.3052645276 -0.04956750789 0.7965912855 1.280071574e-38
0.3155063486 -0.05069701463 0.7654700108 1.086140274e-38
0.1948844927 -0.05608347812 0.7547145218 1.076989375e-38
0.2242353179 -0.04510057136 0.7285221985 1.104575336e-38
0.1990943039 -0.04757036645 0.7389693871 1.058692901e-38
0.1938573455 -0.05029518984 0.7333232716 1.021528924e-38
0.2090987491 -0.04688807405 0.728027688 9.292636497e-39
0.2086981152 -0.04870219072 0.7236176369 8.46574849e-39
0.1924565414 -0.04570073417 0.7352189852 8.832721934e-39
0.1957783154 -0.03786661372 0.7388390917 9.292270758e-39
0.2006734706 -0.04880261354 0.7440279916 9.751819583e-39
0.2121396279 -0.06653271239 0.7419655444 1.030391016e-38
0.2050519788 -0.02873121887 0.7400705324 1.021494592e-38
0.2165228747 -0.05949316118 0.7527071133 1.021422005e-38
0.2216932849 -0.04847183681 0.7265356809 1.03975239e-38
0.2259614521 -0.05409806107 0.7326041687 1.058226969e-38
0.2192900042 -0.04506455785 0.7480939003 1.10428807e-38
0.2120412665 -0.0492006017 0.7387087151 1.150278125e-38
0.2355359108 -0.0506109611 0.7593413518 1.159569855e-38
0.21574823 -0.04820373239 0.761129244 1.177865488e-38
0.2222675125 -0.05658130822 0.7479846374 1.168646345e-38
0.2217142105 -0.04531618314 0.7483488736 1.159283149e-38
0.2392496253 -0.05196894978 0.7527840083 1.214240814e-38
0.2291730154 -0.05515850044 0.7491973472 1.269342672e-38
0.2130605702 -0.04631095902 0.7395200776 1.287746205e-38
0.2328179806 -0.0592543885 0.7587992428 1.306579516e-38
0.2289219747 -0.04124065163 0.7535847137 1.306830629e-38
0.2373866301 -0.05198611014 0.7442984658 1.306580357e-38
0.2409048733 -0.05573315776 0.7821385378 1.26963176e-38
0.2282697036 -0.04684641154 0.7604699564 1.24218789e-38
0.2496405715 -0.06140805585 0.7633178015 1.113940214e-38
0.24642944 -0.04299825559 0.762112626 9.939079301e-39
0.247724332 -0.05298443526 0.7503729495 9.749304253e-39
0.2319488161 -0.04077663627 0.7340187965 9.658542151e-39
0.2291389045 -0.05029395759 0.7439311862 9.9358409e-39
0.2411348033 -0.05350088548 0.7600598659 1.021170612e-38
0.252064433 -0.03599833701 0.74494853 1.030497655e-38
0.2461197905 -0.06027640969 0.7542676213 1.049151179e-38
0.2463491428 -0.05814197269 0.7380378645 1.067517858e-38
0.2445305316 -0.04427922145 0.7383770732 1.095105221e-38
0.2604475445 -0.05003527243 0.7307234715 1.113544767e-38
0.2629828061 -0.05624975707 0.724034038 1.141167863e-38
0.2489896081 -0.06233330125 0.7223820619 1.177866889e-38
0.2560157821 -0.06763251107 0.7231496988 1.214601228e-38
0.2329549272 -0.052961501 0.7432798157 1.233004481e-38
0.2520405237 -0.04827325296 0.7246061926 1.260626596e-38
0.2421057904 -0.05712916678 0.7124209309 1.288284584e-38
0.25396865 -0.05744448548 0.7255947644 1.325054656e-38
0.2445615383 -0.04721035943 0.7352208602 1.306795316e-38
0.2493490235 -0.06193076157 0.7160871374 1.28824815e-38
0.2471214498 -0.04768606369 0.7143894588 1.279028167e-38
0.2563600832 -0.05123042148 0.7243522392 1.269700704e-38
0.2694277439 -0.05094325954 0.7142291831 1.251225565e-38
0.273388482 -0.03462084891 0.7070940578 1.23257176e-38
0.2511340755 -0.05073598184 0.7236717739 1.195550996e-38
0.2775434737 -0.04998236042 0.7744760244 1.158779523e-38
0.2858804702 -0.05528362204 0.7756414315 1.057759216e-38
0.2836211227 -0.07443468673 0.7720156046 9.660684736e-39
0.2589235567 -0.04552091771 0.7719700085 1.048721681e-38
0.2891387051 -0.04066791004 0.7581671585 1.140557318e-38
0.2892179553 -0.06903296176 0.7697046352 1.177327529e-38
0.2804752852 -0.03577327091 0.7582249647 1.214132774e-38
0.2957932311 -0.04173452805 0.7826189233 1.251045498e-38
0.292070021 -0.0355274845 0.7797792297 1.287746065e-38
0.2969628932 -0.05026914882 0.7514284302 1.296931717e-38
0.2950448316 -0.04957477873 0.7803360472 1.315512794e-38
0.2922246106 -0.05638360881 0.7787658373 1.334165478e-38
0.2883076436 -0.04414421004 0.7718864505 1.361680814e-38
0.2917919806 -0.04455379091 0.7603456078 1.343099036e-38
0.2972162652 -0.06287920008 0.772511892 1.334276321e-38
0.3158937289 -0.04934102315 0.7785217496 1.31587545e-38
0.29578411 -0.04034184791 0.7766179656 1.297651143e-38
0.301936842 -0.07322136316 0.7844151083 1.26120323e-38
0.2975797449 -0.0216108182 0.7993889243 1.224145752e-38
0.2944850137 -0.04694385122 0.7906093734 1.03096779e-38
0.3018818817 -0.05922739156 0.7737323731 8.46762623e-39
0.2055662215 -0.04393586322 0.7365407218 1.049509211e-38
0.1934094097 -0.05271078343 0.7465996213 1.021994996e-38
0.198182932 -0.05507747543 0.7493522286 9.663204271e-39
0.2031884144 -0.03657307963 0.7382602256 9.109307422e-39
0.2282290516 -0.04087445065 0.7359525678 9.200770173e-39
0.212367776 -0.04273303915 0.7146298392 9.382308389e-39
0.2076992343 -0.06285667493 0.7399437089 9.290852644e-39
0.194689274 -0.03880740092 0.7537245609 9.199381486e-39
0.2107824815 -0.05065337487 0.7505371489 9.385570612e-39
0.2223052827 -0.04797714135 0.7552885229 9.662496615e-39
0.1957625799 -0.04852658555 0.7484783906 9.93798769e-39
0.2055213739 -0.06874757982 0.7467363513 1.021242359e-38
0.2139348575 -0.03559765316 0.7430223738 1.058084737e-38
0.2256663946 -0.05282756022 0.7690378299 1.104110245e-38
0.2382802607 -0.04581114463 0.7455402468 1.122334132e-38
0.2426179255 -0.03711905255 0.7568743011 1.140593892e-38
0.2303847079 -0.04604584827 0.7468555412 1.131446636e-38
0.2270682139 -0.04430570093 0.7574571036 1.122334832e-38
0.2289405907 -0.06813100769 0.7719116734 1.103896127e-38
0.224173534 -0.04907853495 0.7541619656 1.094640831e-38
0.2276425102 -0.04863219864 0.75541194 1.085672521e-38
0.2099493639 -0.03529955492 0.7582786165 1.076739663e-38
0.22912735 -0.04134175288 0.7407585785 1.076667496e-38
0.2396763635 -0.05228180831 0.744880709 1.07659589e-38
0.2316869418 -0.05442313579 0.7384798119 1.058336551e-38
0.2330954076 -0.03917918667 0.7513772587 1.04926006e-38
0.2316536892 -0.03920533192 0.7564276406 9.84472427e-39
0.2433205447 -0.03399601834 0.7795404255 9.288691842e-39
0.2457164835 -0.06040058983 0.7628576707 9.105741117e-39
0.2517084721 -0.05456596092 0.7434710581 9.014621685e-39
0.2160102248 -0.05946209563 0.7310663512 9.383398599e-39
0.2533717646 -0.03616551223 0.7443350797 9.752174112e-39
0.2400821592 -0.04403257368 0.7236901209 1.002983159e-38
0.2460445491 -0.05010744047 0.734846271 1.030785201e-38
0.2488265398 -0.05359598197 0.7393533473 1.058372144e-38
0.2553482974 -0.03699795778 0.7269724031 1.095142355e-38
0.2512792077 -0.04203737811 0.7473402723 1.131876694e-38
0.2432215427 -0.04597514785 0.7430251797 1.168718933e-38
0.2312405594 -0.06159033322 0.7541241226 1.196270142e-38
0.256581322 -0.05971972836 0.741186627 1.233184127e-38
0.2350780905 -0.05605977384 0.7248628489 1.251444167e-38
0.2399800076 -0.05424925217 0.7288430334 1.269739099e-38
0.2606253034 -0.03079341611 0.7341175758 1.315835933e-38
0.2558344136 -0.04704199058 0.7472738034 1.361826129e-38
0.2592623163 -0.04744001336 0.7373544614 1.306725532e-38
0.257706771 -0.05305393354 0.7214447058 1.260806382e-38
0.2799896291 -0.04477299536 0.740683786 1.23278812e-38
0.2540274778 -0.06822738238 0.7235485444 1.204950205e-38
0.2756730225 -0.04302311606 0.7150300238 1.204878178e-38
0.2834601118 -0.03697347364 0.7938649192 1.214026135e-38
0.2687560736 -0.05219566975 0.7846501021 1.186368147e-38
0.2935098023 -0.05065459728 0.7776457879 1.167927199e-38
0.2856370548 -0.05887597984 0.7681506619 1.103676263e-38
0.284475623 -0.04227573571 0.7705997721 1.04871986e-38
0.2852431081 -0.04580633095 0.7900953875 1.085419586e-38
0.2688766986 -0.0635133039 0.7652842878 1.131337615e-38
0.2905587201 -0.04902514151 0.7839612296 1.158924557e-38
0.2826720825 -0.04764611031 0.7762766836 1.195729241e-38
0.2973851044 -0.04625442664 0.777382668 1.232462178e-38
0.2963029506 -0.05599613974 0.7643243272 1.26001619e-38
0.2784777423 -0.02843379999 0.7766715721 1.278601892e-38
0.2969235471 -0.05459725088 0.7781649837 1.306544904e-38
0.3151661958 -0.04629434185 0.7730342503 1.324945775e-38
0.2859075626 -0.05762120717 0.7772077582 1.352533138e-38
0.2850865511 -0.05005050182 0.7663089743 1.352534119e-38
0.2927156346 -0.05525422852 0.7723339355 1.352572654e-38
0.3017032577 -0.04883621766 0.7737792965 1.343320161e-38
0.3096251346 -0.05359018166 0.7781026513 1.334422196e-38
0.3097557072 -0.04529896359 0.7667443657 1.224254212e-38
0.3198096267 -0.04636576748 0.7732415625 1.11408707e-38
0.3069601673 -0.04817829542 0.782780077 1.003274349e-38
0.329646721 -0.04276068445 0.786833509 8.833177356e-39
0.2091485456 -0.0427786805 0.7310149321 9.755385888e-39
0.2015585049 -0.03669993409 0.7479937761 9.661029456e-39
0.1941119393 -0.04918215807 0.755011362 9.568134578e-39
0.210312502 -0.06425787502 0.7406506717 8.832391227e-39
0.2179169397 -0.03213027381 0.7637766187 8.098064589e-39
0.2089655752 -0.04885912951 0.7600977722 8.557959535e-39
0.1936469906 -0.03991659938 0.7456607436 9.110037498e-39
0.2195881782 -0.05343096445 0.7524794086 9.47844447e-39
0.2222832916 -0.04411122965 0.7387867057 9.936549957e-39
0.2006832102 -0.0643282198 0.7612209227 1.021206205e-38
0.2265088606 -0.04375144215 0.752925843 1.058048444e-38
0.2177837711 -0.05031288393 0.7568346185 1.07648757e-38
0.2242786891 -0.03515566415 0.7522971622 1.103895286e-38
0.2127549717 -0.02211431485 0.7542126843 1.094604817e-38
0.2330137695 -0.03348437862 0.7591420377 1.085420987e-38
0.2059462942 -0.0505800707 0.7623535234 1.002768901e-38
0.2335804745 -0.0384980469 0.7509185911 9.291928842e-39
0.2209366207 -0.03204504993 0.7592398864 8.830598966e-39
0.2329234085 -0.04853835323 0.776888942 8.461457715e-39
0.2460062353 -0.05384987158 0.7650629401 8.459659849e-39
0.2365894679 -0.05195062022 0.7595346344 8.460375912e-39
0.2348491504 -0.0345889488 0.7619796014 8.461093377e-39
0.2430720685 -0.05531927786 0.7663760929 8.555078465e-39
0.246189549 -0.04417324488 0.7506395563 8.55758819e-39
0.229689694 -0.05128962777 0.7390997453 8.645473426e-39
0.23783232 -0.05686235934 0.7466683223 8.460723434e-39
0.2376696806 -0.03969373653 0.7476941738 8.369971142e-39
0.2294343322 -0.04886119033 0.7389127442 8.830231826e-39
0.2409470025 -0.05915285183 0.7373331154 9.293352561e-39
0.2286389102 -0.04186296168 0.7273633995 9.663204271e-39
0.2264714789 -0.03588112144 0.7256075063 1.012274749e-38
0.2181441885 -0.06373182441 0.7300539894 1.049045521e-38
0.2544929266 -0.04001284485 0.7431101144 1.095035016e-38
0.2498529275 -0.0624496685 0.7355665206 1.141024511e-38
0.260157912 -0.0376074832 0.7386817909 1.196197835e-38
0.2332673066 -0.05081068089 0.7418761213 1.223856524e-38
0.2483081085 -0.0457313546 0.7216606707 1.260735196e-38
0.245102683 -0.03902492717 0.7233847117 1.26995574e-38
0.2522825869 -0.05887207057 0.7257519202 1.288106479e-38
0.2550000852 -0.04479162329 0.7460907489 1.343386022e-38
0.2507919133 -0.04674166625 0.7295732497 1.398451306e-38
0.2622184764 -0.04110040696 0.7318455288 1.315799219e-38
0.2601598747 -0.03532475816 0.720851458 1.242115023e-38
0.265731246 -0.05084163053 0.719568845 1.195622742e-38
0.2663917292 -0.06038848106 0.7387751997 1.149812333e-38
0.2818536452 -0.05503174578 0.7831457226 1.16792818e-38
0.3025845589 -0.0613417385 0.7851906683 1.195515963e-38
0.29956423 -0.05108456421 0.7604483836 1.186369548e-38
0.2768639943 -0.05613372886 0.7696532719 1.186367166e-38
0.2910327144 -0.04704931624 0.7681470048 1.158814135e-38
0.2822613925 -0.05409286585 0.7661536854 1.13130034e-38
0.2751301957 -0.05851387381 0.7765852267 1.121974418e-38
0.2944164232 -0.04986852311 0.779172104 1.122225952e-38
0.2816892567 -0.04131965559 0.7651596082 1.149741288e-38
0.2941446068 -0.05391215498 0.78951863 1.186618138e-38
0.2868420777 -0.04664359273 0.7935915345 1.214239833e-38
0.2986102624 -0.06933858213 0.7817426584 1.24186405e-38
0.2866257005 -0.05645714197 0.7643899214 1.269488267e-38
0.3032238626 -0.04406640634 0.7814408441 1.297360654e-38
0.2998714162 -0.05537113387 0.7643878602 1.315906139e-38
0.2917659158 -0.03250254251 0.784260351 1.343492661e-38
0.296472351 -0.04302252104 0.7621845771 1.361895773e-38
0.2901646477 -0.04903476902 0.7780332274 1.380193648e-38
0.3200047704 -0.0624611209 0.7682982411 1.370797522e-38
0.3038774577 -0.03408080968 0.7680115402 1.370975907e-38
0.3079087885 -0.06403446553 0.7817191065 1.18748344e-38
0.293472616 -0.04501201512 0.7753997952 1.012817332e-38
0.3129292865 -0.04254353025 0.7937484584 9.66398059e-39
0.3091627504 -0.05110861453 0.7910472288 9.292712167e-39
0.2185425651 -0.04344990831 0.7488399974 9.47990182e-39
0.2305186767 -0.03293663204 0.7406298542 9.019281002e-39
0.2025483563 -0.0433886203 0.7712196173 9.10931583e-39
0.213756382 -0.04835986318 0.7537781004 9.292262351e-39
0.2156123136 -0.03802412531 0.7563451576 9.384449573e-39
0.2348771365 -0.04828314385 0.7356341799 9.568842234e-39
0.2298857477 -0.04072125957 0.7594854024 9.84471306e-39
0.2174585946 -0.02390231559 0.7467219751 1.021277671e-38
0.2105361857 -0.05356849953 0.7686909464 1.048828881e-38
0.2230599875 -0.03952895091 0.7447682741 1.07638037e-38
0.2105437163 -0.06227145338 0.7722678305 1.058014112e-38
0.2164209569 -0.06032619664 0.7481395667 1.048830002e-38
0.2323855952 -0.04327744848 0.758926222 9.752535647e-39
0.2294195572 -0.05154439839 0.7658031547 9.106817314e-39
0.2489529078 -0.05680739003 0.7607043493 8.554369408e-39
0.2432902162 -0.03264680111 0.7541341213 8.093751392e-39
0.2407093871 -0.05311028527 0.7703562097 7.81680577e-39
0.239974977 -0.05035145624 0.7568749577 7.54452367e-39
0.2395480425 -0.04542931508 0.767477787 7.911145387e-39
0.2327916646 -0.04990783741 0.7663254054 8.27813004e-39
0.2388120723 -0.03433957389 0.7409303887 8.278132843e-39
0.2459676719 -0.04320651686 0.7421408852 8.369957129e-39
0.2195907096 -0.0569091963 0.7452370943 8.18520013e-39
0.2458341558 -0.05324241208 0.733315833 8.001543151e-39
0.2328208741 -0.06461018241 0.7469474944 8.463247173e-39
0.2487177814 -0.05560888208 0.7497949994 9.018203404e-39
0.2702074694 -0.05723199077 0.7282257695 9.478096948e-39
0.2275521959 -0.0649371319 0.7326270255 9.938360435e-39
0.2538674892 -0.03603182816 0.7372504729 1.039826519e-38
0.253704313 -0.05436654392 0.7197877685 1.085815873e-38
0.2430649651 -0.04683991708 0.7321074396 1.131697748e-38
0.2505731649 -0.05201825044 0.7187045228 1.177615636e-38
0.2487005193 -0.04319030666 0.7466940303 1.214708707e-38
0.2569484207 -0.03906277278 0.7518693622 1.251552067e-38
0.2517377816 -0.0463082221 0.7278836508 1.260629679e-38
0.2599147822 -0.03891541393 0.7231597079 1.26973952e-38
0.2683563849 -0.06688635132 0.7287403107 1.306364277e-38
0.2567725423 -0.02687594378 0.7188900283 1.352209298e-38
0.2490494314 -0.04559452782 0.7253498956 1.306183089e-38
0.2495972197 -0.04280934996 0.7239600194 1.269341411e-38
0.2591877393 -0.04785038565 0.7257317596 1.241683282e-38
0.2717857319 -0.04125683829 0.7178221932 1.204877197e-38
0.2795463768 -0.03235190889 0.7633869608 1.21409662e-38
0.2693184181 -0.04709450216 0.7713963078 1.223318145e-38
0.2906420887 -0.05211490403 0.7835005057 1.204989161e-38
0.2843923096 -0.05466241306 0.773214661 1.186655133e-38
0.2898905087 -0.05112183105 0.7666224561 1.168249498e-38
0.2770732364 -0.05107703751 0.7666181795 1.149847226e-38
0.2981426496 -0.0434291553 0.7696756175 1.149847926e-38
0.2671240917 -0.04811891231 0.7790243436 1.149848627e-38
0.2753725997 -0.06733545865 0.7658286351 1.168288173e-38
0.2890085841 -0.05866890884 0.7820094243 1.186726599e-38
0.2844443286 -0.04550630433 0.7871542206 1.205057545e-38
0.3075800269 -0.04922702366 0.7659617908 1.232716093e-38
0.2785519768 -0.04945750964 0.7789376784 1.251155219e-38
0.2911466674 -0.05196442449 0.7637152078 1.278992994e-38
0.2950836677 -0.04526437222 0.7839328497 1.297503727e-38
0.308237793 -0.05094797522 0.7813284169 1.316049351e-38
0.3142726293 -0.0440417525 0.7725359466 1.334343863e-38
0.2931451199 -0.04583619135 0.7731511209 1.352749358e-38
0.2866715702 -0.05604494745 0.775760574 1.343101979e-38
0.2971280029 -0.0505886083 0.7812782121 1.343101418e-38
0.3067660437 -0.06075120976 0.7673112575 1.13191509e-38
0.2937964006 -0.0428189416 0.8059683324 9.207670166e-39
0.3045731658 -0.06543036248 0.7934048677 8.653446815e-39
0.3259457084 -0.04258046991 0.7845054617 8.099568182e-39
0.2061720376 -0.06265361213 0.747121757 9.660681934e-39
0.2091254383 -0.03044191692 0.7493615547 9.474492808e-39
0.2181864319 -0.04784136069 0.7752002702 9.381934242e-39
0.2088311924 -0.03810388663 0.7486646838 9.290820415e-39
0.2144582612 -0.05135009467 0.7805141314 9.567407304e-39
0.225540216 -0.04593305914 0.7732482551 9.843998398e-39
0.2214131652 -0.04967296797 0.765988777 1.012094822e-38
0.2372286541 -0.04452468914 0.7463639521 1.048830422e-38
0.2266367318 -0.04889341378 0.7623894245 1.030464724e-38
0.2252999125 -0.04638368819 0.7540205401 1.02124362e-38
0.2315895247 -0.06989747782 0.7656537874 9.569213578e-39
0.2382187416 -0.04152413892 0.7535048019 8.924214112e-39
0.2445681703 -0.04280459028 0.766830023 8.366027888e-39
0.2329988145 -0.0437764634 0.7505899347 7.815730974e-39
0.2319273061 -0.04182694744 0.7728249065 7.173958698e-39
0.2568192621 -0.04815795487 0.7545439943 6.624373645e-39
0.2344770897 -0.03961388131 0.7504590127 7.269010175e-39
0.2302234852 -0.04030446106 0.754058578 8.004770341e-39
0.2409671714 -0.05837779784 0.7351409382 8.006206672e-39
0.2563010616 -0.05508484421 0.7338242611 8.095169506e-39
0.2239764305 -0.03945200792 0.7492402963 7.908625852e-39
0.2213787398 -0.05319797867 0.7374229597 7.725319197e-39
0.2338624662 -0.04742548177 0.7267789602 8.188449741e-39
0.2308022617 -0.05848312673 0.7323694523 8.740182986e-39
0.2389417881 -0.0311958164 0.7483639517 9.200082135e-39
0.24691423 -0.0369491409 0.7378703994 9.752535647e-39
0.2360412539 -0.0482268958 0.7448829555 1.021315366e-38
0.2466659978 -0.03945677286 0.7388861013 1.07659575e-38
0.2484482713 -0.03904921975 0.7496884663 1.122548951e-38
0.2519474067 -0.03590438335 0.7457587054 1.168538586e-38
0.2428375439 -0.055644758 0.7408250135 1.20555991e-38
0.2488565425 -0.03070094349 0.7443407079 1.24218775e-38
0.2555899068 -0.06049195525 0.7471110888 1.251264801e-38
0.243406182 -0.02991086107 0.718294465 1.260339189e-38
0.2463684364 -0.04454314148 0.7348820366 1.278633141e-38
0.242878124 -0.04208817178 0.7327143839 1.306040016e-38
0.2519500379 -0.03613055153 0.7175818956 1.305896383e-38
0.2627797593 -0.04093375474 0.7267263174 1.306183509e-38
0.2781976765 -0.05637705429 0.764580537 1.287852564e-38
0.2920894804 -0.03926315181 0.7725911313 1.269377424e-38
0.2793100738 -0.05352077869 0.7771767419 1.260121848e-38
0.2806831942 -0.04920353563 0.791240552 1.260014649e-38
0.267136121 -0.04916058377 0.7709630566 1.223281011e-38
0.2828745946 -0.05007937496 0.7735182735 1.186689324e-38
0.2739385046 -0.04772176176 0.7853684744 1.177648147e-38
0.2752639759 -0.04494773122 0.7825419809 1.168429705e-38
0.2663288355 -0.04752984615 0.7703491431 1.177578362e-38
0.2830503134 -0.06001872695 0.7656768996 1.186761351e-38
0.2745189828 -0.05643945633 0.7793873896 1.18676079e-38
0.2926281213 -0.04994349427 0.7732987836 1.186725338e-38
0.3070733784 -0.04961889394 0.7818551341 1.205092857e-38
0.2960052293 -0.03528710443 0.7726991789 1.223567436e-38
0.2921447138 -0.03321661312 0.7886598563 1.242042015e-38
0.2886750788 -0.05873702164 0.7743191935 1.269664831e-38
0.308251527 -0.04062605142 0.7767510649 1.279135787e-38
0.2901010855 -0.05270327152 0.7496089513 1.297538759e-38
0.3114886752 -0.06692335065 0.7651736382 1.306794195e-38
0.3022773841 -0.04948069841 0.772167866 1.32487557e-38
0.329704434 -0.05790298648 0.7693826402 1.315406295e-38
0.3119992546 -0.0407946028 0.7784046924 1.315549648e-38
0.3192734178 -0.04702045078 0.7614780914 1.067629542e-38
0.3108561392 -0.05044171969 0.7724507483 8.288589332e-39
0.3190377549 -0.04414472344 0.7876634201 7.643246548e-39
0.3050859918 -0.05363845612 0.7902358461 7.002914807e-39
0.2014622243 -0.03709244951 0.7535982747 9.846499715e-39
0.2184653051 -0.04067998199 0.758353272 9.564889171e-39
0.2214726954 -0.05620986593 0.7574442369 9.381571306e-39
0.217100353 -0.0584833109 0.7600281842 9.198980714e-39
0.2189154987 -0.03132667743 0.7525447999 9.290820415e-39
0.2261404525 -0.06574821374 0.7563095197 9.383025853e-39
0.2215802057 -0.02404920836 0.7513302877 9.752532844e-39
0.2189211562 -0.04963914514 0.7648304733 1.012096924e-38
0.2305740919 -0.02619078065 0.7523348023 1.002915337e-38
0.2436260588 -0.04568051191 0.7821209366 1.002804914e-38
0.2269178792 -0.04985028924 0.7605666888 9.477368273e-39
0.221491929 -0.03734960678 0.7596906563 8.925640633e-39
0.2264900635 -0.04731151755 0.7613687471 8.459292708e-39
0.2230232302 -0.05024328331 0.7431206302 7.906488872e-39
0.2237757118 -0.02956302958 0.7595043972 7.541302084e-39
0.2207340195 -0.04320793184 0.7367323264 7.265785787e-39
0.2388549569 -0.04773593292 0.7546658027 7.544512459e-39
0.2226511091 -0.05559641975 0.7450094806 7.913648106e-39
