# .PCD v0.7 - Point Cloud Data file format
VERSION 0.7
FIELDS x y z rgb
SIZE 4 4 4 4
TYPE F F F F
COUNT 1 1 1 1
WIDTH 860
HEIGHT 1
VIEWPOINT 0 0 0 1 0 0 0
POINTS 860
DATA ascii
0.3498087384 0.02322351687 0.7972087522 1.306868464e-38
0.3633609746 0.02896629963 0.7978385804 1.325235703e-38
0.3615883327 0.04113070989 0.7763127156 1.343638956e-38
0.3604065185 0.04455594716 0.7940683798 1.352858659e-38
0.3650078874 0.04199304296 0.7807843423 1.362114376e-38
0.3797402234 0.04428644586 0.8016122048 1.362078503e-38
0.3619599226 0.04897413412 0.8052500993 1.389629151e-38
0.3713290691 0.04586550991 0.7906634932 1.426364611e-38
0.3885958455 0.04919186124 0.7949535899 1.408034646e-38
0.3842471856 0.01391249911 0.8076293287 1.389738172e-38
0.3688464957 0.03072026303 0.800323541 1.380553502e-38
0.3901261317 0.03576461814 0.8027508845 1.371369532e-38
0.3721427221 0.03772404485 0.7863961041 1.389736351e-38
0.3728706271 0.04057850151 0.7881244989 1.408139323e-38
0.3881036648 0.04825997163 0.8267557251 1.371369251e-38
0.3783287113 0.05353148839 0.8087250784 1.334849031e-38
0.3845038517 0.04972954088 0.8069822758 1.353071517e-38
0.3838389203 0.03496683839 0.7884025663 1.371332397e-38
0.3881725592 0.05583081784 0.7800071074 1.362186262e-38
0.3668727242 0.03961038867 0.8024884093 1.362221575e-38
0.3582309265 0.04144417186 0.7995923688 1.39891948e-38
0.3886222182 0.040034851 0.8113322571 1.435653258e-38
0.3939273261 0.03520398699 0.7971564738 1.408030582e-38
0.4124170961 0.02306550485 0.7979874146 1.380373155e-38
0.383438638 0.03867367575 0.8100810788 1.371190586e-38
0.4077544374 0.035598685 0.8118865583 1.352823066e-38
0.4035860259 0.02981009415 0.7868265657 1.34356735e-38
0.4055162334 0.03880278271 0.8002123886 1.32519927e-38
0.3945572931 0.04254251714 0.81293982 1.306938949e-38
0.4103889571 0.03414347575 0.8042420897 1.288644157e-38
0.3990089901 0.02954295124 0.8268421811 1.325343183e-38
0.4335001296 0.03063734986 0.8157038762 1.361969481e-38
0.4096164428 0.03864223863 0.7980499275 1.343637975e-38
0.4146685836 0.04724653896 0.8191099085 1.325271016e-38
0.4131544799 0.05450856333 0.831543273 1.334454846e-38
0.4204974442 0.03050053818 0.8221005321 1.334419113e-38
0.4347523792 0.04465219463 0.8142344664 1.306796998e-38
0.4062196147 0.03120575035 0.8245419926 1.279210055e-38
0.4355587276 0.03117779668 0.8173060892 1.251623113e-38
0.3134221711 0.02809126595 0.8019968869 1.012451593e-38
0.3046459354 0.06150650912 0.8115335674 9.849724103e-39
0.3336959207 0.06344220381 0.8083748931 9.663902118e-39
0.3162110286 0.05016157431 0.7841028474 9.019259983e-39
0.3148684273 0.05504119908 0.7992754996 8.372822784e-39
0.3185383772 0.03823540883 0.811452564 8.001893475e-39
0.3066835836 0.04624613468 0.8040982011 7.632756427e-39
0.3246180489 0.05516848698 0.802851901 6.531089206e-39
0.3165686898 0.03828740443 0.8298641889 5.521977748e-39
0.3135603333 0.05025008252 0.800814625 6.257740717e-39
0.3205564419 0.05522163985 0.8086785099 7.084620316e-39
0.315969377 0.0340598039 0.789866057 7.360845671e-39
0.321852272 0.03600940286 0.8031329153 7.728544987e-39
0.3018546457 0.04519837592 0.7892083904 8.096603035e-39
0.3286284684 0.01846611229 0.7948702822 8.556499382e-39
0.321314167 0.03874397407 0.761546874 8.832726137e-39
0.3282058492 0.03386566494 0.8081340672 9.108954295e-39
0.3417050415 0.04864651227 0.7884913563 9.293345554e-39
0.3280309204 0.06458703344 0.7861211212 9.479174546e-39
0.3359275214 0.05900859729 0.7802362598 9.847598333e-39
0.3288259268 0.03761089205 0.7752831637 1.030678002e-38
0.3408504448 0.0529885075 0.7897775813 1.058408577e-38
0.3448675436 0.03374496538 0.7880685524 1.095142916e-38
0.3465374194 0.03490885331 0.796725093 1.122729718e-38
0.331493236 0.03511695163 0.8016701396 1.15020806e-38
0.3367569115 0.03818270649 0.7887479899 1.159355316e-38
0.331348003 0.04072863818 0.7768981252 1.177902202e-38
0.334356357 0.03569762745 0.7919482824 1.187265538e-38
0.3450666018 0.03917396697 0.7841083618 1.196413775e-38
0.3445393375 0.03112169362 0.7694024686 1.187230786e-38
0.3509990802 0.03008276451 0.7961982473 1.178082829e-38
0.3461919221 0.04194703086 0.7819086124 1.196485662e-38
0.3708180609 0.02849985001 0.7901904623 1.224000998e-38
0.3401694902 0.03468911487 0.7963147603 1.242332924e-38
0.3540488832 0.0557912196 0.7957432447 1.260950576e-38
0.3548702894 0.04050779722 0.8194956814 1.270169578e-38
0.3548765039 0.0394482422 0.7885351795 1.288465211e-38
0.3676720887 0.03033938691 0.7815121817 1.297649181e-38
0.3655054462 0.05070145685 0.8047829753 1.316052294e-38
0.3628039625 0.03868584551 0.786664278 1.334563166e-38
0.3439424633 0.03949729121 0.7960626396 1.352821805e-38
0.3746201738 0.04497235622 0.7934548508 1.371116457e-38
0.3742637612 0.02882792775 0.7770525101 1.389592718e-38
0.3751997494 0.03106071929 0.7923429791 1.380554202e-38
0.3689085568 0.02329621767 0.7791846336 1.380516928e-38
0.3755462376 0.02963176122 0.8026072431 1.380479653e-38
0.3550831938 0.02949289021 0.8136787281 1.380480074e-38
0.3711315055 0.03928505888 0.784425461 1.408067016e-38
0.363220605 0.03981085094 0.7997156099 1.444801495e-38
0.3767616117 0.03317572648 0.7648053053 1.398884027e-38
0.3705665048 0.04219825053 0.7981151566 1.362185982e-38
0.3876972393 0.02791149968 0.7930351998 1.362222136e-38
0.4005511873 0.04672972156 0.7952277413 1.371334079e-38
0.3841477661 0.02992128694 0.7962104951 1.362150669e-38
0.3847447733 0.04718380364 0.7945350743 1.362114516e-38
0.3773983712 0.04085077484 0.8040971842 1.417215533e-38
0.4055329687 0.03850561919 0.8106080676 1.472352284e-38
0.4090875937 0.07199238023 0.8075808289 1.435617665e-38
0.4074501361 0.03342229764 0.7827687579 1.398884307e-38
0.3938741255 0.04254291287 0.8000852298 1.380518049e-38
0.3983896921 0.03030446375 0.8225898681 1.361970603e-38
0.4179364423 0.04746080217 0.7961356393 1.343566789e-38
0.4176926972 0.0478306949 0.7951842251 1.32519955e-38
0.4108761625 0.0411356942 0.801793205 1.279317395e-38
0.4087867323 0.04827936477 0.8130826674 1.242655643e-38
0.4172298185 0.04678694861 0.8143208696 1.288609825e-38
0.4064531029 0.06957423157 0.8033368866 1.33449114e-38
0.4210895914 0.04585895659 0.8212255014 1.334490719e-38
0.4159097988 0.05557588639 0.8156502293 1.343638536e-38
0.4064092683 0.03401531735 0.8148625773 1.362005775e-38
0.4243721405 0.04191856124 0.8094783771 1.389484537e-38
0.4250980536 0.0257954082 0.8093250869 1.352714326e-38
0.4302259294 0.04498415519 0.8227688006 1.325163116e-38
0.4247057852 0.04892716936 0.8231335892 1.288464371e-38
0.309177164 0.02647412921 0.8043172076 9.206871426e-39
0.3263339749 0.04236816021 0.7835435926 8.746976481e-39
0.3274593124 0.02534408674 0.8104008682 8.279549556e-39
0.3178216977 0.02983451412 0.8025103297 7.816423216e-39
0.3220985574 0.04468223371 0.8192346894 6.898066853e-39
0.3230776193 0.02100186844 0.7948621157 5.97899863e-39
0.3317375062 0.05079888729 0.8064634072 6.44033271e-39
0.3259269683 0.05104936361 0.8127530325 6.808034828e-39
0.3226976239 0.043455674 0.7841749209 7.174660749e-39
0.3163021899 0.03236859048 0.7897246312 7.449444167e-39
0.3264149529 0.04171934291 0.7924315736 7.818574209e-39
0.3187969195 0.03448339828 0.7923080049 8.187711257e-39
0.3513764818 0.03862443813 0.7981277946 8.464296745e-39
0.3424348864 0.04913211804 0.7791900858 8.648688005e-39
0.3322733328 0.0401000042 0.8032666139 8.924916162e-39
0.34098629 0.03385272629 0.7917998315 9.202940784e-39
0.3405146434 0.05051151961 0.8066718533 9.479173145e-39
0.3368474427 0.04671421525 0.7852708741 9.755405506e-39
0.3134787588 0.02818413988 0.7811527821 1.012239857e-38
0.3372718095 0.04259710418 0.7834171264 1.058122012e-38
0.3217787109 0.05566564529 0.7879972662 1.085708814e-38
0.3394249987 0.04371229074 0.7808839351 1.113294776e-38
0.3560906358 0.05014833296 0.7852347072 1.131733201e-38
0.3390605473 0.03829905439 0.7850156141 1.15020792e-38
0.3422739833 0.02092026764 0.7921012511 1.15020792e-38
0.3523996699 0.04043818501 0.7723061101 1.150244634e-38
0.3327338145 0.05440901303 0.7975098941 1.159572658e-38
0.3454934286 0.04868845173 0.7860454968 1.168935293e-38
0.3539687645 0.02679330487 0.7829707319 1.187302112e-38
0.3427654995 0.0406034462 0.7956647689 1.205669211e-38
0.3395581155 0.04519488612 0.7822991701 1.214816888e-38
0.3750111365 0.05410814918 0.7933495747 1.233363213e-38
0.3380799475 0.03477231758 0.7726775752 1.251730312e-38
0.3497567204 0.04028444522 0.7968897929 1.270097832e-38
0.3333037924 0.03680182346 0.7866909191 1.279281802e-38
0.360647286 0.03321170013 0.7935708335 1.288465492e-38
0.3541313812 0.06591217927 0.7820444366 1.306796858e-38
0.3599954838 0.04139660878 0.8072902224 1.325162275e-38
0.3788264386 0.01624319318 0.7769731008 1.334380157e-38
0.3492765604 0.01598003113 0.7978966411 1.343637275e-38
0.3709509368 0.04764538257 0.7992554026 1.343782589e-38
0.3736442265 0.02937573327 0.7993436363 1.352928584e-38
0.364135276 0.04006275385 0.787336425 1.352998789e-38
0.3555668964 0.04516857035 0.778029916 1.353071657e-38
0.3799176526 0.04595093018 0.7870825495 1.371404004e-38
0.3829981583 0.04279800662 0.7930730817 1.39891934e-38
0.3703968379 0.03325135889 0.7885537866 1.380552801e-38
0.375244105 0.03596767307 0.8082730572 1.371371073e-38
0.3923305139 0.03329219287 0.803644634 1.371372895e-38
0.4042782557 0.06227179952 0.7896997706 1.37133576e-38
0.3943801755 0.04386345497 0.8033012548 1.371334639e-38
0.3809141445 0.04099220813 0.8093902133 1.362115076e-38
0.3821675466 0.04371700805 0.7884223801 1.389665585e-38
0.3967941273 0.03650501808 0.8005765588 1.417323293e-38
0.3924895613 0.04004274768 0.8104139436 1.389700477e-38
0.3960784574 0.03521775474 0.807501922 1.371298206e-38
0.3935489585 0.03686411795 0.8170471625 1.3712273e-38
0.4135252706 0.01169141247 0.8161164831 1.371154152e-38
0.4263445228 0.03348398009 0.8196236265 1.352785792e-38
0.4047113439 0.02600726008 0.8188771839 1.343602663e-38
0.4149302155 0.03880039741 0.7982851629 1.306869025e-38
0.4053033126 0.03118887086 0.8120578874 1.27017126e-38
0.3793779604 0.04417860075 0.8090940632 1.297758483e-38
0.3971612786 0.04343102185 0.8161042932 1.325344164e-38
0.4156671323 0.02737849786 0.8175901356 1.32530759e-38
0.4208291094 0.03851440191 0.8104325623 1.33449128e-38
0.4260501887 0.0381222233 0.8139092977 1.334419673e-38
0.4481075161 0.04350093336 0.8358190267 1.343530916e-38
0.434533528 0.03668256025 0.7886842131 1.325235003e-38
0.4377418098 0.0571686097 0.806311771 1.316158512e-38
0.4243136746 0.05316869889 0.8123344472 1.288535557e-38
0.324164941 0.03953027098 0.8176655733 9.391656451e-39
0.3190615689 0.03631969909 0.8172510005 9.206536516e-39
0.316918111 0.05239054089 0.8187420948 8.649052343e-39
0.3161674241 0.0601311626 0.7953233087 8.09265838e-39
0.3136640874 0.03849173842 0.8120498135 7.265420048e-39
0.3306438362 0.04096990363 0.7915069167 6.530384353e-39
0.3272531496 0.04668827424 0.8268781026 6.531107423e-39
0.3314493082 0.04151386987 0.809457659 6.623296046e-39
0.3234066242 0.06106708354 0.7888436625 6.899154261e-39
0.3203038242 0.03684977284 0.8033785447 7.266133309e-39
0.3277217674 0.05386726446 0.8120640272 7.540918129e-39
0.3112001248 0.03344494446 0.8003393682 7.911129973e-39
0.3196298042 0.0482724574 0.8043888807 8.096237296e-39
0.3269578904 0.04249170522 0.7945688715 8.280628556e-39
0.3401756161 0.0435156609 0.7781785181 8.648690808e-39
0.3217153913 0.03726689823 0.7798072634 9.016758665e-39
0.3261063676 0.04435747966 0.7858455744 9.109680167e-39
0.3213753634 0.03269320285 0.7874600616 9.293716898e-39
0.3279967165 0.04669080481 0.7887508102 9.753258717e-39
0.330070437 0.05710199154 0.7990156271 1.021280474e-38
0.3361155278 0.042199286 0.8158226063 1.04890399e-38
0.3301478107 0.03464430663 0.7732586491 1.076489111e-38
0.3563161737 0.03305720594 0.7923983805 1.094890682e-38
0.3280454915 0.03229102472 0.7732138967 1.122548671e-38
0.37661725 0.03405498422 0.7977833462 1.11347246e-38
0.3458742784 0.03688744859 0.7855592974 1.113473161e-38
0.3561697712 0.03743282715 0.7704784635 1.131912707e-38
0.3393557112 0.0370080843 0.8037029375 1.159570696e-38
0.3445896445 0.04218191343 0.7817456238 1.168897598e-38
0.3481555063 0.02763229479 0.803966651 1.187265118e-38
0.3414245209 0.05043858327 0.7843161537 1.196485101e-38
0.3499884021 0.04347646005 0.7993577205 1.205668931e-38
0.3549534169 0.04164244896 0.7992189162 1.233255874e-38
0.366438025 0.05463841255 0.7918978405 1.260842676e-38
0.3762418608 0.04475829836 0.7917578027 1.260914703e-38
0.3553517008 0.05734076683 0.781128649 1.260914703e-38
0.3615649863 0.04824082302 0.7801730913 1.279281802e-38
0.3614428842 0.04139057216 0.8083711192 1.297612047e-38
0.393942455 0.05418506384 0.8043616641 1.297790572e-38
0.3645443834 0.04321151316 0.7950879929 1.297792114e-38
0.3683009609 0.04940427734 0.8104347223 1.316232501e-38
0.3825694725 0.03934309773 0.7786110985 1.334596938e-38
0.3813695359 0.02645255485 0.8003708911 1.325554219e-38
0.3712761992 0.04894747851 0.7940713628 1.32555604e-38
0.3766620589 0.0430328702 0.8021254453 1.343960975e-38
0.3858759317 0.04266879979 0.7907639039 1.362185141e-38
0.3849683819 0.03716096437 0.7874253366 1.371440998e-38
0.379098443 0.03814025487 0.7946523429 1.380553782e-38
0.3642738585 0.04100146733 0.7901787995 1.380554763e-38
0.3738774363 0.03882417299 0.8038193182 1.380554202e-38
0.3840380485 0.03499806252 0.8083251002 1.371370232e-38
0.3727930914 0.03235845376 0.8006263962 1.371299187e-38
0.3863436534 0.03717680832 0.7990362396 1.362152211e-38
0.3927626662 0.03989650815 0.8032017497 1.362079203e-38
0.3890661591 0.03366113485 0.8033173006 1.352822786e-38
0.3955726348 0.03595225148 0.8175484942 1.352930546e-38
0.3910837951 0.05932949478 0.800264489 1.361970743e-38
0.4087403953 0.05859881619 0.8127444833 1.380300567e-38
0.3985414841 0.05764772078 0.8042434906 1.371007857e-38
0.3970799021 0.05458750148 0.8044209698 1.362040808e-38
0.3977231308 0.05085159602 0.8107199762 1.33449142e-38
0.4098500027 0.0485807496 0.8134418231 1.306904898e-38
0.4236800606 0.04309507259 0.8119606465 1.306940911e-38
0.4143020405 0.05566188268 0.8198880996 1.31612376e-38
0.4108526806 0.05621576811 0.8253009297 1.316087326e-38
0.4055323165 0.02884345567 0.8155359161 1.325235423e-38
0.4231266928 0.04848666946 0.8038036761 1.306832731e-38
0.4227386482 0.0377585039 0.8158110942 1.297684914e-38
0.4179509551 0.03989407304 0.8118886651 1.297756381e-38
0.4069176464 0.05135898238 0.8453175101 1.30693923e-38
0.4374298904 0.03397502652 0.8145087175 1.297754979e-38
0.3159370255 0.04940308153 0.8064475679 9.667165742e-39
0.3217300527 0.04525009407 0.8091348168 9.482812317e-39
0.3199938928 0.03962354078 0.802963187 9.298754566e-39
0.3196664233 0.0616920272 0.7971261477 8.650138349e-39
0.3276411926 0.05679929153 0.8196504025 8.00190889e-39
0.3210758321 0.04949249846 0.810791996 7.264356462e-39
0.3127526861 0.02830321121 0.8021290766 6.437845405e-39
0.3171589283 0.04766598415 0.8072755233 6.346018316e-39
0.3148117634 0.04891747063 0.807894949 6.254168807e-39
0.337645847 0.05544812526 0.8071876484 6.531096212e-39
0.3213586747 0.04915765775 0.8139973588 6.899151458e-39
0.3494510301 0.02933801994 0.7902912367 7.174655144e-39
0.331094125 0.05915319 0.7858210742 7.451236428e-39
0.3258389445 0.03808013713 0.7993596585 7.727460382e-39
0.3213345172 0.03662828462 0.8152343046 8.003685736e-39
0.3155016479 0.03453272675 0.7884000379 8.279195027e-39
0.3222799969 0.05001365142 0.8106860005 8.646906955e-39
0.3269659022 0.02510830327 0.7995437982 8.923500851e-39
0.3320580808 0.04169453973 0.8013721709 9.108250843e-39
0.3346468926 0.0589248224 0.7873114951 9.476314496e-39
0.3355780397 0.04209585579 0.7900699078 9.844749494e-39
0.3361458105 0.03634510288 0.7994163847 1.02121097e-38
0.3365014488 0.03023755282 0.7932807802 1.057978799e-38
0.3319838546 0.03254280149 0.799628106 1.094854248e-38
0.3437368009 0.04228346692 0.7852613085 1.140771296e-38
0.321424779 0.04695512882 0.8069902826 1.122511256e-38
0.3442665024 0.02881106868 0.7894932173 1.104252197e-38
0.3439133076 0.03275455444 0.7800483688 1.122583983e-38
0.3369415447 0.03435428567 0.8001240933 1.140950942e-38
0.3476490461 0.04484562829 0.7784294952 1.150170365e-38
0.348160759 0.06011048744 0.8106150331 1.168610052e-38
0.355209378 0.04497087877 0.793333848 1.177866329e-38
0.3685203041 0.02922727622 0.7921186537 1.187158339e-38
0.3520966054 0.04223291064 0.796768843 1.214709828e-38
0.3675607762 0.04387903677 0.7856061829 1.233076928e-38
0.3659190612 0.04618124558 0.7973221133 1.242439984e-38
0.3604449094 0.06036922157 0.7980089016 1.251731013e-38
0.3716748105 0.02894322341 0.7835303161 1.260878689e-38
0.348864306 0.0567463841 0.7895477634 1.270061959e-38
0.3765231847 0.03832792349 0.7967159764 1.279352848e-38
0.3728867392 0.05022314678 0.7962455597 1.288609405e-38
0.3635145256 0.04706368298 0.7961860758 1.297830089e-38
0.3646386507 0.05233110001 0.7915567388 1.307081602e-38
0.3657007342 0.04456765832 0.7793554399 1.307042085e-38
0.3768810294 0.04671727227 0.8284632887 1.316228297e-38
0.3756155168 0.04516208172 0.7963158222 1.325450382e-38
0.3593040861 0.04304891812 0.8041635442 1.343853915e-38
0.3926553897 0.01740693434 0.7859720725 1.353038166e-38
0.3638682282 0.05156896975 0.8113279991 1.371405265e-38
0.3899057297 0.04632798366 0.7987681007 1.371369532e-38
0.3891347204 0.05191218537 0.7948709861 1.380373995e-38
0.3849242552 0.04577348757 0.7926808487 1.389593699e-38
0.3876448387 0.04186675443 0.7902372816 1.407998072e-38
0.4245315191 0.04407390502 0.7952347627 1.380413092e-38
0.3950234831 0.04676004813 0.8156079523 1.352860481e-38
0.3956744615 0.06811785657 0.8112466174 1.325343884e-38
0.3988251077 0.03659845162 0.8036063333 1.297828688e-38
0.3900120379 0.04970645109 0.8019685326 1.325271296e-38
0.4045519443 0.04633006544 0.8045821681 1.361896194e-38
0.4199857478 0.05731386992 0.801155494 1.361858779e-38
0.3992011482 0.04931619655 0.8022748059 1.362111853e-38
0.4245591532 0.04135415652 0.8161887782 1.325343744e-38
0.4264251612 0.02272711859 0.8099461476 1.288537238e-38
0.4020628101 0.04945017726 0.8004000665 1.297792114e-38
0.418450273 0.05100867871 0.8136448592 1.316194666e-38
0.4110593582 0.0340050952 0.7912022189 1.325270175e-38
0.409884873 0.02975566724 0.8091890415 1.343601962e-38
0.4155034916 0.03168909933 0.8194901253 1.306868324e-38
0.4480820816 0.05878677687 0.8016012687 1.279353688e-38
0.4307864109 0.04500073858 0.8333268392 1.316088027e-38
0.4260269076 0.0349411477 0.8083613564 1.352821245e-38
0.415446967 0.05267616314 0.8106426227 1.325269755e-38
0.3101680731 0.04568732537 0.7962775419 9.66499513e-39
0.309301562 0.04112366926 0.8127203858 9.481345158e-39
0.3053499131 0.05123455805 0.8105960558 9.38985298e-39
0.3120323238 0.0628712953 0.8068382443 8.65120754e-39
0.328649573 0.04386157882 0.8047678097 8.002264819e-39
0.3143899092 0.05152040656 0.8237017665 7.1718021e-39
0.3166930733 0.04852687699 0.8106870958 6.43640487e-39
0.3344041132 0.0385461498 0.8182559881 6.160545254e-39
0.3197976719 0.05580218423 0.8015884139 5.978299383e-39
0.3177242752 0.03822645111 0.783488213 6.254872259e-39
0.3189142499 0.04012931785 0.7940178054 6.531450741e-39
0.3397443328 0.05346461745 0.8018669508 6.715476262e-39
0.3176245564 0.02412916687 0.7880454238 6.991340081e-39
0.337607338 0.03344225356 0.7989332832 7.359398129e-39
0.3143732631 0.04139734365 0.7867656725 7.727821917e-39
0.3260591731 0.05459344448 0.8022583657 8.004408806e-39
0.3385512852 0.02064137614 0.7993105955 8.372119332e-39
0.3327658961 0.06333845606 0.7950077449 8.647994362e-39
0.3313019306 0.0492289856 0.7883561305 9.015692277e-39
0.3364336158 0.03606792256 0.8027722707 9.291553294e-39
0.3208163785 0.03170660782 0.8096234417 9.568505922e-39
0.3441087473 0.03744271751 0.8032068619 9.937292645e-39
0.3425203931 0.03804630049 0.7837831423 1.039681765e-38
0.3527476919 0.06432097283 0.7919815443 1.094817675e-38
0.335315702 0.04759694528 0.8123555723 1.159102242e-38
0.3250813067 0.05436281177 0.7905173164 1.122367763e-38
0.3600590549 0.03902197551 0.796079475 1.094781801e-38
0.3552185539 0.04980114667 0.7959445834 1.103965911e-38
0.3530800116 0.04647477951 0.8011952657 1.12254825e-38
0.3599352852 0.06222164636 0.7880064794 1.141022969e-38
0.3588961804 0.05246448699 0.8078592229 1.159319023e-38
0.3698943717 0.05212153419 0.7972273678 1.1684674e-38
0.3512733979 0.04200651399 0.7977650445 1.177938215e-38
0.3617986855 0.03436375775 0.792040838 1.196341468e-38
0.3734492101 0.05934218226 0.7907495849 1.214744441e-38
0.3724135095 0.06310925705 0.8027037439 1.223964004e-38
0.3682388855 0.03956460292 0.7937711125 1.242330823e-38
0.3662162802 0.02988133382 0.7813314801 1.242330682e-38
0.3717582369 0.04968566017 0.8123302069 1.242437461e-38
0.348786491 0.04273311527 0.7911848581 1.26091148e-38
0.3713111052 0.04425357251 0.7943134773 1.279316274e-38
0.3835464547 0.04302636538 0.7914267052 1.279354109e-38
0.3654417611 0.04626912152 0.7825814482 1.27938816e-38
0.3794797437 0.03737520586 0.7879527551 1.288605762e-38
0.3790427248 0.0348462742 0.8024262384 1.306974122e-38
0.3783930962 0.04719581312 0.7918624156 1.316158933e-38
0.3696408594 0.05385705181 0.8042514522 1.325379056e-38
0.3864498935 0.04373548188 0.7968641364 1.343782729e-38
0.3839957267 0.05547715333 0.7917463222 1.362150109e-38
0.3752604325 0.05817562359 0.8016010095 1.371369812e-38
0.3825293404 0.03834558078 0.8073954079 1.389664744e-38
0.3882032183 0.04747629053 0.7966478166 1.417035607e-38
0.3809997313 0.04174556349 0.8051519668 1.444587096e-38
0.3950645306 0.0417638808 0.8269569175 1.389486499e-38
0.4014953243 0.05548542454 0.7818146905 1.34367497e-38
0.391747688 0.05224610192 0.8126528747 1.28868003e-38
0.3905967151 0.04500393071 0.8190177893 1.242690676e-38
0.4167909607 0.06419218677 0.7892727276 1.288608704e-38
0.4107632199 0.03491724093 0.7974267545 1.343565949e-38
0.406595508 0.03802871213 0.7951859441 1.352748938e-38
0.4119935009 0.04617825785 0.813459469 1.371189885e-38
0.3809291149 0.04106341989 0.7907802046 1.316198309e-38
0.4035304234 0.06319659777 0.8178976958 1.27027902e-38
0.4171356738 0.04540259827 0.8042460879 1.288644718e-38
0.4166131771 0.04316834861 0.809791948 1.316122919e-38
0.3893725628 0.02565022777 0.804185141 1.334453585e-38
0.4176360685 0.0407046542 0.8196627286 1.3619678e-38
0.3968110014 0.04208631198 0.8310817715 1.316049631e-38
0.4031706673 0.04102334269 0.813338559 1.270168878e-38
0.4264122501 0.0539012579 0.8230378085 1.33438324e-38
0.4090937146 0.04579306547 0.7926832962 1.39870326e-38
0.4195059206 0.05822174926 0.7961046073 1.362004374e-38
0.3056397984 0.05791849215 0.798137655 1.003196577e-38
0.3177425269 0.04854676794 0.8024350274 9.018185187e-39
0.3171731503 0.04876118345 0.8082123402 8.094813577e-39
0.3111250736 0.03651162218 0.8039799353 7.079607872e-39
0.3438376869 0.0509822948 0.7881494277 6.159100516e-39
0.324664619 0.07428604086 0.7988170575 5.885747823e-39
0.3133325765 0.0582377541 0.8055272044 5.610594462e-39
0.3442899801 0.03869031916 0.8224744338 5.795694778e-39
0.3298089651 0.03873572948 0.7956879842 6.071913126e-39
0.3183316257 0.03392833235 0.8122489247 6.439968372e-39
0.3159142618 0.05216121429 0.8054910636 6.807308955e-39
0.3556906251 0.03024608353 0.7983715741 7.083531507e-39
0.3303323126 0.0521836227 0.8094154515 7.451956696e-39
0.3425236247 0.0369312618 0.8070175308 7.818589623e-39
0.3270297341 0.05180663643 0.7957671191 8.093745787e-39
0.3211451082 0.04064725126 0.8082847119 8.369978148e-39
0.3334818903 0.03512584122 0.8031127697 8.554355395e-39
0.3448408472 0.03766422658 0.7947777101 8.829852074e-39
0.3558208167 0.04135275196 0.803673624 9.105720098e-39
0.3435903162 0.02928951666 0.8039483071 9.384818114e-39
0.347002538 0.05132660384 0.8053110134 9.751799965e-39
0.3384667424 0.04185325213 0.7987262138 1.021133478e-38
0.3347434634 0.05011594313 0.7861127382 1.076306522e-38
0.3430465974 0.03297449883 0.8067028963 1.058011309e-38
0.3447171043 0.03037708124 0.7856460548 1.03975239e-38
0.3442536304 0.04582842644 0.8118226516 1.058191797e-38
0.356723007 0.05254002615 0.8007062471 1.085814332e-38
0.3538685344 0.04018933601 0.7749353634 1.104181571e-38
0.3605792888 0.04223750508 0.7849124341 1.122549091e-38
0.364907673 0.05623627125 0.7937811206 1.140916751e-38
0.3430354322 0.05192323371 0.7802796988 1.150351133e-38
0.3504240427 0.04400655701 0.7954092445 1.168682078e-38
0.369155078 0.048634112 0.8010310464 1.196232727e-38
0.366138818 0.0627937551 0.8013968998 1.205488023e-38
0.3729992367 0.06441970671 0.7985095583 1.214563533e-38
0.368402618 0.03657647494 0.799611176 1.223782676e-38
0.3732241216 0.0520720589 0.7868746831 1.223817288e-38
0.375426138 0.02997514924 0.8153628856 1.242183126e-38
0.362837379 0.04956820751 0.8103431973 1.251369198e-38
0.3680672881 0.0416688985 0.7804635253 1.251443466e-38
0.3772873926 0.0478976154 0.7966812567 1.251551086e-38
0.4064547833 0.05031417547 0.7883586722 1.260985889e-38
0.3706951319 0.0469392299 0.8003805866 1.270133425e-38
0.3686821183 0.04184593737 0.8009131956 1.279388581e-38
0.3665313164 0.05214680981 0.7881248215 1.288572971e-38
0.3852923927 0.03113943837 0.7847294235 1.306940911e-38
0.362678047 0.06209150568 0.7986107995 1.334527854e-38
0.3711104109 0.04759938281 0.8015741673 1.343819443e-38
0.3926339644 0.03936673374 0.8018468583 1.353037745e-38
0.3850219895 0.04113854022 0.8152358178 1.371260371e-38
0.3903749195 0.05285833318 0.7945522284 1.38951985e-38
0.3798346594 0.03980926447 0.8114796187 1.361897595e-38
0.376826126 0.04166517423 0.8086433354 1.334525471e-38
0.3993472097 0.0624175808 0.7977761121 1.316157531e-38
0.3998039812 0.06100731227 0.8206047401 1.306974823e-38
0.3964923463 0.04003020593 0.8137751377 1.325306889e-38
0.3991292083 0.04957159944 0.8109663134 1.343638536e-38
0.4129967351 0.03640202557 0.8185080732 1.371082125e-38
0.4061358001 0.05282168863 0.8155100407 1.407854439e-38
0.4081702965 0.04223273985 0.7991793636 1.352755384e-38
0.3929586855 0.05680690053 0.8105150794 1.306870986e-38
0.4102703339 0.03940142088 0.8099982154 1.306868604e-38
0.388240928 0.04464007725 0.8128987794 1.316051313e-38
0.4275314073 0.03481200465 0.8069445208 1.334381698e-38
0.4117405142 0.04299503807 0.8028784008 1.343563706e-38
0.418032641 0.06243037486 0.8132970876 1.316011516e-38
0.410067957 0.03995014944 0.8044964124 1.288534856e-38
0.408229481 0.06132864437 0.8012470034 1.316016e-38
0.4263440919 0.06775317932 0.8229088343 1.352749778e-38
0.4133256879 0.05226373391 0.8114499502 1.334418272e-38
0.3053517769 0.03553976381 0.8086052427 5.428707322e-39
0.330212771 0.04947477886 0.8016652019 5.613092977e-39
0.3141396786 0.05166461434 0.8115953999 6.073343852e-39
0.3299577886 0.03496805724 0.8002560528 6.623637963e-39
0.3247227647 0.04473238198 0.8084493763 6.898066853e-39
0.3119893493 0.03763807799 0.7919342892 7.265774576e-39
0.3359590361 0.05305755932 0.8085081572 7.541646804e-39
0.3341460603 0.063916976 0.8090947003 7.908635661e-39
0.3393049313 0.03751176202 0.795967687 8.000478164e-39
0.3283108767 0.05086309498 0.802025082 8.184863818e-39
0.3180166511 0.0394325555 0.7984462642 8.461443702e-39
0.3372659964 0.04582363302 0.82032523 8.738742451e-39
0.3594553983 0.05530264196 0.805877099 8.924564436e-39
0.342107187 0.0308686834 0.8202193648 9.108238231e-39
0.3576863445 0.05584684242 0.8017573957 9.568854845e-39
0.3391145364 0.04121545653 0.7945443929 1.002838826e-38
0.3546799673 0.03386548102 0.7834494785 9.93690869e-39
0.3499383873 0.03573928586 0.7851717921 9.845793461e-39
0.3374255086 0.0505305803 0.8031283384 1.021600951e-38
0.3539275071 0.03802330119 0.7712031311 1.058263683e-38
0.3438737429 0.06189135461 0.8034632894 1.076559316e-38
0.3461460257 0.04906751808 0.7853389992 1.094962569e-38
0.3568639184 0.05808124813 0.772443699 1.113365681e-38
0.3553067055 0.02772040968 0.7976240617 1.131768374e-38
0.3639231823 0.04719133431 0.802663738 1.150207079e-38
0.3558725907 0.05858231581 0.8076031602 1.177793741e-38
0.3585959726 0.05313851306 0.7856760135 1.187264417e-38
0.3563482737 0.06246415061 0.7911349088 1.196053782e-38
0.3669003807 0.03611677125 0.7965817313 1.205273485e-38
0.3672378396 0.06031202878 0.7887043893 1.214491786e-38
0.3587949209 0.06662020574 0.7933007356 1.223709948e-38
0.3719773826 0.04352005176 0.7944407321 1.233038392e-38
0.3714329225 0.03230943441 0.7959531489 1.223892257e-38
0.3657237515 0.05278176238 0.8137407049 1.22392827e-38
0.3722010659 0.05835151669 0.8033254258 1.233363213e-38
0.3632489159 0.05429822638 0.8111970385 1.242582776e-38
0.3874017159 0.04973970636 0.7943783971 1.251838212e-38
0.3839442404 0.04613928927 0.773234534 1.261022603e-38
0.3789044194 0.04706980939 0.7886892836 1.279318796e-38
0.3738574203 0.05595382243 0.7967537862 1.306977905e-38
0.3824314804 0.05215984493 0.8073146961 1.316305929e-38
0.3591638642 0.02721003666 0.806971819 1.325487937e-38
0.3838554358 0.03395372582 0.8153818868 1.334669945e-38
0.3872659954 0.0434329979 0.8072893953 1.343638256e-38
0.4056365055 0.05437214197 0.8115071848 1.334347226e-38
0.3967705467 0.05595364022 0.7976438706 1.325343603e-38
0.3777191959 0.04909605598 0.8000751954 1.34367553e-38
0.4080030971 0.05703680001 0.7966511565 1.371225478e-38
0.3887773021 0.057049088 0.8123076257 1.362041228e-38
0.3988837286 0.05170096805 0.8026089559 1.352822085e-38
0.3980511133 0.0438035395 0.8081773746 1.398632494e-38
0.4054663124 0.05449013717 0.7949575387 1.44462311e-38
0.4016358551 0.04035542563 0.8013606249 1.389558666e-38
0.4180531717 0.05151749869 0.8153849339 1.343603784e-38
0.4078264932 0.04966900913 0.8087732825 1.33438324e-38
0.3944286555 0.03559468681 0.808340956 1.32519913e-38
0.4039130826 0.04729711226 0.793244298 1.325198569e-38
0.4145076623 0.03993284743 0.7912160274 1.334345825e-38
0.4165802176 0.06073523474 0.8019875782 1.325161995e-38
0.4140663895 0.05532756385 0.7988811286 1.3160153e-38
0.422368763 0.02707711516 0.7987625651 1.306868744e-38
0.4229485127 0.04841254626 0.8079586202 1.306832871e-38
0.4309717054 0.04161092847 0.8042658754 1.297756941e-38
0.3358880065 0.04579026624 0.7949818261 5.245750992e-39
0.3350485685 0.04159468828 0.8102034499 5.429779316e-39
0.3526898674 0.04582994136 0.8179701674 5.980790891e-39
0.34130596 0.05562718839 0.8079468136 6.532161199e-39
0.3358886974 0.04878240083 0.8357097023 6.898066853e-39
0.3161179308 0.03501628909 0.8021939609 7.264338246e-39
0.3253626552 0.05478540892 0.7971357808 7.448016244e-39
0.3302349616 0.04121858131 0.8004716732 7.723885669e-39
0.3289086352 0.05488927447 0.804660498 7.908638464e-39
0.3337560367 0.03735652407 0.7944429753 8.09231366e-39
0.3595351152 0.06228733359 0.796501721 8.277425187e-39
0.3349978583 0.05093645639 0.8048920709 8.463959032e-39
0.3386098959 0.05878284107 0.792856576 8.647981751e-39
0.3417862472 0.0375922188 0.7954237197 8.740543119e-39
0.3388089827 0.03652912236 0.7910231203 9.016059417e-39
0.3434794981 0.05169028218 0.8106709196 9.383394395e-39
0.36917981 0.04986440535 0.7945438879 9.385181051e-39
0.3412130771 0.05595801544 0.7948609033 9.478094145e-39
0.3492246074 0.04980719523 0.8065519129 9.845437531e-39
0.3561124393 0.04223145965 0.7933636229 1.021278372e-38
0.3592340425 0.05356717677 0.7948083159 1.039610158e-38
0.3505633143 0.03936851456 0.7926141158 1.057941244e-38
0.344634406 0.04814727035 0.8022257011 1.076344217e-38
0.3458234421 0.03505758632 0.8030735975 1.103930459e-38
0.3511542765 0.04348377195 0.790266475 1.113436727e-38
0.3446673753 0.04414561297 0.7953913697 1.122620557e-38
0.3387108562 0.03437159805 0.800987763 1.14091633e-38
0.3532039148 0.04504689337 0.7743325468 1.159212664e-38
0.3603540866 0.03894296179 0.8154169515 1.168433208e-38
0.3688684196 0.05242640852 0.7964976991 1.177687383e-38
0.3497493314 0.04923408585 0.8067743941 1.186977431e-38
0.3703166068 0.0485558629 0.7903089019 1.196376501e-38
0.3851430475 0.03894264164 0.7912812993 1.196341048e-38
0.3542518039 0.07438561609 0.8124662381 1.196341468e-38
0.3774426882 0.04437068236 0.7986213081 1.205668931e-38
0.3673579458 0.05523533808 0.8184090425 1.215068e-38
0.3709644515 0.06307560213 0.7821850762 1.205884871e-38
0.3805797681 0.04936796984 0.8044603211 1.196738036e-38
0.3921455619 0.0168285898 0.7870007106 1.233473215e-38
0.3923687192 0.04640702201 0.7978100541 1.270244548e-38
0.3722787087 0.05417977603 0.8056162067 1.279429499e-38
0.3853448587 0.04579712972 0.7784607095 1.288610946e-38
0.3927335346 0.05115170908 0.7944720985 1.297756661e-38
0.3707447928 0.05133537895 0.801623222 1.306940211e-38
0.3963671736 0.03163195465 0.8151790739 1.306976224e-38
0.3828857434 0.05547445365 0.8084656099 1.307014199e-38
0.4152182627 0.06569762103 0.7984631645 1.325347527e-38
0.38134591 0.05193392582 0.7930652045 1.343784131e-38
0.3703203378 0.06217775813 0.8106068595 1.343674269e-38
0.3959117318 0.05212776547 0.7923030798 1.343674409e-38
0.4097467788 0.04343514033 0.8011464603 1.371225198e-38
0.4202420155 0.05403652682 0.7996717203 1.398775707e-38
0.3950502845 0.04278225872 0.7831443954 1.371224918e-38
0.4185840917 0.04318811692 0.8013695845 1.343674269e-38
0.4064457036 0.03806438361 0.8122091107 1.3343831e-38
0.4133744995 0.05290661725 0.7865207705 1.32509165e-38
0.4167637971 0.06410509024 0.7992346195 1.32509137e-38
0.4163072084 0.04279200601 0.8195256301 1.325128084e-38
0.4308033781 0.06778166617 0.8234901332 1.315945375e-38
0.4085872814 0.03430961082 0.8200481186 1.315945235e-38
0.4167845225 0.04618886777 0.8158315388 1.288430459e-38
0.4376171495 0.06246863896 0.823408514 1.270135387e-38
0.4299987884 0.05914559722 0.8035227553 1.270028047e-38
0.3285587225 0.05558979348 0.8218030885 6.53109341e-39
0.3415270481 0.04237597342 0.8242673029 6.898428388e-39
0.3431246321 0.04612761355 0.8182812846 7.356894009e-39
0.3477298337 0.07014153699 0.7995406755 7.447660315e-39
0.3397823753 0.04832308136 0.7975597929 7.540574811e-39
0.3265693563 0.06845948251 0.7986839318 7.724967472e-39
0.336827767 0.04713860006 0.8268788678 8.000478164e-39
0.3395780882 0.04712742811 0.7859588108 8.093751392e-39
0.350655583 0.05239112772 0.823718052 8.278138448e-39
0.3488678845 0.05095822329 0.7997919755 8.371047339e-39
0.3420979496 0.05316891557 0.7927259757 8.463604504e-39
0.3335751197 0.04385604829 0.8127285936 8.556521802e-39
0.3440135196 0.04675576592 0.7874343786 8.740903253e-39
0.3278398304 0.05265001707 0.8057733855 8.925643436e-39
0.3494896018 0.04863120305 0.8037778825 9.10931583e-39
0.3428202823 0.06094050027 0.802424052 9.476659216e-39
0.3494879844 0.0493869792 0.7901126059 9.9358409e-39
0.3621108624 0.04441634632 0.7694636296 1.002803933e-38
0.3595006742 0.05429040863 0.8008987789 1.021206485e-38
0.3513444158 0.05805948135 0.7986137787 1.048685107e-38
0.3487069387 0.06510774757 0.7929765224 1.076450856e-38
0.358266747 0.05273196561 0.7898271158 1.076666095e-38
0.3580403674 0.03974072071 0.8100818031 1.076558896e-38
0.3902582711 0.04329597611 0.7879747879 1.094818936e-38
0.3712544111 0.05935001797 0.7945914871 1.122477765e-38
0.3699251355 0.03513852584 0.8049082823 1.131662015e-38
0.3625589322 0.04879995731 0.8031913888 1.140952344e-38
0.3681437778 0.04895569426 0.7845835062 1.150278686e-38
0.3634195039 0.05528782648 0.814974836 1.168825571e-38
0.3900849254 0.04857987485 0.7843084831 1.168861725e-38
0.3538923739 0.04763851966 0.7911962296 1.178009682e-38
0.3817269944 0.03781991721 0.7995835179 1.178009962e-38
0.3725620013 0.05320189174 0.7952145412 1.187373298e-38
0.37197091 0.07072745967 0.788925634 1.159966703e-38
0.3836052393 0.07685181426 0.7808068471 1.141636177e-38
0.3854302316 0.05893764305 0.7889010444 1.187590499e-38
0.3719081331 0.05070639393 0.8003079103 1.233473075e-38
0.3758983122 0.05839158876 0.7829195749 1.242657465e-38
0.3703868966 0.06013117495 0.7943807833 1.25180388e-38
0.3769580011 0.05123323681 0.7849088026 1.260950436e-38
0.3809409289 0.04644772147 0.7874388296 1.270205872e-38
0.3842212877 0.06283224456 0.7967606995 1.279497181e-38
0.3926608237 0.0504000602 0.8040277275 1.297829528e-38
0.3880136782 0.02781382938 0.8055764656 1.306978326e-38
0.4047390894 0.04869514711 0.8067817776 1.316160895e-38
0.4086562937 0.05703145985 0.7988485599 1.325343463e-38
0.4126631231 0.04683731732 0.7910499113 1.34367511e-38
0.4083883255 0.04921350678 0.7965550499 1.343747277e-38
0.416183497 0.051259769 0.7919455201 1.352821385e-38
0.4007799954 0.06366040036 0.8034135495 1.34360028e-38
0.42087912 0.050554821 0.8149115691 1.343601121e-38
0.400659372 0.06112028315 0.8045127323 1.334418552e-38
0.4088716932 0.03737327532 0.8056949293 1.325163396e-38
0.4183962839 0.04982861606 0.8082528822 1.325127663e-38
0.4338637959 0.06425493519 0.8088722795 1.325128924e-38
0.4096558359 0.04250010464 0.7968454454 1.315946636e-38
0.4103594173 0.04347709248 0.7994214536 1.315910202e-38
0.4164454599 0.06152093137 0.8204314748 1.269920147e-38
0.4259352224 0.05931799972 0.7931844155 1.233113922e-38
0.4067762653 0.04680571754 0.7922775675 1.242261458e-38
0.3466462665 0.05224418979 0.824908798 5.97973151e-39
0.3405687822 0.06409634187 0.8321357016 6.347059481e-39
0.3474382137 0.04575746587 0.8028212701 6.8066013e-39
0.3295294904 0.07981479078 0.7963603208 6.71477281e-39
0.3359191665 0.0621836343 0.7870689702 6.53110462e-39
0.3291591083 0.06568540035 0.7968169996 7.0821204e-39
0.3465687607 0.03648311356 0.8078920439 7.541299282e-39
0.3495936022 0.0551725595 0.8038165382 7.724614344e-39
0.346724921 0.04957663316 0.817541672 7.908288139e-39
0.3373583045 0.05883212698 0.7887471771 8.000843903e-39
0.3311545761 0.06553528176 0.806258738 8.093755596e-39
0.3393766701 0.06496742837 0.7961457729 8.279937715e-39
0.3456336716 0.05590235703 0.7935082667 8.465754096e-39
0.3643589426 0.03222644063 0.8081285675 8.649418081e-39
0.3409100776 0.06487794568 0.8086476338 8.924925971e-39
0.3417417182 0.02377014894 0.811358133 9.200435262e-39
0.3502293446 0.04989364739 0.8033564898 9.475944553e-39
0.3518439511 0.05366359776 0.8006377219 9.660337214e-39
0.3570363733 0.05617200155 0.7975588475 9.844718665e-39
0.3509729707 0.05215898582 0.7845451005 1.002910012e-38
0.3696743708 0.06417458549 0.7924831991 1.030640027e-38
0.3485774297 0.0677508591 0.8057265811 1.058154942e-38
0.3443077584 0.042003944 0.7922682925 1.076486869e-38
0.3844337519 0.0572247769 0.8138901231 1.094890542e-38
0.3670369087 0.05512540557 0.8061877475 1.104145978e-38
0.3767311743 0.04809871276 0.8074161769 1.113365541e-38
0.3648486166 0.05038392841 0.7819706243 1.122620417e-38
0.354882916 0.05102166642 0.7976481407 1.131911306e-38
0.3654383185 0.06321263036 0.7987896484 1.141274502e-38
0.3692956781 0.03421022705 0.7962472242 1.150458472e-38
0.3730769266 0.04752868133 0.7805687186 1.159677895e-38
0.340403896 0.04446355524 0.798974115 1.168861585e-38
0.3788887192 0.05469685311 0.7885238144 1.178045835e-38
0.3714213313 0.07090792187 0.7961747278 1.168898859e-38
0.3850880496 0.05421860403 0.8018855903 1.168971026e-38
0.4011594148 0.05325839327 0.8094345609 1.187374419e-38
0.3848040483 0.06493950415 0.8113536933 1.214961221e-38
0.3889244644 0.04775572924 0.7953998143 1.224180925e-38
0.3717225101 0.06566923574 0.8032356336 1.233399927e-38
0.3949613976 0.06668260129 0.8096769605 1.242547183e-38
0.3835921484 0.04768541664 0.7956198734 1.251874366e-38
0.3916515497 0.04829171541 0.7890045357 1.261022322e-38
0.3992791213 0.0471799509 0.7946748325 1.270170139e-38
0.4228570467 0.06927666349 0.7941398307 1.279389702e-38
0.4007610238 0.0603674679 0.7962206636 1.288465912e-38
0.4014086411 0.06591483993 0.8218706689 1.297685615e-38
0.4041037756 0.06167538793 0.7783211999 1.306941612e-38
0.4057384944 0.05978631069 0.7921747013 1.316089989e-38
0.4085421133 0.0530874694 0.7928927606 1.325234302e-38
0.4105607189 0.04713918149 0.7994968169 1.325302685e-38
0.3933416944 0.04182026765 0.8068679105 1.325376254e-38
0.4078495451 0.04444473278 0.7952375595 1.316122919e-38
0.424552268 0.0570700516 0.8132565772 1.316087607e-38
0.4139350705 0.0535019651 0.8186778841 1.316088167e-38
0.4173956404 0.06762365979 0.8059132105 1.325273258e-38
0.4405794141 0.05926805921 0.8014964979 1.33435087e-38
0.4228455948 0.04635731696 0.8118340423 1.343461552e-38
0.4101561101 0.06587262554 0.8022469151 1.29750695e-38
0.4226934033 0.05600741687 0.7948561199 1.251552628e-38
0.4198599176 0.05146946706 0.800052796 1.251516194e-38
0.3423537 0.05061270663 0.7970034127 6.349576213e-39
0.3447038727 0.03127544567 0.8094186204 5.980806305e-39
0.3395714488 0.05605322661 0.8072355395 5.61310699e-39
0.3393443231 0.07112949808 0.8052950384 6.347433628e-39
0.3453471942 0.07214981183 0.8191409446 7.173951692e-39
0.3383582269 0.05717957533 0.8080276361 7.357622684e-39
0.3453372967 0.04718657399 0.8003534266 7.540937747e-39
0.3410647316 0.05932811722 0.8144835696 7.634210975e-39
0.3363930187 0.06612483291 0.8129861258 7.727122669e-39
0.3513997567 0.05773057093 0.8057134698 7.911869858e-39
0.3439641944 0.05428050897 0.8020891399 8.188449741e-39
0.3572020531 0.06284717952 0.8017879232 8.465028223e-39
0.3435716073 0.05282776133 0.79892312 8.740896247e-39
0.3644669949 0.04865948196 0.7892228101 8.833091876e-39
0.3358318168 0.04587952184 0.7825867332 9.016412544e-39
0.3621766964 0.05855229419 0.8000815478 9.201169543e-39
0.353679018 0.04531210221 0.8005803783 9.477382286e-39
0.3733553408 0.05413364192 0.8024609147 9.662837131e-39
0.359743781 0.04364543625 0.7846192969 9.938342218e-39
0.3574680122 0.04462336131 0.7947363997 1.03975197e-38
0.3516924852 0.05713227291 0.7981758341 1.085705871e-38
0.3761623037 0.05025799818 0.8110431248 1.085742025e-38
0.3665190176 0.05021501561 0.8118632961 1.094961728e-38
0.3600753967 0.07143230112 0.8052795403 1.104253318e-38
0.3569818132 0.06969302599 0.8009517239 1.113364981e-38
0.3778787553 0.04315614259 0.8070480956 1.11358008e-38
0.3608689198 0.05486926093 0.8120151991 1.113580781e-38
0.3847488682 0.05917723504 0.7783417905 1.131948581e-38
0.3794604545 0.05457996776 0.800942974 1.150352114e-38
0.3747707621 0.05734737465 0.8076030609 1.159572097e-38
0.3735214189 0.05017026749 0.8013476582 1.168754806e-38
0.3604875922 0.05910804661 0.7994491994 1.177973388e-38
0.3905347778 0.03086780349 0.806507337 1.196340767e-38
0.3887843623 0.05788991474 0.7990945112 1.196341188e-38
0.3911063197 0.07214192557 0.7907680386 1.205632918e-38
0.3848981058 0.06600165603 0.7953253524 1.205741238e-38
0.3854936491 0.04799570812 0.7996227711 1.214924507e-38
0.4019589669 0.05672534401 0.8056501342 1.22414365e-38
0.3854352186 0.06289418588 0.8060770503 1.2333272e-38
0.4026884072 0.05484909433 0.7897289168 1.242546622e-38
0.3974613793 0.04384315369 0.7990677159 1.251802339e-38
0.4003900058 0.03898758437 0.8032610529 1.261022042e-38
0.4042412684 0.06121269157 0.8023778258 1.270062519e-38
0.4018696934 0.06087758095 0.810664927 1.270098673e-38
0.4018398674 0.06837904301 0.7900455259 1.270170839e-38
0.3928644318 0.03163602764 0.8059442893 1.288538359e-38
0.4040489014 0.0566664283 0.7877286634 1.306903356e-38
0.4028748552 0.06090673265 0.7956138172 1.307044747e-38
0.3972768941 0.03299789814 0.8087853519 1.307045868e-38
0.4130447764 0.04326422743 0.8088973938 1.307046849e-38
0.4125964407 0.06854336899 0.7903664636 1.316122919e-38
0.4047549821 0.05665089338 0.8277242074 1.316122919e-38
0.415810896 0.06001366616 0.8231221174 1.325271577e-38
0.4157821306 0.05634103208 0.8111349231 1.352787333e-38
0.4151673788 0.05367689954 0.7920596778 1.380266095e-38
0.4123571135 0.06855524379 0.8099071864 1.325164517e-38
0.4012112968 0.06037386568 0.8097239784 1.27924691e-38
0.4283001793 0.02984098304 0.8007178546 1.27006364e-38
0.3341008986 0.07025640244 0.7979644142 6.077298316e-39
0.3528271466 0.06446320217 0.8091235184 6.073359266e-39
0.347754694 0.06579696079 0.813762124 6.165194763e-39
0.3532497544 0.05892384765 0.8208369629 6.623654779e-39
0.3390175938 0.04587768506 0.8154884153 7.081035795e-39
0.3319189201 0.06852268761 0.8024780126 7.173227221e-39
0.3351675674 0.05523310797 0.8246950587 7.265781583e-39
0.339035278 0.0624644552 0.8059632297 7.081395928e-39
0.3355759826 0.05636261943 0.8277847836 6.897366204e-39
0.34799332 0.06659160877 0.8028058374 7.453044103e-39
0.349349939 0.06348241824 0.7931775718 7.911862852e-39
0.3499681077 0.07976884093 0.8001659301 8.095892576e-39
0.3493353621 0.054946676 0.7838997867 8.279923702e-39
0.3465074192 0.05956418679 0.8012064441 8.465749892e-39
0.3639714584 0.05051290979 0.8071444345 8.649076165e-39
0.3616830954 0.0501463038 0.8172303454 8.834554832e-39
0.3522669996 0.05499309836 0.806817268 9.11040604e-39
0.3428891049 0.06873995862 0.8083439037 9.385898515e-39
0.361142539 0.05991309752 0.8170286022 9.661403603e-39
0.3662140586 0.07529236695 0.806653486 1.002874419e-38
0.3584098187 0.05513737812 0.8071193974 1.03964421e-38
0.3697751059 0.03839454099 0.7970369924 1.039787563e-38
0.3483222681 0.05698598129 0.7922992603 1.03985987e-38
0.3634725603 0.06514249684 0.7956067185 1.05822767e-38
0.3682805914 0.05400920411 0.7956792478 1.067411219e-38
0.3601259778 0.03978937873 0.7964398636 1.076558896e-38
0.3680916699 0.06581320277 0.7989234676 1.085743426e-38
0.3836370723 0.05331036983 0.809205173 1.104255139e-38
0.3671085057 0.05602302123 0.7981135175 1.12262322e-38
0.3475566859 0.06108033866 0.805463538 1.131951383e-38
0.3946423014 0.07063140427 0.8168339832 1.14124017e-38
0.3595012134 0.05847214887 0.8149238897 1.159533141e-38
0.3760453623 0.0591343457 0.7883522216 1.186940577e-38
0.3814946666 0.05956567036 0.8028138634 1.187012604e-38
0.380311587 0.06531496677 0.8042243175 1.196268881e-38
0.3753784623 0.05958756679 0.7991013937 1.196305875e-38
0.3865975185 0.06944313741 0.7941814953 1.196341608e-38
0.4062022606 0.06603466099 0.7909550295 1.205668511e-38
0.4054387193 0.040099187 0.8048637585 1.214923526e-38
0.3820493172 0.06406400311 0.7811791921 1.224214556e-38
0.4090565174 0.04735296631 0.8047433889 1.233470412e-38
0.3863969425 0.06965794375 0.7978103199 1.242618649e-38
0.3972828216 0.05909357837 0.7912200386 1.251694999e-38
0.3932091594 0.07029156773 0.7916029835 1.260914843e-38
0.4031121916 0.05156203847 0.7939868332 1.270170279e-38
0.4139462359 0.04418381146 0.7902962409 1.270170419e-38
0.387609317 0.04672790536 0.7995162481 1.279389001e-38
0.3941328508 0.0525642494 0.7924382625 1.27949578e-38
0.4012401824 0.0556810772 0.8123047332 1.279567667e-38
0.3997400277 0.05995438825 0.7973031519 1.307046849e-38
0.4076180212 0.06333782887 0.8056460558 1.325341782e-38
0.427591505 0.05036602841 0.8075294846 1.325377235e-38
0.4018566607 0.06501018825 0.797289875 1.316229838e-38
0.4030810317 0.06896065182 0.796631556 1.334417992e-38
0.4496660338 0.05674475317 0.8046574769 1.343530356e-38
0.4192237484 0.04445133776 0.8143322032 1.306796858e-38
0.4301756113 0.05426304624 0.8118202028 1.27006364e-38
0.4158964164 0.06903375156 0.8116019503 1.260845198e-38
0.3255393439 0.04879682532 0.8082491015 6.258113462e-39
0.3390872174 0.07551087107 0.8015121837 6.716929408e-39
0.3424722846 0.05502519561 0.7996690494 6.808403369e-39
0.344382275 0.05369649934 0.814890928 6.990275094e-39
0.3399355502 0.06310234085 0.8225685243 6.989193292e-39
0.3509214549 0.06034324048 0.8084506355 6.989193292e-39
0.3386670578 0.08814616577 0.8130782406 6.530374544e-39
0.3344538159 0.05972736961 0.7950571868 6.163401101e-39
0.3443948286 0.0458322815 0.8014088364 6.902401069e-39
0.3662966835 0.05685753659 0.8077908859 7.728554796e-39
0.3754945876 0.05914247461 0.8042666822 7.820024553e-39
0.3590965911 0.05391638426 0.7990954953 7.912221584e-39
0.3586391417 0.04357788726 0.7854548767 8.098405105e-39
0.3556716957 0.04650114926 0.8092301367 8.281365638e-39
0.3438959252 0.05558701851 0.8165341507 8.46827363e-39
0.348824725 0.04829309603 0.8001791035 8.743055647e-39
0.3806272722 0.06043609136 0.8167179403 9.109674562e-39
0.3747876673 0.05210543236 0.7920622131 9.477013744e-39
0.3625783861 0.0608783962 0.7843863747 9.753950958e-39
0.3695111376 0.06926031634 0.8155404386 1.002910012e-38
0.367135351 0.05786033124 0.7836490275 9.938343619e-39
0.3687822393 0.05961351937 0.7921502309 9.938353428e-39
0.3660169793 0.04570840789 0.8045979068 1.012239296e-38
0.3764145298 0.04708279738 0.8036389419 1.030641568e-38
0.3704818421 0.04740083394 0.8051453255 1.039896163e-38
0.3712796211 0.06692300908 0.8112154871 1.058299556e-38
0.3879052131 0.05669451773 0.7883835394 1.076702809e-38
0.3587395545 0.05115630365 0.7812069199 1.104290172e-38
0.3776612423 0.06043757962 0.785055553 1.113546169e-38
