# .PCD v0.7 - Point Cloud Data file format
VERSION 0.7
FIELDS x y z rgb
SIZE 4 4 4 4
TYPE F F F F
COUNT 1 1 1 1
WIDTH 935
HEIGHT 1
VIEWPOINT 0 0 0 1 0 0 0
POINTS 935
DATA ascii
-0.46465907 -0.029554287 0.86200005 2.390255046e-39
-0.46301717 -0.029554287 0.86200005 3.031684004e-39
-0.46298099 -0.029657146 0.86500007 3.674197567e-39
-0.46133336 -0.029657146 0.86500007 4.133400271e-39
-0.45968574 -0.029657146 0.86500007 4.689783024e-39
-0.45803812 -0.029657146 0.86500007 7.838726282e-39
-0.50780952 -0.027847618 0.86000001 1.10497905e-38
-0.50617141 -0.027847618 0.86000001 1.150933653e-38
-0.50570667 -0.027912384 0.86200005 1.169265859e-38
-0.50406474 -0.027912384 0.86200005 1.187918543e-38
-0.50009143 -0.027782857 0.85800004 1.197100832e-38
-0.49729526 -0.027718097 0.85600007 1.215467931e-38
-0.49566481 -0.027718097 0.85600007 1.188060915e-38
-0.49518856 -0.027782857 0.85800004 1.16054642e-38
-0.49240384 -0.027718097 0.85600007 1.142036248e-38
-0.49077335 -0.027718097 0.85600007 1.114377279e-38
-0.48800001 -0.027653335 0.85400003 1.086790196e-38
-0.48409525 -0.02752381 0.85000002 1.059060041e-38
-0.48361143 -0.027588574 0.85200006 1.013070406e-38
-0.48198861 -0.027588574 0.85200006 9.673664964e-39
-0.48036575 -0.027588574 0.85200006 9.302004178e-39
-0.47761905 -0.02752381 0.85000002 8.932523811e-39
-0.47600001 -0.02752381 0.85000002 8.377580192e-39
-0.47549716 -0.027588574 0.85200006 7.822601541e-39
-0.4738743 -0.027588574 0.85200006 7.179734851e-39
-0.47336 -0.027653335 0.85400003 6.5361549e-39
-0.47173333 -0.027653335 0.85400003 5.706034097e-39
-0.47120765 -0.027718097 0.85600007 4.876636365e-39
-0.46957716 -0.027718097 0.85600007 4.140867791e-39
-0.46794668 -0.027718097 0.85600007 3.405456547e-39
-0.46740574 -0.027782857 0.85800004 2.943759532e-39
-0.46577144 -0.027782857 0.85800004 2.482072326e-39
-0.46413717 -0.027782857 0.85800004 2.482073727e-39
-0.46250287 -0.027782857 0.85800004 2.573924637e-39
-0.46301717 -0.027912384 0.86200005 2.756177516e-39
-0.46512192 -0.028139049 0.86900002 2.939150661e-39
-0.46240002 -0.028074287 0.86700004 4.779467527e-39
-0.46074858 -0.028074287 0.86700004 6.62229692e-39
-0.50780952 -0.026209524 0.86000001 1.114305672e-38
-0.5073486 -0.026270477 0.86200005 1.160153215e-38
-0.50570667 -0.026270477 0.86200005 1.17845025e-38
-0.50406474 -0.026270477 0.86200005 1.197030907e-38
-0.50009143 -0.026148573 0.85800004 1.187809662e-38
-0.49729526 -0.026087621 0.85600007 1.178697719e-38
-0.49566481 -0.026087621 0.85600007 1.160509846e-38
-0.49518856 -0.026148573 0.85800004 1.151290843e-38
-0.49240384 -0.026087621 0.85600007 1.132816405e-38
-0.49077335 -0.026087621 0.85600007 1.114377419e-38
-0.48800001 -0.026026668 0.85400003 1.077571194e-38
-0.48523432 -0.025965717 0.85200006 1.040620775e-38
-0.48361143 -0.025965717 0.85200006 9.947020459e-39
-0.48198861 -0.025965717 0.85200006 9.48533045e-39
-0.48149335 -0.026026668 0.85400003 9.023640442e-39
-0.47874287 -0.025965717 0.85200006 8.563741292e-39
-0.47712004 -0.025965717 0.85200006 8.010573118e-39
-0.47661334 -0.026026668 0.85400003 7.548876103e-39
-0.47498667 -0.026026668 0.85400003 6.812391465e-39
-0.47446862 -0.026087621 0.85600007 6.074467694e-39
-0.47283813 -0.026087621 0.85600007 5.336543922e-39
-0.47120765 -0.026087621 0.85600007 4.692970978e-39
-0.46957716 -0.026087621 0.85600007 4.049758167e-39
-0.46794668 -0.026087621 0.85600007 3.402949625e-39
-0.46740574 -0.026148573 0.85800004 2.942683335e-39
-0.46577144 -0.026148573 0.85800004 2.573549089e-39
-0.46521905 -0.026209524 0.86000001 2.665387388e-39
-0.46250287 -0.026148573 0.85800004 2.75759563e-39
-0.46301717 -0.026270477 0.86200005 2.480669626e-39
-0.46512192 -0.02648381 0.86900002 2.204447074e-39
-0.46240002 -0.026422858 0.86700004 5.334029993e-39
-0.46074858 -0.026422858 0.86700004 8.560158172e-39
-0.50899047 -0.024628572 0.86200005 1.123560548e-38
-0.5073486 -0.024628572 0.86200005 1.160225242e-38
-0.50570667 -0.024628572 0.86200005 1.187778273e-38
-0.50406474 -0.024628572 0.86200005 1.21532668e-38
-0.50009143 -0.024514288 0.85800004 1.187773929e-38
-0.49845713 -0.024514288 0.85800004 1.160294607e-38
-0.49682286 -0.024514288 0.85800004 1.141998973e-38
-0.49518856 -0.024514288 0.85800004 1.123703901e-38
-0.49355426 -0.024514288 0.85800004 1.105050236e-38
-0.49192005 -0.024514288 0.85800004 1.086432164e-38
-0.48914289 -0.024457145 0.85600007 1.049734119e-38
-0.48751241 -0.024457145 0.85600007 1.013033832e-38
-0.48474666 -0.024400001 0.85400003 9.671142627e-39
-0.48312002 -0.024400001 0.85400003 9.299507064e-39
-0.48262098 -0.024457145 0.85600007 8.747070368e-39
-0.47986668 -0.024400001 0.85400003 8.287153001e-39
-0.47712004 -0.024342857 0.85200006 7.73540154e-39
-0.47661334 -0.024400001 0.85400003 7.275510798e-39
-0.47498667 -0.024400001 0.85400003 6.535450047e-39
-0.47446862 -0.024457145 0.85600007 5.702822321e-39
-0.47394288 -0.024514288 0.85800004 4.968847409e-39
-0.47230858 -0.024514288 0.85800004 4.232006841e-39
-0.46957716 -0.024457145 0.85600007 3.5884367e-39
-0.46904004 -0.024514288 0.85800004 2.941625354e-39
-0.46849525 -0.02457143 0.86000001 2.481713593e-39
-0.46685714 -0.02457143 0.86000001 2.114014278e-39
-0.46630096 -0.024628572 0.86200005 2.389523569e-39
-0.46465907 -0.024628572 0.86200005 2.757597031e-39
-0.46570289 -0.02477143 0.86700004 2.57214639e-39
-0.46512192 -0.02482857 0.86900002 2.479935346e-39
-0.46346667 -0.02482857 0.86900002 5.80070442e-39
-0.46074858 -0.02477143 0.86700004 9.21268121e-39
-0.50780952 -0.022933332 0.86000001 1.142107154e-38
-0.5073486 -0.022986667 0.86200005 1.160224401e-38
-0.50453335 -0.022933332 0.86000001 1.197031608e-38
-0.5028953 -0.022933332 0.86000001 1.233692658e-38
-0.50009143 -0.022880001 0.85800004 1.187773649e-38
-0.49845713 -0.022880001 0.85800004 1.141927928e-38
-0.49566481 -0.022826668 0.85600007 1.122951404e-38
-0.49518856 -0.022880001 0.85800004 1.104727517e-38
-0.49355426 -0.022880001 0.85800004 1.077320081e-38
-0.49192005 -0.022880001 0.85800004 1.058917109e-38
-0.48914289 -0.022826668 0.85600007 1.022147177e-38
-0.48751241 -0.022826668 0.85600007 9.94595267e-39
-0.48588192 -0.022826668 0.85600007 9.487119909e-39
-0.48425147 -0.022826668 0.85600007 9.11583467e-39
-0.48262098 -0.022826668 0.85600007 8.562311968e-39
-0.47986668 -0.022773333 0.85400003 8.01128778e-39
-0.47824001 -0.022773333 0.85400003 7.552099089e-39
-0.47772956 -0.022826668 0.85600007 7.088975552e-39
-0.4760991 -0.022826668 0.85600007 6.258511431e-39
-0.47557715 -0.022880001 0.85800004 5.428746559e-39
-0.47394288 -0.022880001 0.85800004 4.601494214e-39
-0.47230858 -0.022880001 0.85800004 3.864294914e-39
-0.47067428 -0.022880001 0.85800004 3.127452945e-39
-0.46904004 -0.022880001 0.85800004 2.4827996e-39
-0.46849525 -0.022933332 0.86000001 2.022175979e-39
-0.46685714 -0.022933332 0.86000001 1.654838198e-39
-0.46630096 -0.022986667 0.86200005 2.20585678e-39
-0.46465907 -0.022986667 0.86200005 2.757232693e-39
-0.46677715 -0.023173334 0.86900002 2.755801968e-39
-0.46512192 -0.023173334 0.86900002 2.755434828e-39
-0.46346667 -0.023173334 0.86900002 6.35960951e-39
-0.50780952 -0.021295238 0.86000001 1.141927928e-38
-0.50617141 -0.021295238 0.86000001 1.151075884e-38
-0.50453335 -0.021295238 0.86000001 1.169479137e-38
-0.50172573 -0.021245714 0.85800004 1.187702183e-38
-0.50009143 -0.021245714 0.85800004 1.15103917e-38
-0.49729526 -0.021196192 0.85600007 1.123561249e-38
-0.49566481 -0.021196192 0.85600007 1.104549552e-38
-0.49518856 -0.021245714 0.85800004 1.095723754e-38
-0.49355426 -0.021245714 0.85800004 1.068172265e-38
-0.49192005 -0.021245714 0.85800004 1.040621616e-38
-0.48914289 -0.021196192 0.85600007 9.945245014e-39
-0.48751241 -0.021196192 0.85600007 9.577177157e-39
-0.48588192 -0.021196192 0.85600007 9.116916473e-39
-0.48425147 -0.021196192 0.85600007 8.748491284e-39
-0.48262098 -0.021196192 0.85600007 8.194960174e-39
-0.4809905 -0.021196192 0.85600007 7.73398763e-39
-0.47824001 -0.021146666 0.85400003 7.180463526e-39
-0.47772956 -0.021196192 0.85600007 6.627293951e-39
-0.4760991 -0.021196192 0.85600007 5.798978021e-39
-0.47557715 -0.021245714 0.85800004 5.062836701e-39
-0.47394288 -0.021245714 0.85800004 4.141589459e-39
-0.47340953 -0.021295238 0.86000001 3.312911994e-39
-0.47177145 -0.021295238 0.86000001 2.851217781e-39
-0.47122669 -0.021344762 0.86200005 2.391317231e-39
-0.47121906 -0.021419048 0.86500007 2.114370207e-39
-0.46957147 -0.021419048 0.86500007 1.930347489e-39
-0.46792385 -0.021419048 0.86500007 2.389531976e-39
-0.4673543 -0.021468572 0.86700004 2.940539348e-39
-0.46892571 -0.021617142 0.87300003 3.214606703e-39
-0.46619239 -0.02156762 0.87100005 3.49011179e-39
-0.46453336 -0.02156762 0.87100005 6.914569945e-39
-0.50780952 -0.019657142 0.86000001 1.151040151e-38
-0.5073486 -0.019702859 0.86200005 1.151076725e-38
-0.50570667 -0.019702859 0.86200005 1.151113439e-38
-0.5028953 -0.019657142 0.86000001 1.151076165e-38
-0.50009143 -0.019611429 0.85800004 1.123488241e-38
-0.49845713 -0.019611429 0.85800004 1.104979331e-38
-0.49682286 -0.019611429 0.85800004 1.095367124e-38
-0.4963429 -0.019657142 0.86000001 1.086684258e-38
-0.49355426 -0.019611429 0.85800004 1.049876772e-38
-0.49192005 -0.019611429 0.85800004 1.022110603e-38
-0.49028575 -0.019611429 0.85800004 9.760848149e-39
-0.48865145 -0.019611429 0.85800004 9.299874204e-39
-0.48588192 -0.019565716 0.85600007 8.839260392e-39
-0.48425147 -0.019565716 0.85600007 8.379354236e-39
-0.48262098 -0.019565716 0.85600007 7.919808214e-39
-0.4809905 -0.019565716 0.85600007 7.549950899e-39
-0.47936001 -0.019565716 0.85600007 6.812032732e-39
-0.47772956 -0.019565716 0.85600007 6.166308795e-39
-0.47721145 -0.019611429 0.85800004 5.428390629e-39
-0.47668573 -0.019657142 0.86000001 4.692612245e-39
-0.47504762 -0.019657142 0.86000001 3.773523003e-39
-0.47451049 -0.019702859 0.86200005 2.851935246e-39
-0.47451434 -0.019771431 0.86500007 2.575349758e-39
-0.47286671 -0.019771431 0.86500007 2.299123002e-39
-0.47230858 -0.019817144 0.86700004 2.206567239e-39
-0.47065717 -0.019817144 0.86700004 2.205855379e-39
-0.46900573 -0.019817144 0.86700004 2.664679732e-39
-0.4695105 -0.019908572 0.87100005 3.216052843e-39
-0.46785143 -0.019908572 0.87100005 3.673796796e-39
-0.46619239 -0.019908572 0.87100005 4.22769925e-39
-0.46453336 -0.019908572 0.87100005 7.46958503e-39
-0.51076192 -0.018123809 0.86500007 1.169479417e-38
-0.50911433 -0.018123809 0.86500007 1.151221199e-38
-0.50570667 -0.018060952 0.86200005 1.151186727e-38
-0.5028953 -0.018019047 0.86000001 1.142000935e-38
-0.50125712 -0.018019047 0.86000001 1.123416355e-38
-0.49845713 -0.017977145 0.85800004 1.095581102e-38
-0.49682286 -0.017977145 0.85800004 1.086256442e-38
-0.49518856 -0.017977145 0.85800004 1.068461212e-38
-0.49355426 -0.017977145 0.85800004 1.03125856e-38
-0.49192005 -0.017977145 0.85800004 9.851966181e-39
-0.49028575 -0.017977145 0.85800004 9.48318226e-39
-0.48865145 -0.017977145 0.85800004 9.022572652e-39
-0.48815238 -0.018019047 0.86000001 8.562680509e-39
-0.48651427 -0.018019047 0.86000001 8.009859857e-39
-0.48374858 -0.017977145 0.85800004 7.641787796e-39
-0.4809905 -0.017935239 0.85600007 7.182241774e-39
-0.47936001 -0.017935239 0.85600007 6.443962073e-39
-0.47884575 -0.017977145 0.85800004 5.613488143e-39
-0.47721145 -0.017977145 0.85800004 5.059955631e-39
-0.47668573 -0.018019047 0.86000001 4.508212578e-39
-0.47504762 -0.018019047 0.86000001 3.587335279e-39
-0.47616193 -0.018123809 0.86500007 2.666466388e-39
-0.47561145 -0.018165715 0.86700004 2.483152727e-39
-0.47505334 -0.018207619 0.86900002 2.297688072e-39
-0.47339812 -0.018207619 0.86900002 2.205852576e-39
-0.47174287 -0.018207619 0.86900002 2.208009175e-39
-0.47116953 -0.018249525 0.87100005 2.757591426e-39
-0.4695105 -0.018249525 0.87100005 3.400088173e-39
-0.46785143 -0.018249525 0.87100005 4.045097448e-39
-0.46619239 -0.018249525 0.87100005 4.781975851e-39
-0.46453336 -0.018249525 0.87100005 7.746225169e-39
-0.51076192 -0.016476192 0.86500007 1.18788239e-38
-0.50911433 -0.016476192 0.86500007 1.160332161e-38
-0.50746667 -0.016476192 0.86500007 1.151185045e-38
-0.50406474 -0.016419049 0.86200005 1.1418552e-38
-0.50125712 -0.016380953 0.86000001 1.114194269e-38
-0.49961907 -0.016380953 0.86000001 1.095614453e-38
-0.49682286 -0.016342856 0.85800004 1.077142396e-38
-0.49518856 -0.016342856 0.85800004 1.058666556e-38
-0.49355426 -0.016342856 0.85800004 1.003492391e-38
-0.49192005 -0.016342856 0.85800004 9.57394296e-39
-0.49028575 -0.016342856 0.85800004 9.205157638e-39
-0.4897905 -0.016380953 0.86000001 8.838172985e-39
-0.48815238 -0.016380953 0.86000001 8.286442543e-39
-0.48764572 -0.016419049 0.86200005 7.733279974e-39
-0.48487619 -0.016380953 0.86000001 7.273029099e-39
-0.48211432 -0.016342856 0.85800004 6.90423677e-39
-0.48048002 -0.016342856 0.85800004 5.984432866e-39
-0.47884575 -0.016342856 0.85800004 5.152515599e-39
-0.47832382 -0.016380953 0.86000001 4.691529042e-39
-0.47779429 -0.016419049 0.86200005 4.323465388e-39
-0.47615239 -0.016419049 0.86200005 3.401160166e-39
-0.47616193 -0.016476192 0.86500007 2.574637898e-39
-0.47670856 -0.016552381 0.86900002 2.391322836e-39
-0.47505334 -0.016552381 0.86900002 2.298409741e-39
-0.47448766 -0.016590478 0.87100005 2.205137914e-39
-0.4728286 -0.016590478 0.87100005 2.206582653e-39
-0.47116953 -0.016590478 0.87100005 2.850159801e-39
-0.4695105 -0.016590478 0.87100005 3.583401834e-39
-0.46785143 -0.016590478 0.87100005 4.423544723e-39
-0.46619239 -0.016590478 0.87100005 5.33800968e-39
-0.46453336 -0.016590478 0.87100005 8.114654561e-39
-0.51076192 -0.014828573 0.86500007 1.160152375e-38
-0.5073486 -0.014777143 0.86200005 1.141784995e-38
-0.50746667 -0.014828573 0.86500007 1.132565292e-38
-0.50406474 -0.014777143 0.86200005 1.123378379e-38
-0.50242287 -0.014777143 0.86200005 1.095860381e-38
-0.49961907 -0.014742858 0.86000001 1.077316718e-38
-0.49450666 -0.014640001 0.85400003 1.049661392e-38
-0.49288005 -0.014640001 0.85400003 1.03115052e-38
-0.49355426 -0.014708571 0.85800004 9.943085613e-39
-0.49192005 -0.014708571 0.85800004 9.664339323e-39
-0.49028575 -0.014708571 0.85800004 9.29734486e-39
-0.4897905 -0.014742858 0.86000001 8.930357404e-39
-0.48815238 -0.014742858 0.86000001 8.28642853e-39
-0.48764572 -0.014777143 0.86200005 7.731128981e-39
-0.48487619 -0.014742858 0.86000001 7.179418157e-39
-0.48211432 -0.014708571 0.85800004 6.713403741e-39
-0.48160002 -0.014742858 0.86000001 5.886147193e-39
-0.47996193 -0.014742858 0.86000001 5.150721937e-39
-0.47832382 -0.014742858 0.86000001 4.50749231e-39
-0.47779429 -0.014777143 0.86200005 3.955047206e-39
-0.47780955 -0.014828573 0.86500007 3.218215047e-39
-0.47616193 -0.014828573 0.86500007 2.573568708e-39
-0.47670856 -0.014897143 0.86900002 2.20765885e-39
-0.47505334 -0.014897143 0.86900002 1.748477165e-39
-0.47448766 -0.01493143 0.87100005 2.022545922e-39
-0.4728286 -0.01493143 0.87100005 2.205874997e-39
-0.47116953 -0.01493143 0.87100005 2.389205474e-39
-0.4695105 -0.01493143 0.87100005 2.572852644e-39
-0.46785143 -0.01493143 0.87100005 4.605049308e-39
-0.46619239 -0.01493143 0.87100005 6.720921708e-39
-0.5073486 -0.013135239 0.86200005 1.132600885e-38
-0.50746667 -0.013180953 0.86500007 1.114269239e-38
-0.50406474 -0.013135239 0.86200005 1.105083447e-38
-0.50242287 -0.013135239 0.86200005 1.077530696e-38
-0.50078094 -0.013135239 0.86200005 1.058985912e-38
-0.49334863 -0.012982858 0.85200006 1.031365199e-38
-0.5003829 -0.013211429 0.86700004 1.012819714e-38
-0.49585524 -0.013135239 0.86200005 9.943102429e-39
-0.4930667 -0.013104762 0.86000001 9.75797829e-39
-0.49142855 -0.013104762 0.86000001 9.389541891e-39
-0.49092954 -0.013135239 0.86200005 9.021839773e-39
-0.48928761 -0.013135239 0.86200005 8.378632568e-39
-0.48764572 -0.013135239 0.86200005 7.822245611e-39
-0.48600382 -0.013135239 0.86200005 7.177970616e-39
-0.48436192 -0.013135239 0.86200005 6.533303257e-39
-0.48272002 -0.013135239 0.86200005 5.797159135e-39
-0.48107812 -0.013135239 0.86200005 5.150351994e-39
-0.47943622 -0.013135239 0.86200005 4.323462586e-39
-0.4794572 -0.013180953 0.86500007 3.586623419e-39
-0.48112383 -0.013272381 0.87100005 3.127444537e-39
-0.47946477 -0.013272381 0.87100005 2.66754819e-39
-0.47780576 -0.013272381 0.87100005 1.932143954e-39
-0.4761467 -0.013272381 0.87100005 1.288933946e-39
-0.47448766 -0.013272381 0.87100005 1.747751293e-39
-0.4728286 -0.013272381 0.87100005 2.29806362e-39
-0.47116953 -0.013272381 0.87100005 1.930022388e-39
-0.4695105 -0.013272381 0.87100005 1.562300651e-39
-0.46785143 -0.013272381 0.87100005 4.878762135e-39
-0.46619239 -0.013272381 0.87100005 8.196029365e-39
-0.50911433 -0.011533334 0.86500007 1.114340845e-38
-0.50746667 -0.011533334 0.86500007 1.095973185e-38
-0.50581908 -0.011533334 0.86500007 1.077604965e-38
-0.50417149 -0.011533334 0.86500007 1.059093392e-38
-0.50252384 -0.011533334 0.86500007 1.04069098e-38
-0.50087625 -0.011533334 0.86500007 1.013140892e-38
-0.5003829 -0.01156 0.86700004 9.947760345e-39
-0.49758098 -0.011533334 0.86500007 9.761241914e-39
-0.49421334 -0.011493334 0.86200005 9.575752036e-39
-0.49142855 -0.011466666 0.86000001 9.115831868e-39
-0.49092954 -0.011493334 0.86200005 8.748133953e-39
-0.48928761 -0.011493334 0.86200005 8.100626163e-39
-0.48764572 -0.011493334 0.86200005 7.546021658e-39
-0.48600382 -0.011493334 0.86200005 6.81061602e-39
-0.48436192 -0.011493334 0.86200005 5.986936986e-39
-0.48272002 -0.011493334 0.86200005 5.337601903e-39
-0.48107812 -0.011493334 0.86200005 4.690805972e-39
-0.48110479 -0.011533334 0.86500007 4.046521168e-39
-0.48167428 -0.011586667 0.86900002 3.402230758e-39
-0.48222858 -0.01164 0.87300003 2.943763736e-39
-0.48056573 -0.01164 0.87300003 2.576061618e-39
-0.47780576 -0.011613334 0.87100005 2.11580794e-39
-0.4761467 -0.011613334 0.87100005 1.655911593e-39
-0.47557715 -0.01164 0.87300003 2.023252176e-39
-0.4739143 -0.01164 0.87300003 2.483163937e-39
-0.47225145 -0.01164 0.87300003 2.205882004e-39
-0.47058856 -0.01164 0.87300003 1.929639833e-39
-0.46785143 -0.011613334 0.87100005 5.435156098e-39
-0.51029146 -0.0099085718 0.86700004 1.105084708e-38
-0.50746667 -0.0098857153 0.86500007 1.077389866e-38
-0.50581908 -0.0098857153 0.86500007 1.059020244e-38
-0.50417149 -0.0098857153 0.86500007 1.040686636e-38
-0.50078094 -0.0098514296 0.86200005 1.031504768e-38
-0.49913904 -0.0098514296 0.86200005 1.003955801e-38
-0.49922863 -0.0098857153 0.86500007 9.763348066e-39
-0.49758098 -0.0098857153 0.86500007 9.579332354e-39
-0.49421334 -0.0098514296 0.86200005 9.484257056e-39
-0.49142855 -0.0098285712 0.86000001 8.933950333e-39
-0.49092954 -0.0098514296 0.86200005 8.469759007e-39
-0.48928761 -0.0098514296 0.86200005 7.91480698e-39
-0.48764572 -0.0098514296 0.86200005 7.361990532e-39
-0.48600382 -0.0098514296 0.86200005 6.44326843e-39
-0.48436192 -0.0098514296 0.86200005 5.522737252e-39
-0.48272002 -0.0098514296 0.86200005 4.878072696e-39
-0.48275241 -0.0098857153 0.86500007 4.320961268e-39
-0.48110479 -0.0098857153 0.86500007 3.768514763e-39
-0.48278287 -0.0099542858 0.87100005 3.218206639e-39
-0.48333335 -0.010000001 0.87500006 2.85192824e-39
-0.48056573 -0.0099771423 0.87300003 2.48386879e-39
-0.47890288 -0.0099771423 0.87300003 2.207644837e-39
-0.47724003 -0.0099771423 0.87300003 2.023617915e-39
-0.47557715 -0.0099771423 0.87300003 2.299127206e-39
-0.4739143 -0.0099771423 0.87300003 2.66612307e-39
-0.47225145 -0.0099771423 0.87300003 2.482105957e-39
-0.47058856 -0.0099771423 0.87300003 2.388458582e-39
-0.51076192 -0.0082380958 0.86500007 1.105084568e-38
-0.51029146 -0.0082571432 0.86700004 1.086645022e-38
-0.50746667 -0.0082380958 0.86500007 1.068277222e-38
-0.50581908 -0.0082380958 0.86500007 1.049906199e-38
-0.50417149 -0.0082380958 0.86500007 1.059085825e-38
-0.50078094 -0.0082095247 0.86200005 1.068164557e-38
-0.49913904 -0.0082095247 0.86200005 1.022178006e-38
-0.5003829 -0.0082571432 0.86700004 9.762249448e-39
-0.49758098 -0.0082380958 0.86500007 9.393836871e-39
-0.49421334 -0.0082095247 0.86200005 9.117256988e-39
-0.49257144 -0.0082095247 0.86200005 8.654494986e-39
-0.49092954 -0.0082095247 0.86200005 8.191741391e-39
-0.48928761 -0.0082095247 0.86200005 7.639664829e-39
-0.4893429 -0.0082380958 0.86500007 6.994648547e-39
-0.48600382 -0.0082095247 0.86200005 6.2592331e-39
-0.48436192 -0.0082095247 0.86200005 5.42839203e-39
-0.48440003 -0.0082380958 0.86500007 4.69297378e-39
-0.48386857 -0.0082571432 0.86700004 4.043312194e-39
-0.48110479 -0.0082380958 0.86500007 3.493019485e-39
-0.48278287 -0.0082952389 0.87100005 2.942347023e-39
-0.48499048 -0.0083619049 0.87800002 2.666464987e-39
-0.48166668 -0.0083333338 0.87500006 2.390599766e-39
-0.47890288 -0.0083142864 0.87300003 2.20621271e-39
-0.47724003 -0.0083142864 0.87300003 2.114025488e-39
-0.47666669 -0.0083333338 0.87500006 2.389897715e-39
-0.47500002 -0.0083333338 0.87500006 2.665769943e-39
-0.47225145 -0.0083142864 0.87300003 2.756894981e-39
-0.51194286 -0.0066057146 0.86700004 1.095901299e-38
-0.51029146 -0.0066057146 0.86700004 1.068386943e-38
-0.50746667 -0.0065904767 0.86500007 1.050056138e-38
-0.50581908 -0.0065904767 0.86500007 1.04069056e-38
-0.50417149 -0.0065904767 0.86500007 1.077493702e-38
-0.50252384 -0.0065904767 0.86500007 1.114085248e-38
-0.49913904 -0.0065676193 0.86200005 1.040474059e-38
-0.5003829 -0.0066057146 0.86700004 9.761176053e-39
-0.49873146 -0.0066057146 0.86700004 9.209448414e-39
-0.49593335 -0.0065904767 0.86500007 8.747758405e-39
-0.49257144 -0.0065676193 0.86200005 8.375394167e-39
-0.49092954 -0.0065676193 0.86200005 8.007701858e-39
-0.48928761 -0.0065676193 0.86200005 7.364860391e-39
-0.4893429 -0.0065904767 0.86500007 6.718766511e-39
-0.48600382 -0.0065676193 0.86200005 6.075185158e-39
-0.48436192 -0.0065676193 0.86200005 5.429455616e-39
-0.48272002 -0.0065676193 0.86200005 4.600055081e-39
-0.48386857 -0.0066057146 0.86700004 3.770668558e-39
-0.48444194 -0.0066361907 0.87100005 3.217866123e-39
-0.48389146 -0.0066514285 0.87300003 2.757602636e-39
-0.48499048 -0.0066895238 0.87800002 2.572486905e-39
-0.48166668 -0.0066666668 0.87500006 2.388455779e-39
-0.48000002 -0.0066666668 0.87500006 2.296620283e-39
-0.47833335 -0.0066666668 0.87500006 2.204787589e-39
-0.47666669 -0.0066666668 0.87500006 2.388821518e-39
-0.47500002 -0.0066666668 0.87500006 2.664326605e-39
-0.51194286 -0.0049542859 0.86700004 1.095901579e-38
-0.51029146 -0.0049542859 0.86700004 1.068460091e-38
-0.50863999 -0.0049542859 0.86700004 1.049987054e-38
-0.50581908 -0.0049428577 0.86500007 1.031510793e-38
-0.50533712 -0.0049542859 0.86700004 1.040549309e-38
-0.50252384 -0.0049428577 0.86500007 1.049300978e-38
-0.50087625 -0.0049428577 0.86500007 1.003668955e-38
-0.50153714 -0.0049657146 0.86900002 9.668627296e-39
-0.49873146 -0.0049542859 0.86700004 9.208730949e-39
-0.49593335 -0.0049428577 0.86500007 8.653767712e-39
-0.49428576 -0.0049428577 0.86500007 8.192435034e-39
-0.49263811 -0.0049428577 0.86500007 7.824019655e-39
-0.49099052 -0.0049428577 0.86500007 7.180099188e-39
-0.4893429 -0.0049428577 0.86500007 6.535080104e-39
-0.48600382 -0.0049257148 0.86200005 5.798942988e-39
-0.48604766 -0.0049428577 0.86500007 5.063177216e-39
-0.48440003 -0.0049428577 0.86500007 4.324900318e-39
-0.48610097 -0.0049771429 0.87100005 3.588785623e-39
-0.48444194 -0.0049771429 0.87100005 3.034189526e-39
-0.48389146 -0.0049885712 0.87300003 2.481021352e-39
-0.48499048 -0.0050171427 0.87800002 2.481019951e-39
-0.48331809 -0.0050171427 0.87800002 2.481017148e-39
-0.48164573 -0.0050171427 0.87800002 2.388821518e-39
-0.47833335 -0.0050000004 0.87500006 2.296986022e-39
-0.47830096 -0.0050171427 0.87800002 2.664329408e-39
-0.4766286 -0.0050171427 0.87800002 3.12672427e-39
-0.51194286 -0.0033028573 0.86700004 1.086718169e-38
-0.51029146 -0.0033028573 0.86700004 1.068315898e-38
-0.50746667 -0.0032952384 0.86500007 1.040730216e-38
-0.50581908 -0.0032952384 0.86500007 1.022254096e-38
-0.50417149 -0.0032952384 0.86500007 1.00359861e-38
-0.50252384 -0.0032952384 0.86500007 9.852313703e-39
-0.50203431 -0.0033028573 0.86700004 9.760835538e-39
-0.50153714 -0.0033104762 0.86900002 9.667929449e-39
-0.49988192 -0.0033104762 0.86900002 9.116204613e-39
-0.49708003 -0.0033028573 0.86700004 8.653428598e-39
-0.49542859 -0.0033028573 0.86700004 8.101328213e-39
-0.49377713 -0.0033028573 0.86700004 7.640348662e-39
-0.49212575 -0.0033028573 0.86700004 6.995699521e-39
-0.4893429 -0.0032952384 0.86500007 6.349258118e-39
-0.48769525 -0.0032952384 0.86500007 5.52129952e-39
-0.48604766 -0.0032952384 0.86500007 4.693688443e-39
-0.48776001 -0.0033180953 0.87100005 4.049749759e-39
-0.48610097 -0.0033180953 0.87100005 3.404030026e-39
-0.48555428 -0.0033257143 0.87300003 2.759029158e-39
-0.48500001 -0.0033333334 0.87500006 2.205510659e-39
-0.48499048 -0.0033447619 0.87800002 2.389545989e-39
-0.48331809 -0.0033447619 0.87800002 2.572852644e-39
-0.48164573 -0.0033447619 0.87800002 2.481729008e-39
-0.47997335 -0.0033447619 0.87800002 2.389531976e-39
-0.4793905 -0.0033523811 0.88000005 2.94018482e-39
-0.47771433 -0.0033523811 0.88000005 3.584461216e-39
-0.51194286 -0.0016514286 0.86700004 1.08661069e-38
-0.51029146 -0.0016514286 0.86700004 1.059095914e-38
-0.50863999 -0.0016514286 0.86700004 1.031473519e-38
-0.50698858 -0.0016514286 0.86700004 1.013033272e-38
-0.50417149 -0.0016476192 0.86500007 9.946649115e-39
-0.50252384 -0.0016476192 0.86500007 9.762989333e-39
-0.50203431 -0.0016514286 0.86700004 9.483189266e-39
-0.50153714 -0.0016552381 0.86900002 9.298813421e-39
-0.49873146 -0.0016514286 0.86700004 8.84072615e-39
-0.49708003 -0.0016514286 0.86700004 8.377941727e-39
-0.49542859 -0.0016514286 0.86700004 7.825834336e-39
-0.49377713 -0.0016514286 0.86700004 7.364843575e-39
-0.49212575 -0.0016514286 0.86700004 6.812734783e-39
-0.49047431 -0.0016514286 0.86700004 6.255631763e-39
-0.48882288 -0.0016514286 0.86700004 5.427685776e-39
-0.48717144 -0.0016514286 0.86700004 4.688673195e-39
-0.48776001 -0.0016590477 0.87100005 4.0458009e-39
-0.48721713 -0.0016628571 0.87300003 3.402946822e-39
-0.48555428 -0.0016628571 0.87300003 2.758657814e-39
-0.48500001 -0.0016666667 0.87500006 2.205505054e-39
-0.48609525 -0.0016761905 0.88000005 2.021848075e-39
-0.48441908 -0.0016761905 0.88000005 1.838167274e-39
-0.48274288 -0.0016761905 0.88000005 2.20693578e-39
-0.48106667 -0.0016761905 0.88000005 2.574630892e-39
-0.48048002 -0.00168 0.88200003 2.665385987e-39
-0.47880003 -0.00168 0.88200003 2.756143885e-39
-0.51194286 0 0.86700004 1.077425739e-38
-0.51029146 0 0.86700004 1.049839357e-38
-0.50863999 0 0.86700004 1.022252835e-38
-0.50581908 0 0.86500007 1.003848882e-38
-0.50417149 0 0.86500007 9.855524077e-39
-0.50252384 0 0.86500007 9.669711901e-39
-0.50087625 0 0.86500007 9.297719007e-39
-0.50153714 0 0.86900002 8.932176289e-39
-0.49988192 0 0.86900002 8.565557375e-39
-0.49708003 0 0.86700004 8.195334321e-39
-0.49657145 0 0.86900002 7.642516471e-39
-0.49491617 0 0.86900002 7.088255284e-39
-0.49212575 0 0.86700004 6.629777052e-39
-0.49160573 0 0.86900002 6.163067592e-39
-0.48882288 0 0.86700004 5.425875298e-39
-0.48829526 0 0.86900002 4.688668992e-39
-0.48776001 0 0.87100005 4.046526773e-39
-0.48721713 0 0.87300003 3.402590892e-39
-0.48555428 0 0.87300003 2.758655011e-39
-0.48389146 0 0.87300003 2.206218315e-39
-0.48609525 0 0.88000005 1.654497683e-39
-0.48441908 0 0.88000005 1.103477699e-39
-0.48384002 0 0.88200003 1.932142552e-39
-0.48216 0 0.88200003 2.85049331e-39
-0.48429334 0 0.88900006 2.391313027e-39
-0.48260003 0 0.88900006 2.021099782e-39
-0.51194286 0.0016514286 0.86700004 1.068205055e-38
-0.51029146 0.0016514286 0.86700004 1.040511053e-38
-0.50863999 0.0016514286 0.86700004 1.022179967e-38
-0.50581908 0.0016476192 0.86500007 1.003847901e-38
-0.50417149 0.0016476192 0.86500007 9.762606779e-39
-0.50252384 0.0016476192 0.86500007 9.484600374e-39
-0.50435054 0.0016590477 0.87100005 9.116912269e-39
-0.5003829 0.0016514286 0.86700004 8.749567481e-39
-0.49873146 0.0016514286 0.86700004 8.289312402e-39
-0.49708003 0.0016514286 0.86700004 7.82905452e-39
-0.49657145 0.0016552381 0.86900002 7.365569448e-39
-0.49491617 0.0016552381 0.86900002 6.812027127e-39
-0.49212575 0.0016514286 0.86700004 6.351755232e-39
-0.49160573 0.0016552381 0.86900002 5.795357065e-39
-0.48995048 0.0016552381 0.86900002 5.059594096e-39
-0.48941904 0.0016590477 0.87100005 4.4131597e-39
-0.48888004 0.0016628571 0.87300003 3.770312629e-39
-0.48721713 0.0016628571 0.87300003 3.216054244e-39
-0.48666668 0.0016666667 0.87500006 2.75865361e-39
-0.48500001 0.0016666667 0.87500006 2.298765671e-39
-0.48499048 0.001672381 0.87800002 1.838520401e-39
-0.48441908 0.0016761905 0.88000005 1.471172811e-39
-0.48384002 0.00168 0.88200003 2.206211309e-39
-0.48325336 0.0016838097 0.88400006 3.033086704e-39
-0.48320383 0.0016895238 0.88700002 2.848336712e-39
-0.4815143 0.0016895238 0.88700002 2.663589522e-39
-0.50863999 0.0033028573 0.86700004 1.022144795e-38
-0.50815815 0.0033104762 0.86900002 1.003740982e-38
-0.50417149 0.0032952384 0.86500007 9.670058022e-39
-0.50717145 0.0033257143 0.87300003 9.300933586e-39
-0.50550854 0.0033257143 0.87300003 8.933961544e-39
-0.50384575 0.0033257143 0.87300003 8.565183228e-39
-0.50103241 0.0033180953 0.87100005 8.013092653e-39
-0.49937338 0.0033180953 0.87100005 7.551039707e-39
-0.49771431 0.0033180953 0.87100005 7.08862803e-39
-0.49605528 0.0033180953 0.87100005 6.62763867e-39
-0.49326095 0.0033104762 0.86900002 6.073737617e-39
-0.49273717 0.0033180953 0.87100005 5.521285507e-39
-0.49107811 0.0033180953 0.87100005 4.785519735e-39
-0.48941904 0.0033180953 0.87100005 4.138009142e-39
-0.48888004 0.0033257143 0.87300003 3.585921369e-39
-0.48833337 0.0033333334 0.87500006 3.126386557e-39
-0.48666668 0.0033333334 0.87500006 2.759045974e-39
-0.48666286 0.0033447619 0.87800002 2.389899117e-39
-0.48609525 0.0033523811 0.88000005 2.114382819e-39
-0.48552001 0.00336 0.88200003 1.930709024e-39
-0.48384002 0.00336 0.88200003 2.573914828e-39
-0.48489332 0.0033790476 0.88700002 3.217127639e-39
-0.48429334 0.0033866668 0.88900006 3.30717648e-39
-0.48260003 0.0033866668 0.88900006 3.398286103e-39
-0.50815815 0.0049657146 0.86900002 9.853744428e-39
-0.50417149 0.0049428577 0.86500007 9.485316437e-39
-0.50717145 0.0049885712 0.87300003 9.117266797e-39
-0.50550854 0.0049885712 0.87300003 8.748142361e-39
-0.50384575 0.0049885712 0.87300003 8.374700524e-39
-0.50103241 0.0049771429 0.87100005 7.915521642e-39
-0.49937338 0.0049771429 0.87100005 7.456695887e-39
-0.49771431 0.0049771429 0.87100005 6.903882242e-39
-0.49719429 0.0049885712 0.87300003 6.443251614e-39
-0.49439621 0.0049771429 0.87100005 5.983338452e-39
-0.49273717 0.0049771429 0.87100005 5.431601004e-39
-0.49107811 0.0049771429 0.87100005 4.784800869e-39
-0.48941904 0.0049771429 0.87100005 4.138365072e-39
-0.48776001 0.0049771429 0.87100005 3.585918566e-39
-0.48833337 0.0050000004 0.87500006 3.127119436e-39
-0.48666668 0.0050000004 0.87500006 2.666167911e-39
-0.48777145 0.0050285715 0.88000005 2.297721704e-39
-0.48609525 0.0050285715 0.88000005 1.931069158e-39
-0.48552001 0.0050400002 0.88200003 1.472967874e-39
-0.48384002 0.0050400002 0.88200003 2.299128607e-39
-0.48325336 0.0050514289 0.88400006 3.125663487e-39
-0.48156956 0.0050514289 0.88400006 3.398675664e-39
-0.47988576 0.0050514289 0.88400006 3.673805203e-39
-0.50717145 0.0066514285 0.87300003 8.932509799e-39
-0.50550854 0.0066514285 0.87300003 8.56230356e-39
-0.50384575 0.0066514285 0.87300003 8.193166512e-39
-0.50333339 0.0066666668 0.87500006 7.732554101e-39
-0.50051999 0.0066514285 0.87300003 7.364491849e-39
-0.49885714 0.0066514285 0.87300003 6.810966344e-39
-0.5000419 0.0066895238 0.87800002 6.351769245e-39
-0.49666673 0.0066666668 0.87500006 5.893289611e-39
-0.49500006 0.0066666668 0.87500006 5.429081469e-39
-0.4933334 0.0066666668 0.87500006 4.784073595e-39
-0.49166673 0.0066666668 0.87500006 4.137642002e-39
-0.49000004 0.0066666668 0.87500006 3.584840968e-39
-0.49000761 0.0066895238 0.87800002 3.124953029e-39
-0.48833525 0.0066895238 0.87800002 2.665425223e-39
-0.48888004 0.0067199999 0.88200003 2.297706289e-39
-0.48720002 0.0067199999 0.88200003 1.657709459e-39
-0.48552001 0.0067199999 0.88200003 1.105981819e-39
-0.48658288 0.0067580952 0.88700002 2.115816347e-39
-0.48489332 0.0067580952 0.88700002 3.125297748e-39
-0.48320383 0.0067580952 0.88700002 3.581973911e-39
-0.48911428 0.0068647619 0.90100002 4.041524137e-39
-0.48739809 0.0068647619 0.90100002 7.001080507e-39
-0.51000005 0.0083333338 0.87500006 9.024338288e-39
-0.50717145 0.0083142864 0.87300003 8.748112934e-39
-0.50550854 0.0083142864 0.87300003 8.37969335e-39
-0.50384575 0.0083142864 0.87300003 8.103469397e-39
-0.50333339 0.0083333338 0.87500006 7.64178079e-39
-0.50051999 0.0083142864 0.87300003 7.180812449e-39
-0.50000006 0.0083333338 0.87500006 6.628008613e-39
-0.5000419 0.0083619049 0.87800002 6.16845138e-39
-0.49666673 0.0083333338 0.87500006 5.707100486e-39
-0.49669713 0.0083619049 0.87800002 5.243249674e-39
-0.49502477 0.0083619049 0.87800002 4.507839832e-39
-0.49166673 0.0083333338 0.87500006 3.769937081e-39
-0.49168003 0.0083619049 0.87800002 3.217140251e-39
-0.49000761 0.0083619049 0.87800002 2.663969274e-39
-0.48944765 0.0083809523 0.88000005 2.389176047e-39
-0.48888004 0.0084000006 0.88200003 2.114019883e-39
-0.48720002 0.0084000006 0.88200003 1.74666949e-39
-0.48662096 0.008419048 0.88400006 1.379333111e-39
-0.48768002 0.0084666666 0.88900006 2.389889308e-39
-0.48598671 0.0084666666 0.88900006 3.400439899e-39
-0.48919618 0.0085523818 0.89800006 3.858901316e-39
-0.49020001 0.0086000003 0.90300006 4.409600402e-39
-0.48848003 0.0086000003 0.90300006 7.281299562e-39
-0.51333338 0.010000001 0.87500006 9.3949467e-39
-0.51049715 0.0099771423 0.87300003 9.116909466e-39
-0.51000005 0.010000001 0.87500006 8.839589697e-39
-0.50833338 0.010000001 0.87500006 8.655920106e-39
-0.50550854 0.0099771423 0.87300003 8.289298389e-39
-0.50673139 0.010034285 0.87800002 8.010200373e-39
-0.50505906 0.010034285 0.87800002 7.459183192e-39
-0.50166672 0.010000001 0.87500006 6.996779922e-39
-0.50000006 0.010000001 0.87500006 6.445050882e-39
-0.50118101 0.010057143 0.88000005 5.982989528e-39
-0.49836954 0.010034285 0.87800002 5.520928175e-39
-0.4978286 0.010057143 0.88000005 5.059226956e-39
-0.49502477 0.010034285 0.87800002 4.231977414e-39
-0.49335238 0.010034285 0.87800002 3.493352994e-39
-0.49168003 0.010034285 0.87800002 2.849792661e-39
-0.49112386 0.010057143 0.88000005 2.296630092e-39
-0.49056 0.01008 0.88200003 2.113319234e-39
-0.48888004 0.01008 0.88200003 1.929637031e-39
-0.48720002 0.01008 0.88200003 1.745954828e-39
-0.48662096 0.010102858 0.88400006 1.654487873e-39
-0.48768002 0.010160001 0.88900006 2.664689542e-39
-0.48598671 0.010160001 0.88900006 3.675234528e-39
-0.48919618 0.010262858 0.89800006 4.226602033e-39
-0.49020001 0.01032 0.90300006 4.874163073e-39
-0.48848003 0.01032 0.90300006 7.56183391e-39
-0.51333338 0.011666668 0.87500006 9.026864829e-39
-0.51049715 0.01164 0.87300003 8.749196137e-39
-0.51000005 0.011666668 0.87500006 8.563723075e-39
-0.51007622 0.011706666 0.87800002 8.380057688e-39
-0.50666672 0.011666668 0.87500006 8.102763143e-39
-0.50673139 0.011706666 0.87800002 7.825454584e-39
-0.50505906 0.011706666 0.87800002 7.181164175e-39
-0.50166672 0.011666668 0.87500006 6.537240906e-39
-0.50000006 0.011666668 0.87500006 5.983718204e-39
-0.50118101 0.011733334 0.88000005 5.427317234e-39
-0.49836954 0.011706666 0.87800002 4.967415282e-39
-0.4978286 0.011733334 0.88000005 4.507862253e-39
-0.49502477 0.011706666 0.87800002 3.678814845e-39
-0.49335238 0.011706666 0.87800002 2.941621151e-39
-0.4928 0.011733334 0.88000005 2.389534779e-39
-0.49112386 0.011733334 0.88000005 1.929289509e-39
-0.49056 0.01176 0.88200003 2.021134814e-39
-0.48888004 0.01176 0.88200003 2.113313628e-39
-0.48996192 0.011826667 0.88700002 1.745957631e-39
-0.4882724 0.011826667 0.88700002 1.379705856e-39
-0.48768002 0.011853334 0.88900006 2.48102976e-39
-0.48598671 0.011853334 0.88900006 3.585915764e-39
-0.51500005 0.013333334 0.87500006 9.118700325e-39
-0.51333338 0.013333334 0.87500006 8.751017825e-39
-0.51049715 0.013302857 0.87300003 8.472623261e-39
-0.51000005 0.013333334 0.87500006 8.288215185e-39
-0.51007622 0.013379048 0.87800002 8.194587428e-39
-0.50840384 0.013379048 0.87800002 7.917290081e-39
-0.50673139 0.013379048 0.87800002 7.640340255e-39
-0.50505906 0.013379048 0.87800002 6.904214349e-39
-0.50338668 0.013379048 0.87800002 6.167376584e-39
-0.50171429 0.013379048 0.87800002 5.522374315e-39
-0.50118101 0.013409524 0.88000005 4.875568575e-39
-0.4995048 0.013409524 0.88000005 4.41566242e-39
-0.4978286 0.013409524 0.88000005 4.047234429e-39
-0.4961524 0.013409524 0.88000005 3.215684302e-39
-0.4944762 0.013409524 0.88000005 2.388810308e-39
-0.49392003 0.01344 0.88200003 1.929278298e-39
-0.49223998 0.01344 0.88200003 1.561940518e-39
-0.49167243 0.013470477 0.88400006 1.929286706e-39
-0.49165145 0.01351619 0.88700002 2.388814512e-39
-0.49217144 0.013577144 0.89100003 1.746314962e-39
-0.49047431 0.013577144 0.89100003 1.103480502e-39
-0.49042287 0.013622858 0.89400005 2.297354563e-39
-0.48872 0.013622858 0.89400005 3.583760567e-39
-0.51430476 0.01493143 0.87100005 9.484610183e-39
-0.51382291 0.014965715 0.87300003 8.934331487e-39
-0.51216 0.014965715 0.87300003 8.565572789e-39
-0.51049715 0.014965715 0.87300003 8.287884479e-39
-0.5088343 0.014965715 0.87300003 8.103826728e-39
-0.50833338 0.015000001 0.87500006 8.009477303e-39
-0.50666672 0.015000001 0.87500006 7.641775184e-39
-0.50500005 0.015000001 0.87500006 7.270478735e-39
-0.50333339 0.015000001 0.87500006 6.626547059e-39
-0.50338668 0.015051429 0.87800002 5.889706491e-39
-0.50171429 0.015051429 0.87800002 5.153583388e-39
-0.50118101 0.015085715 0.88000005 4.324178649e-39
-0.4995048 0.015085715 0.88000005 3.863909557e-39
-0.4978286 0.015085715 0.88000005 3.403295745e-39
-0.4961524 0.015085715 0.88000005 2.756501216e-39
-0.4944762 0.015085715 0.88000005 2.112940883e-39
-0.49504006 0.015154286 0.88400006 1.653769007e-39
-0.49335623 0.015154286 0.88400006 1.194950259e-39
-0.49445334 0.015240001 0.88900006 1.65412774e-39
-0.49276 0.015240001 0.88900006 2.113301017e-39
-0.49382859 0.015325715 0.89400005 1.838150458e-39
-0.49212575 0.015325715 0.89400005 1.56265518e-39
-0.49152002 0.015360001 0.89600003 2.664335013e-39
-0.49090669 0.015394287 0.89800006 3.673798197e-39
-0.48919618 0.015394287 0.89800006 4.599319399e-39
-0.51430476 0.016590478 0.87100005 9.484614387e-39
-0.51382291 0.016628573 0.87300003 8.748855622e-39
-0.51216 0.016628573 0.87300003 8.380440243e-39
-0.51049715 0.016628573 0.87300003 8.104192467e-39
-0.5088343 0.016628573 0.87300003 7.919780188e-39
-0.50833338 0.016666668 0.87500006 7.826512565e-39
-0.50666672 0.016666668 0.87500006 7.366263091e-39
-0.50500005 0.016666668 0.87500006 6.993171578e-39
-0.50333339 0.016666668 0.87500006 6.349954564e-39
-0.50338668 0.01672381 0.87800002 5.707103288e-39
-0.50171429 0.01672381 0.87800002 4.7851582e-39
-0.50118101 0.016761905 0.88000005 3.863564838e-39
-0.4995048 0.016761905 0.88000005 3.312183319e-39
-0.4978286 0.016761905 0.88000005 2.759375279e-39
-0.4961524 0.016761905 0.88000005 2.29768527e-39
-0.4944762 0.016761905 0.88000005 1.929998566e-39
-0.49504006 0.016838096 0.88400006 1.378639468e-39
-0.49503052 0.016895238 0.88700002 9.19450777e-40
-0.49556571 0.016971428 0.89100003 1.378977181e-39
-0.49386859 0.016971428 0.89100003 1.929988757e-39
-0.49382859 0.017028572 0.89400005 2.021824253e-39
-0.49212575 0.017028572 0.89400005 2.113306622e-39
-0.49042287 0.017028572 0.89400005 2.939833094e-39
-0.48872 0.017028572 0.89400005 3.859621584e-39
-0.48919618 0.017104764 0.89800006 4.597891476e-39
-0.5154857 0.018291429 0.87300003 9.115841677e-39
-0.51382291 0.018291429 0.87300003 8.470109331e-39
-0.51216 0.018291429 0.87300003 8.102396003e-39
-0.51049715 0.018291429 0.87300003 7.734677069e-39
-0.5088343 0.018291429 0.87300003 7.551346592e-39
-0.50833338 0.018333334 0.87500006 7.368401472e-39
-0.50666672 0.018333334 0.87500006 6.903133948e-39
-0.50500005 0.018333334 0.87500006 6.440356532e-39
-0.50333339 0.018333334 0.87500006 5.798214313e-39
-0.50453335 0.018438095 0.88000005 5.157158101e-39
-0.50171429 0.018396189 0.87800002 4.323821318e-39
-0.50118101 0.018438095 0.88000005 3.494786522e-39
-0.4995048 0.018438095 0.88000005 2.667186655e-39
-0.4978286 0.018438095 0.88000005 1.93178382e-39
-0.4961524 0.018438095 0.88000005 1.839229458e-39
-0.49559999 0.018480001 0.88200003 1.746697516e-39
-0.49504006 0.018521907 0.88400006 1.379735284e-39
-0.49503052 0.018584762 0.88700002 1.012729611e-39
-0.49445334 0.018626668 0.88900006 1.287497615e-39
-0.49386859 0.018668571 0.89100003 1.562646772e-39
-0.49382859 0.01873143 0.89400005 1.837797331e-39
-0.49322665 0.018773332 0.89600003 2.114738749e-39
-0.49152002 0.018773332 0.89600003 2.757947356e-39
-0.48981336 0.018773332 0.89600003 3.494789325e-39
-0.5154857 0.019954285 0.87300003 8.747070368e-39
-0.51382291 0.019954285 0.87300003 8.286090817e-39
-0.51216 0.019954285 0.87300003 7.825111266e-39
-0.51049715 0.019954285 0.87300003 7.457395135e-39
-0.51000005 0.020000001 0.87500006 7.181874634e-39
-0.50833338 0.020000001 0.87500006 6.99784631e-39
-0.50666672 0.020000001 0.87500006 6.440018819e-39
-0.50500005 0.020000001 0.87500006 5.981193064e-39
-0.50333339 0.020000001 0.87500006 5.246862222e-39
-0.50453335 0.020114286 0.88000005 4.600415214e-39
-0.50285721 0.020114286 0.88000005 3.862491443e-39
-0.50118101 0.020114286 0.88000005 3.127088608e-39
-0.4995048 0.020114286 0.88000005 2.115820551e-39
-0.49896002 0.020160001 0.88200003 1.105267157e-39
-0.49728003 0.020160001 0.88200003 1.290008742e-39
-0.49672386 0.020205716 0.88400006 1.563376849e-39
-0.49672002 0.020274285 0.88700002 1.287885774e-39
-0.49614671 0.020320002 0.88900006 1.104199368e-39
-0.49445334 0.020320002 0.88900006 1.197097048e-39
-0.49386859 0.020365715 0.89100003 1.287496213e-39
-0.49217144 0.020365715 0.89100003 1.745956229e-39
-0.49322665 0.020480001 0.89600003 2.205852576e-39
-0.49152002 0.020480001 0.89600003 2.66682512e-39
-0.48872 0.020434286 0.89400005 3.127800467e-39
-0.48701718 0.020434286 0.89400005 3.8653585e-39
-0.5154857 0.021617142 0.87300003 8.470852019e-39
-0.51382291 0.021617142 0.87300003 8.190319073e-39
-0.51216 0.021617142 0.87300003 7.72970386e-39
-0.51166672 0.021666668 0.87500006 7.361274468e-39
-0.51000005 0.021666668 0.87500006 6.994281407e-39
-0.51007622 0.021740953 0.87800002 6.627291148e-39
-0.50840384 0.021740953 0.87800002 6.074120172e-39
-0.50673139 0.021740953 0.87800002 5.520235934e-39
-0.50505906 0.021740953 0.87800002 4.96814676e-39
-0.50338668 0.021740953 0.87800002 4.322048676e-39
-0.50171429 0.021740953 0.87800002 3.586986356e-39
-0.50232005 0.021840001 0.88200003 2.943063087e-39
-0.50063998 0.021840001 0.88200003 2.299139818e-39
-0.49896002 0.021840001 0.88200003 1.747400968e-39
-0.49840766 0.021889525 0.88400006 1.74739256e-39
-0.49840954 0.021963809 0.88700002 1.655564071e-39
-0.49784005 0.022013335 0.88900006 1.196036265e-39
-0.49614671 0.022013335 0.88900006 7.368503767e-40
-0.49556571 0.022062857 0.89100003 1.10490282e-39
-0.49664003 0.022186669 0.89600003 1.563718765e-39
-0.49493331 0.022186669 0.89600003 2.022175979e-39
-0.49322665 0.022186669 0.89600003 2.480996128e-39
-0.49152002 0.022186669 0.89600003 3.034521634e-39
-0.48981336 0.022186669 0.89600003 3.587688406e-39
-0.4881067 0.022186669 0.89600003 4.140139115e-39
-0.5154857 0.02328 0.87300003 8.286436938e-39
-0.51382291 0.02328 0.87300003 8.100260424e-39
-0.51216 0.02328 0.87300003 7.730411516e-39
-0.51166672 0.023333335 0.87500006 7.362705194e-39
-0.51000005 0.023333335 0.87500006 6.811686612e-39
-0.51007622 0.023413332 0.87800002 6.35142873e-39
-0.50840384 0.023413332 0.87800002 5.708577454e-39
-0.50673139 0.023413332 0.87800002 5.152893949e-39
-0.50505906 0.023413332 0.87800002 4.599721571e-39
-0.50453335 0.023466667 0.88000005 4.138374881e-39
-0.50285721 0.023466667 0.88000005 3.403316765e-39
-0.50232005 0.02352 0.88200003 2.758313095e-39
-0.50177526 0.023573335 0.88400006 2.5746393e-39
-0.50009143 0.023573335 0.88400006 2.482439466e-39
-0.50009906 0.023653334 0.88700002 2.114733144e-39
-0.49953333 0.023706669 0.88900006 1.839229458e-39
-0.49784005 0.023706669 0.88900006 1.104548291e-39
-0.4972629 0.023760002 0.89100003 4.620557478e-40
-0.49723428 0.023840001 0.89400005 1.105618883e-39
-0.49664003 0.023893334 0.89600003 1.839583986e-39
-0.49493331 0.023893334 0.89600003 2.298401333e-39
-0.49322665 0.023893334 0.89600003 2.757940349e-39
-0.49152002 0.023893334 0.89600003 3.402227956e-39
-0.48872 0.023840001 0.89400005 4.138705587e-39
-0.48701718 0.023840001 0.89400005 4.414930942e-39
-0.48531431 0.023840001 0.89400005 4.782634461e-39
-0.5184381 0.025085714 0.87800002 8.103099454e-39
-0.51676571 0.025085714 0.87800002 7.736846279e-39
-0.51509333 0.025085714 0.87800002 7.454179155e-39
-0.513421 0.025085714 0.87800002 7.178671265e-39
-0.51174855 0.025085714 0.87800002 6.719492383e-39
-0.51007622 0.025085714 0.87800002 6.167401808e-39
-0.50840384 0.025085714 0.87800002 5.707506862e-39
-0.50673139 0.025085714 0.87800002 5.245086777e-39
-0.50505906 0.025085714 0.87800002 4.599355833e-39
-0.50453335 0.025142858 0.88000005 4.046896716e-39
-0.50685716 0.025342857 0.88700002 3.493361401e-39
-0.50345904 0.025257144 0.88400006 2.941265221e-39
-0.50347811 0.025342857 0.88700002 2.666110458e-39
-0.50009143 0.025257144 0.88400006 2.389166238e-39
-0.50009906 0.025342857 0.88700002 2.297327939e-39
-0.49953333 0.025400002 0.88900006 2.114012876e-39
-0.49784005 0.025400002 0.88900006 1.562998498e-39
-0.4972629 0.025457144 0.89100003 1.105616081e-39
-0.49723428 0.025542859 0.89400005 1.564796364e-39
-0.49553147 0.025542859 0.89400005 2.024331176e-39
-0.49493331 0.025600001 0.89600003 2.482791192e-39
-0.49322665 0.025600001 0.89600003 2.941974278e-39
-0.49042287 0.025542859 0.89400005 3.58518849e-39
-0.48872 0.025542859 0.89400005 4.322382185e-39
-0.48701718 0.025542859 0.89400005 4.690440233e-39
-0.48531431 0.025542859 0.89400005 5.148538714e-39
-0.51961905 0.026819048 0.88000005 7.827957303e-39
-0.51794291 0.026819048 0.88000005 7.458106995e-39
-0.5162667 0.026819048 0.88000005 7.270134016e-39
-0.513421 0.026758095 0.87800002 7.086465826e-39
-0.51174855 0.026758095 0.87800002 6.535455652e-39
-0.51007622 0.026758095 0.87800002 6.075194967e-39
-0.50840384 0.026758095 0.87800002 5.706412448e-39
-0.50673139 0.026758095 0.87800002 5.336197801e-39
-0.50736004 0.02688 0.88200003 4.690835399e-39
-0.51084 0.027154287 0.89100003 4.045819117e-39
-0.50800002 0.027093334 0.88900006 3.583757764e-39
-0.50630665 0.027093334 0.88900006 3.216410174e-39
-0.5046134 0.027093334 0.88900006 2.757584419e-39
-0.50292003 0.027093334 0.88900006 2.3898809e-39
-0.50122666 0.027093334 0.88900006 2.389520766e-39
-0.50065714 0.027154287 0.89100003 2.481354861e-39
-0.49896002 0.027154287 0.89100003 2.113652743e-39
-0.49893716 0.027245715 0.89400005 1.747029624e-39
-0.49723428 0.027245715 0.89400005 2.023254979e-39
-0.49664003 0.027306667 0.89600003 2.298760066e-39
-0.49493331 0.027306667 0.89600003 2.666460783e-39
-0.49322665 0.027306667 0.89600003 3.12564527e-39
-0.49152002 0.027306667 0.89600003 3.768140616e-39
-0.48872 0.027245715 0.89400005 4.505334311e-39
-0.48701718 0.027245715 0.89400005 5.057782217e-39
-0.51961905 0.028495239 0.88000005 7.642856987e-39
-0.51794291 0.028495239 0.88000005 7.363396034e-39
-0.5162667 0.028495239 0.88000005 7.087165074e-39
-0.51576 0.028560001 0.88200003 6.810948127e-39
-0.51407999 0.028560001 0.88200003 6.351418921e-39
-0.51240003 0.028560001 0.88200003 5.983348261e-39
-0.51072001 0.028560001 0.88200003 5.614560136e-39
-0.50904 0.028560001 0.88200003 5.243996566e-39
-0.51138669 0.028786669 0.88900006 4.598643973e-39
-0.51084 0.028851429 0.89100003 4.045101652e-39
-0.50800002 0.028786669 0.88900006 3.494430592e-39
-0.50630665 0.028786669 0.88900006 2.943770742e-39
-0.5046134 0.028786669 0.88900006 2.575705688e-39
-0.50292003 0.028786669 0.88900006 2.299837664e-39
-0.50122666 0.028786669 0.88900006 2.114371609e-39
-0.50065714 0.028851429 0.89100003 2.022175979e-39
-0.49896002 0.028851429 0.89100003 1.746310758e-39
-0.50005335 0.029013334 0.89600003 1.471163002e-39
