# .PCD v0.7 - Point Cloud Data file format
VERSION 0.7
FIELDS x y z rgb
SIZE 4 4 4 4
TYPE F F F F
COUNT 1 1 1 1
WIDTH 955
HEIGHT 1
VIEWPOINT 0 0 0 1 0 0 0
POINTS 955
DATA ascii
0.22644763 -0.042367619 0.76700002 9.291906421e-39
0.23192382 -0.042036191 0.76100004 8.276675493e-39
0.23389715 -0.041870475 0.75800002 8.092663985e-39
0.23584764 -0.041704766 0.75500005 8.0033228e-39
0.23793525 -0.041318096 0.74800003 8.00405708e-39
0.23981906 -0.041152384 0.74500006 8.278128639e-39
0.24059048 -0.041041907 0.74300003 8.645470624e-39
0.2435181 -0.040820953 0.73900002 9.659626756e-39
0.24426287 -0.040710479 0.73700005 1.011952871e-38
0.25094098 -0.04065524 0.73600006 1.2326805e-38
0.25549334 -0.040710479 0.73700005 1.352461111e-38
0.25689715 -0.040710479 0.73700005 1.389589214e-38
0.25830096 -0.040710479 0.73700005 1.408134979e-38
0.2789562 -0.043030478 0.77900004 1.379797361e-38
0.28080001 -0.043085717 0.78000003 1.342989735e-38
0.28377146 -0.043085717 0.78000003 1.223351636e-38
0.28489146 -0.043030478 0.77900004 1.222993744e-38
0.28712001 -0.042920001 0.77700001 1.23235652e-38
0.2886 -0.042920001 0.77700001 1.232427846e-38
0.29155999 -0.042920001 0.77700001 1.232391973e-38
0.29304001 -0.042920001 0.77700001 1.223136957e-38
0.29523808 -0.042809524 0.77500004 1.18632835e-38
0.29671431 -0.042809524 0.77500004 1.15874421e-38
0.29819047 -0.042809524 0.77500004 1.149634789e-38
0.30566478 -0.043030478 0.77900004 1.177830455e-38
0.3105143 -0.043085717 0.78000003 7.825785291e-39
0.31200001 -0.043085717 0.78000003 8.010161136e-39
0.22235428 -0.040959999 0.76800001 9.288309288e-39
0.22790857 -0.040906668 0.76700002 8.740534711e-39
0.23108 -0.040693335 0.76300001 8.369252276e-39
0.23306668 -0.040533334 0.76000005 7.908999999e-39
0.23389715 -0.040426668 0.75800002 8.276695111e-39
0.23584764 -0.04026667 0.75500005 8.0951625e-39
0.23981906 -0.039733339 0.74500006 8.554348388e-39
0.24059048 -0.039626669 0.74300003 8.9220435e-39
0.24168001 -0.039573334 0.74200004 9.290109956e-39
0.24243809 -0.039466668 0.74000001 9.566699648e-39
0.24384762 -0.039466668 0.74000001 9.841854411e-39
0.24492571 -0.039413337 0.73900002 1.039143946e-38
0.2484743 -0.03930667 0.73700005 1.168539006e-38
0.25268573 -0.03930667 0.73700005 1.297073808e-38
0.25408953 -0.03930667 0.73700005 1.343063163e-38
0.25549334 -0.03930667 0.73700005 1.370721431e-38
0.25689715 -0.03930667 0.73700005 1.398737451e-38
0.27161905 -0.041333333 0.77500004 1.426466485e-38
0.27379999 -0.041439999 0.77700001 1.454052867e-38
0.27675998 -0.041439999 0.77700001 1.462950412e-38
0.28228572 -0.0416 0.78000003 1.31526014e-38
0.28377146 -0.0416 0.78000003 1.24164839e-38
0.28525716 -0.0416 0.78000003 1.250473207e-38
0.28934288 -0.041546665 0.77900004 1.250866832e-38
0.29155999 -0.041439999 0.77700001 1.250866412e-38
0.29304001 -0.041439999 0.77700001 1.241396297e-38
0.29451999 -0.041439999 0.77700001 1.232104567e-38
0.29523808 -0.041333333 0.77500004 1.167711539e-38
0.29896 -0.041439999 0.77700001 1.094174899e-38
0.30044001 -0.041439999 0.77700001 1.076202265e-38
0.30418095 -0.041546665 0.77900004 1.159679296e-38
0.30566478 -0.041546665 0.77900004 1.132021168e-38
0.30714858 -0.041546665 0.77900004 1.104614432e-38
0.22235428 -0.039497141 0.76800001 9.47699833e-39
0.22528 -0.039497141 0.76800001 8.735865585e-39
0.22674286 -0.039497141 0.76800001 8.463586287e-39
0.23083048 -0.039445713 0.76700002 8.187732276e-39
0.23108 -0.039239999 0.76300001 8.185598099e-39
0.23192382 -0.039137144 0.76100004 7.909752496e-39
0.2345143 -0.039085716 0.76000005 7.910790858e-39
0.23522286 -0.038725715 0.75300002 7.820737814e-39
0.23665714 -0.038725715 0.75300002 7.545232727e-39
0.23793525 -0.038468573 0.74800003 8.096610041e-39
0.23904002 -0.038417142 0.74700004 8.371762001e-39
0.23981906 -0.03831429 0.74500006 8.739092775e-39
0.24123812 -0.03831429 0.74500006 9.108217212e-39
0.24200574 -0.038211431 0.74300003 9.385524369e-39
0.24309334 -0.03816 0.74200004 9.843273926e-39
0.24450669 -0.03816 0.74200004 1.030066475e-38
0.24707049 -0.037902862 0.73700005 1.168287193e-38
0.2484743 -0.037902862 0.73700005 1.214600247e-38
0.25128192 -0.037902862 0.73700005 1.278527343e-38
0.25268573 -0.037902862 0.73700005 1.315405455e-38
0.25408953 -0.037902862 0.73700005 1.361395089e-38
0.25549334 -0.037902862 0.73700005 1.379977708e-38
0.27014288 -0.039857145 0.77500004 1.407921561e-38
0.27161905 -0.039857145 0.77500004 1.435506822e-38
0.27379999 -0.039960001 0.77700001 1.453909935e-38
0.27528 -0.039960001 0.77700001 1.463201244e-38
0.2789562 -0.04006286 0.77900004 1.453696237e-38
0.28080001 -0.040114287 0.78000003 1.453553164e-38
0.28228572 -0.040114287 0.78000003 1.398093555e-38
0.28934288 -0.04006286 0.77900004 1.251153818e-38
0.29082668 -0.04006286 0.77900004 1.269411896e-38
0.29304001 -0.039960001 0.77700001 1.296856327e-38
0.29451999 -0.039960001 0.77700001 1.315223566e-38
0.29747999 -0.039960001 0.77700001 1.241361825e-38
0.30121335 -0.04006286 0.77900004 1.213884464e-38
0.30386287 -0.040217146 0.78200006 1.251444167e-38
0.30457145 -0.040114287 0.78000003 1.288465211e-38
0.30605716 -0.040114287 0.78000003 1.260950436e-38
0.3086324 -0.04006286 0.77900004 9.846917302e-39
0.22089143 -0.038034286 0.76800001 1.021886956e-38
0.22293335 -0.038133334 0.77000004 9.757525671e-39
0.22820571 -0.038034286 0.76800001 8.000097011e-39
0.23108 -0.03778667 0.76300001 8.001554361e-39
0.23616001 -0.037440002 0.75600004 7.546301917e-39
0.23728573 -0.037390478 0.75500005 7.545587255e-39
0.23872383 -0.037390478 0.75500005 7.820379081e-39
0.23857144 -0.037142862 0.75000006 8.188444136e-39
0.24123812 -0.036895238 0.74500006 9.294047605e-39
0.24200574 -0.03679619 0.74300003 9.569559699e-39
0.24592 -0.03674667 0.74200004 1.131552714e-38
0.24633333 -0.036598098 0.73900002 1.177362702e-38
0.2505562 -0.036598098 0.73900002 1.278778175e-38
0.25196382 -0.036598098 0.73900002 1.306257638e-38
0.25337145 -0.036598098 0.73900002 1.342920651e-38
0.25408953 -0.03649905 0.73700005 1.379834355e-38
0.27014288 -0.038380954 0.77500004 1.426216914e-38
0.27161905 -0.038380954 0.77500004 1.444582332e-38
0.27528 -0.038479999 0.77700001 1.463165651e-38
0.27675998 -0.038479999 0.77700001 1.472313888e-38
0.28525716 -0.038628571 0.78000003 1.416243453e-38
0.28637525 -0.03857905 0.77900004 1.370254098e-38
0.28934288 -0.03857905 0.77900004 1.250938158e-38
0.29082668 -0.03857905 0.77900004 1.287778295e-38
0.2952781 -0.03857905 0.77900004 1.407310315e-38
0.2967619 -0.03857905 0.77900004 1.389732707e-38
0.29747999 -0.038479999 0.77700001 1.380513845e-38
0.30121335 -0.03857905 0.77900004 1.362148287e-38
0.30192 -0.038479999 0.77700001 1.38973579e-38
0.30487999 -0.038479999 0.77700001 1.389486779e-38
0.22527431 -0.036809526 0.77300006 9.664974111e-39
0.22733334 -0.036666669 0.77000004 8.646531407e-39
0.23083048 -0.036523812 0.76700002 7.544152326e-39
0.23192382 -0.036238097 0.76100004 7.725680732e-39
0.23534095 -0.036095239 0.75800002 7.360838664e-39
0.23728573 -0.035952386 0.75500005 7.449800097e-39
0.23936 -0.03561905 0.74800003 8.556513395e-39
0.24046285 -0.03557143 0.74700004 9.017478932e-39
0.24265717 -0.035476193 0.74500006 9.754672627e-39
0.24342096 -0.035380952 0.74300003 1.030604854e-38
0.24625145 -0.035380952 0.74300003 1.131696487e-38
0.2480762 -0.035238095 0.74000001 1.233216497e-38
0.2494857 -0.035238095 0.74000001 1.297502606e-38
0.2505562 -0.035190478 0.73900002 1.315655867e-38
0.25268573 -0.035095241 0.73700005 1.370686959e-38
0.26944575 -0.036809526 0.77300006 1.453695817e-38
0.27457145 -0.03690476 0.77500004 1.463201945e-38
0.27675998 -0.037 0.77700001 1.444870999e-38
0.28340763 -0.037095238 0.77900004 1.472422909e-38
0.28525716 -0.037142858 0.78000003 1.444474992e-38
0.28934288 -0.037095238 0.77900004 1.361068727e-38
0.29082668 -0.037095238 0.77900004 1.361138512e-38
0.29231051 -0.037095238 0.77900004 1.35202825e-38
0.2937943 -0.037095238 0.77900004 1.333519199e-38
0.29565713 -0.037142858 0.78000003 1.315762085e-38
0.29824573 -0.037095238 0.77900004 1.352963056e-38
0.29972953 -0.037095238 0.77900004 1.307045448e-38
0.30121335 -0.037095238 0.77900004 1.270312651e-38
0.3178286 -0.038571432 0.81000006 1.408035767e-38
0.32170668 -0.038666669 0.81200004 1.168935013e-38
0.22792381 -0.03529143 0.77200001 9.110383619e-39
0.2288 -0.035200004 0.77000004 7.914721501e-39
0.23108 -0.034880001 0.76300001 7.909709056e-39
0.23253334 -0.034880001 0.76300001 7.725679331e-39
0.23337334 -0.034788571 0.76100004 7.54344467e-39
0.2345143 -0.034742858 0.76000005 7.361570142e-39
0.23596191 -0.034742858 0.76000005 7.177530608e-39
0.23760001 -0.034560002 0.75600004 7.45303009e-39
0.23904002 -0.034560002 0.75600004 7.821093744e-39
0.24000001 -0.034285717 0.75000006 8.648707623e-39
0.24188572 -0.034148574 0.74700004 9.477373878e-39
0.24549526 -0.034057144 0.74500006 1.094925855e-38
0.2469143 -0.034057144 0.74500006 1.131696207e-38
0.24874668 -0.033920001 0.74200004 1.25161989e-38
0.25157332 -0.033920001 0.74200004 1.352569151e-38
0.26331431 -0.03510857 0.76800001 1.407528497e-38
0.2644324 -0.035062857 0.76700002 1.435294245e-38
0.27239048 -0.035337146 0.77300006 1.490429314e-38
0.27604762 -0.035428572 0.77500004 1.4265039e-38
0.27971998 -0.035520002 0.77700001 1.610068814e-38
0.28192383 -0.035611432 0.77900004 1.545856694e-38
0.29268572 -0.035657145 0.78000003 1.38854819e-38
0.29641527 -0.035748575 0.78200006 1.2330035e-38
0.29972953 -0.035611432 0.77900004 1.251584017e-38
0.30044001 -0.035520002 0.77700001 1.178404567e-38
0.30340001 -0.035520002 0.77700001 1.398848714e-38
0.31937146 -0.037028577 0.81000006 1.454020778e-38
0.3209143 -0.037028577 0.81000006 1.288714783e-38
0.22380193 -0.033864763 0.77300006 1.049329144e-38
0.22585715 -0.033952381 0.77500004 1.040110983e-38
0.22674668 -0.033864763 0.77300006 9.940511428e-39
0.23337334 -0.033339046 0.76100004 7.633489307e-39
0.23678477 -0.033207618 0.75800002 7.269357697e-39
0.23760001 -0.033119999 0.75600004 7.360479932e-39
0.23952572 -0.032988571 0.75300002 8.464310758e-39
0.24000001 -0.032857146 0.75000006 8.923137914e-39
0.24757716 -0.032725718 0.74700004 1.20545145e-38
0.24833336 -0.032638099 0.74500006 1.297502185e-38
0.25218287 -0.032769524 0.74800003 1.4080282e-38
0.26228574 -0.033514287 0.76500005 1.435473612e-38
0.26374286 -0.033514287 0.76500005 1.463059713e-38
0.26589334 -0.033601906 0.76700002 1.508941168e-38
0.26735431 -0.033601906 0.76700002 1.555002549e-38
0.26986668 -0.033733334 0.77000004 1.53642049e-38
0.27133337 -0.033733334 0.77000004 1.508653621e-38
0.27752382 -0.033952381 0.77500004 1.490753855e-38
0.27900001 -0.033952381 0.77500004 1.53663573e-38
0.28489146 -0.034127623 0.77900004 1.499936143e-38
0.28822857 -0.034171429 0.78000003 1.518337575e-38
0.29120001 -0.034171429 0.78000003 1.472060814e-38
0.29790479 -0.034259051 0.78200006 1.379798062e-38
0.3001143 -0.034171429 0.78000003 1.325266392e-38
0.30044001 -0.03404 0.77700001 1.279387039e-38
0.30192 -0.03404 0.77700001 1.362113395e-38
0.22438096 -0.03247619 0.77500004 1.067625198e-38
0.22821906 -0.032392383 0.77300006 9.85010946e-39
0.22939429 -0.032350477 0.77200001 9.30087333e-39
0.23026668 -0.032266669 0.77000004 8.833805137e-39
0.23253334 -0.031973332 0.76300001 8.002969673e-39
0.23678477 -0.031763811 0.75800002 7.177879532e-39
0.23760001 -0.031679999 0.75600004 7.36191346e-39
0.23904002 -0.031679999 0.75600004 8.005485003e-39
0.24016191 -0.031638097 0.75500005 8.648344687e-39
0.24207239 -0.031512383 0.75200003 9.932260583e-39
0.24428575 -0.031428576 0.75000006 1.103895146e-38
0.24857146 -0.031428576 0.75000006 1.288498142e-38
0.24933335 -0.031344764 0.74800003 1.417211189e-38
0.25801525 -0.031889524 0.76100004 1.453911336e-38
0.26589334 -0.032140952 0.76700002 1.564043306e-38
0.26735431 -0.032140952 0.76700002 1.628544514e-38
0.2728 -0.032266669 0.77000004 1.499180423e-38
0.27497905 -0.032350477 0.77200001 1.463165091e-38
0.27680764 -0.032392383 0.77300006 1.463130759e-38
0.28268 -0.032559998 0.77700001 1.43557969e-38
0.28416002 -0.032559998 0.77700001 1.518303523e-38
0.28785905 -0.03264381 0.77900004 1.564256864e-38
0.28971431 -0.032685712 0.78000003 1.518338836e-38
0.29120001 -0.032685712 0.78000003 1.509155146e-38
0.29268572 -0.032685712 0.78000003 1.50000817e-38
0.29790479 -0.032769527 0.78200006 1.491005668e-38
0.29939431 -0.032769527 0.78200006 1.43579549e-38
0.3001143 -0.032685712 0.78000003 1.40813596e-38
0.30160001 -0.032685712 0.78000003 1.389734389e-38
0.31241143 -0.033691429 0.80400002 1.444836948e-38
0.31550476 -0.033859048 0.80800003 1.509050189e-38
0.3209143 -0.03394286 0.81000006 1.417141124e-38
0.22585715 -0.031000003 0.77500004 1.040077492e-38
0.22939429 -0.030879999 0.77200001 9.299081069e-39
0.23113143 -0.030720001 0.76800001 8.555787522e-39
0.23314287 -0.0306 0.76500005 8.003680131e-39
0.24382859 -0.03012 0.75300002 1.066946689e-38
0.24493717 -0.030080002 0.75200003 1.122155887e-38
0.24956572 -0.03012 0.75300002 1.297717845e-38
0.25622857 -0.030400002 0.76000005 1.444762959e-38
0.26014665 -0.030520001 0.76300001 1.426110415e-38
0.26374286 -0.0306 0.76500005 1.499830766e-38
0.26520002 -0.0306 0.76500005 1.545713061e-38
0.26916569 -0.030720001 0.76800001 1.564406943e-38
0.27426666 -0.0308 0.77000004 1.481423449e-38
0.28195238 -0.031000003 0.77500004 1.472421228e-38
0.28564 -0.031079998 0.77700001 1.564257985e-38
0.29120001 -0.031200001 0.78000003 1.518304224e-38
0.29268572 -0.031200001 0.78000003 1.509085081e-38
0.30088383 -0.03128 0.78200006 1.45405623e-38
0.30121335 -0.031160003 0.77900004 1.417429652e-38
0.31937146 -0.032400005 0.81000006 1.435581792e-38
0.3209143 -0.032400005 0.81000006 1.426469288e-38
0.32245716 -0.032400005 0.81000006 1.417356364e-38
0.22438096 -0.02952381 0.77500004 1.003412657e-38
0.22585715 -0.02952381 0.77500004 1.003342032e-38
0.22645333 -0.029409524 0.77200001 9.851194065e-39
0.22792381 -0.029409524 0.77200001 9.667150328e-39
0.23026668 -0.029333334 0.77000004 8.834879933e-39
0.23113143 -0.029257143 0.76800001 8.463954828e-39
0.23544 -0.029066667 0.76300001 7.72926105e-39
0.23627239 -0.028990477 0.76100004 7.637062618e-39
0.23740953 -0.028952383 0.76000005 7.728895311e-39
0.23967238 -0.028876189 0.75800002 8.373187122e-39
0.24160002 -0.028761907 0.75500005 9.567784253e-39
0.24591431 -0.028761907 0.75500005 1.149992961e-38
0.24879049 -0.028761907 0.75500005 1.251586679e-38
0.25022858 -0.028761907 0.75500005 1.30693937e-38
0.26374286 -0.029142858 0.76500005 1.508942429e-38
0.26520002 -0.029142858 0.76500005 1.527381415e-38
0.26881525 -0.029219048 0.76700002 1.545859076e-38
0.27062857 -0.029257143 0.76800001 1.536708037e-38
0.27573335 -0.029333334 0.77000004 1.509048787e-38
0.27792001 -0.029409524 0.77200001 1.518196184e-38
0.29417142 -0.029714286 0.78000003 1.527416307e-38
0.30165336 -0.029866667 0.78400004 1.499973138e-38
0.31241143 -0.030628571 0.80400002 1.453912738e-38
0.31858286 -0.030780952 0.80800003 1.435582492e-38
0.32245716 -0.030857144 0.81000006 1.426504741e-38
0.22645333 -0.027939048 0.77200001 1.003376504e-38
0.22966857 -0.027794285 0.76800001 9.110026288e-39
0.23113143 -0.027794285 0.76800001 8.73802919e-39
0.23521332 -0.027758095 0.76700002 8.001911692e-39
0.23605716 -0.027685715 0.76500005 7.819307088e-39
0.24192002 -0.02736 0.75600004 9.660328807e-39
0.2448 -0.02736 0.75600004 1.085527486e-38
0.24624 -0.02736 0.75600004 1.141095837e-38
0.24768002 -0.02736 0.75600004 1.187014285e-38
0.25122285 -0.027432382 0.75800002 1.279175724e-38
0.25266668 -0.027432382 0.75800002 1.32509151e-38
0.25478098 -0.027504763 0.76000005 1.343528534e-38
0.26014665 -0.027613332 0.76300001 1.426003216e-38
0.26374286 -0.027685715 0.76500005 1.490503443e-38
0.26520002 -0.027685715 0.76500005 1.499722866e-38
0.26665717 -0.027685715 0.76500005 1.518126679e-38
0.26881525 -0.027758095 0.76700002 1.50894411e-38
0.27209145 -0.027794285 0.76800001 1.499829645e-38
0.28342858 -0.028047619 0.77500004 1.518270032e-38
0.29231051 -0.028192382 0.77900004 1.51826793e-38
0.29641527 -0.028300956 0.78200006 1.527345962e-38
0.31937146 -0.029314287 0.81000006 1.417251967e-38
0.23259428 -0.026331428 0.76800001 8.73479219e-39
0.23375238 -0.026297145 0.76700002 8.367810339e-39
0.23521332 -0.026297145 0.76700002 8.092299647e-39
0.2375143 -0.026228571 0.76500005 7.820018948e-39
0.23917143 -0.02609143 0.76100004 8.096603035e-39
0.24320002 -0.026057145 0.76000005 9.752876162e-39
0.24400382 -0.025988571 0.75800002 1.030281574e-38
0.24544762 -0.025988571 0.75800002 1.076486589e-38
0.24689142 -0.025988571 0.75800002 1.131696487e-38
0.24833524 -0.025988571 0.75800002 1.168575159e-38
0.24977905 -0.025988571 0.75800002 1.214637241e-38
0.25122285 -0.025988571 0.75800002 1.251515914e-38
0.25333336 -0.026057145 0.76000005 1.288320737e-38
0.25478098 -0.026057145 0.76000005 1.315978025e-38
0.26881525 -0.026297145 0.76700002 1.472172918e-38
0.27062857 -0.026331428 0.76800001 1.463059853e-38
0.27209145 -0.026331428 0.76800001 1.472278155e-38
0.27355427 -0.026331428 0.76800001 1.490681408e-38
0.27573335 -0.026400002 0.77000004 1.545854732e-38
0.27866668 -0.026400002 0.77000004 1.555074716e-38
0.28086093 -0.026468571 0.77200001 1.509121375e-38
0.28269717 -0.026502859 0.77300006 1.518305345e-38
0.28490478 -0.02657143 0.77500004 1.527453441e-38
0.28638095 -0.02657143 0.77500004 1.56418806e-38
0.2886 -0.02664 0.77700001 1.60095617e-38
0.29231051 -0.026708573 0.77900004 1.518231356e-38
0.29417142 -0.026742859 0.78000003 1.518196324e-38
0.29565713 -0.026742859 0.78000003 1.527380994e-38
0.30242285 -0.026948573 0.78600001 1.472276754e-38
0.30469334 -0.027017144 0.78800005 1.435543536e-38
0.31625906 -0.027634287 0.80600005 1.426399503e-38
0.32325333 -0.027840002 0.81200004 1.398918919e-38
0.324 -0.02777143 0.81000006 1.398774726e-38
0.3255429 -0.02777143 0.81000006 1.398774726e-38
0.22966857 -0.02486857 0.76800001 9.757524269e-39
0.23113143 -0.02486857 0.76800001 9.385161432e-39
0.23521332 -0.024836192 0.76700002 8.368869721e-39
0.2375143 -0.02477143 0.76500005 7.819301483e-39
0.23834667 -0.024706667 0.76300001 7.820027355e-39
0.24207048 -0.024641905 0.76100004 8.923835761e-39
0.24352001 -0.024641905 0.76100004 9.475211674e-39
0.24496953 -0.024641905 0.76100004 1.002694352e-38
0.24754287 -0.024609525 0.76000005 1.085491193e-38
0.25221714 -0.024641905 0.76100004 1.196054342e-38
0.26014665 -0.024706667 0.76300001 1.370865204e-38
0.26159999 -0.024706667 0.76300001 1.398308514e-38
0.27062857 -0.02486857 0.76800001 1.426360547e-38
0.27209145 -0.02486857 0.76800001 1.435471369e-38
0.27355427 -0.02486857 0.76800001 1.444583453e-38
0.27501714 -0.02486857 0.76800001 1.481569044e-38
0.27720001 -0.024933334 0.77000004 1.527559099e-38
0.27866668 -0.024933334 0.77000004 1.500009011e-38
0.28013334 -0.024933334 0.77000004 1.481678065e-38
0.28233144 -0.024998097 0.77200001 1.500009572e-38
0.28490478 -0.025095237 0.77500004 1.518340657e-38
0.29231051 -0.025224764 0.77900004 1.518158909e-38
0.29790479 -0.025321906 0.78200006 1.499973558e-38
0.30016002 -0.025386669 0.78400004 1.509155006e-38
0.31858286 -0.026163809 0.80800003 1.380552381e-38
0.3209143 -0.026228573 0.81000006 1.40810303e-38
0.23113143 -0.023405714 0.76800001 9.850082836e-39
0.23405714 -0.023405714 0.76800001 9.101401296e-39
0.23521332 -0.023375239 0.76700002 8.643660146e-39
0.23667429 -0.023375239 0.76700002 8.186277729e-39
0.23897144 -0.023314286 0.76500005 7.816815579e-39
0.24188572 -0.023314286 0.76500005 8.18556727e-39
0.24270667 -0.023253333 0.76300001 8.647617413e-39
0.24641907 -0.023192381 0.76100004 1.012165168e-38
0.24931812 -0.023192381 0.76100004 1.085671119e-38
0.25221714 -0.023192381 0.76100004 1.150027993e-38
0.25511619 -0.023192381 0.76100004 1.21463556e-38
0.25656572 -0.023192381 0.76100004 1.251370319e-38
0.26589334 -0.023375239 0.76700002 1.370757865e-38
0.26735431 -0.023375239 0.76700002 1.380120781e-38
0.27062857 -0.023405714 0.76800001 1.389375516e-38
0.27209145 -0.023405714 0.76800001 1.398450886e-38
0.27501714 -0.023405714 0.76800001 1.426467046e-38
0.28233144 -0.023527618 0.77200001 1.481785545e-38
0.28638095 -0.023619048 0.77500004 1.509192981e-38
0.29231051 -0.023740953 0.77900004 1.518339256e-38
0.2937943 -0.023740953 0.77900004 1.490789028e-38
0.29565713 -0.023771429 0.78000003 1.472387176e-38
0.29714286 -0.023771429 0.78000003 1.490934623e-38
0.30242285 -0.023954285 0.78600001 1.48163953e-38
0.3154743 -0.024502857 0.80400002 1.389807677e-38
0.31858286 -0.024624763 0.80800003 1.362149548e-38
0.32012191 -0.024624763 0.80800003 1.417250986e-38
0.324 -0.024685716 0.81000006 1.435688851e-38
0.23113143 -0.021942858 0.76800001 9.666416047e-39
0.23405714 -0.021942858 0.76800001 9.296192993e-39
0.23552001 -0.021942858 0.76800001 9.10929481e-39
0.23813525 -0.021914287 0.76700002 8.091956329e-39
0.23959619 -0.021914287 0.76700002 7.634239001e-39
0.24334286 -0.021857142 0.76500005 8.371399065e-39
0.2448 -0.021857142 0.76500005 8.740180183e-39
0.24561334 -0.021799998 0.76300001 9.10823683e-39
0.24706668 -0.021799998 0.76300001 9.478806005e-39
0.25076762 -0.021742858 0.76100004 1.058083897e-38
0.25366667 -0.021742858 0.76100004 1.13151656e-38
0.26374286 -0.021857142 0.76500005 1.306221625e-38
0.26735431 -0.021914287 0.76700002 1.315440907e-38
0.27027619 -0.021914287 0.76700002 1.324803963e-38
0.27866668 -0.022 0.77000004 1.40813638e-38
0.28233144 -0.022057142 0.77200001 1.453983363e-38
0.2937943 -0.022257144 0.77900004 1.481569885e-38
0.29939431 -0.022342859 0.78200006 1.518269331e-38
0.30242285 -0.022457143 0.78600001 1.481497298e-38
0.32012191 -0.023085715 0.80800003 1.41728714e-38
0.23405714 -0.020479999 0.76800001 9.573498749e-39
0.23844571 -0.020479999 0.76800001 8.464666688e-39
0.24105714 -0.020453334 0.76700002 6.533973078e-39
0.2425181 -0.020453334 0.76700002 7.360486938e-39
0.24397905 -0.020453334 0.76700002 8.188442735e-39
0.2448 -0.020400003 0.76500005 8.281713161e-39
0.24690095 -0.020453334 0.76700002 8.466098815e-39
0.24852002 -0.020346668 0.76300001 9.38732784e-39
0.25142667 -0.020346668 0.76300001 9.846149391e-39
0.25288001 -0.020346668 0.76300001 1.039680223e-38
0.25433335 -0.020346668 0.76300001 1.094817394e-38
0.25724 -0.020346668 0.76300001 1.159390349e-38
0.26082858 -0.020400003 0.76500005 1.205237471e-38
0.2644324 -0.020453334 0.76700002 1.241935937e-38
0.26735431 -0.020453334 0.76700002 1.260266742e-38
0.26881525 -0.020453334 0.76700002 1.260337788e-38
0.27062857 -0.020479999 0.76800001 1.269593364e-38
0.27209145 -0.020479999 0.76800001 1.278992574e-38
0.27501714 -0.020479999 0.76800001 1.315690619e-38
0.27866668 -0.020533334 0.77000004 1.362111013e-38
0.28269717 -0.020613333 0.77300006 1.417213431e-38
0.28416955 -0.020613333 0.77300006 1.463059573e-38
0.28638095 -0.020666666 0.77500004 1.453804417e-38
0.2886 -0.020719999 0.77700001 1.444728347e-38
0.29304001 -0.020719999 0.77700001 1.463203066e-38
0.30242285 -0.020959999 0.78600001 1.481389678e-38
0.30585334 -0.021093333 0.79100001 1.426288661e-38
0.31316191 -0.021386668 0.80200005 1.426433275e-38
0.32245716 -0.021600002 0.81000006 1.399063113e-38
0.324 -0.021600002 0.81000006 1.399026819e-38
0.32634667 -0.021653334 0.81200004 1.398918079e-38
0.32789335 -0.021653334 0.81200004 1.408064634e-38
0.23405714 -0.019017143 0.76800001 1.00344755e-38
0.23698285 -0.019017143 0.76800001 9.57242115e-39
0.23844571 -0.019017143 0.76800001 8.927058747e-39
0.24105714 -0.018992381 0.76700002 7.451597963e-39
0.2425181 -0.018992381 0.76700002 7.728546388e-39
0.24576001 -0.019017143 0.76800001 8.098395295e-39
0.2483619 -0.018992381 0.76700002 8.466090407e-39
0.25062856 -0.018942859 0.76500005 9.017118798e-39
0.25288001 -0.018893335 0.76300001 9.845063384e-39
0.25433335 -0.018893335 0.76300001 1.030567439e-38
0.2644324 -0.018992381 0.76700002 1.205236771e-38
0.26770288 -0.019017143 0.76800001 1.223495409e-38
0.27062857 -0.019017143 0.76800001 1.223494709e-38
0.27426666 -0.019066667 0.77000004 1.223567997e-38
0.27720001 -0.019066667 0.77000004 1.23289574e-38
0.28086093 -0.019116191 0.77200001 1.297611627e-38
0.28269717 -0.019140953 0.77300006 1.315943413e-38
0.28638095 -0.019190477 0.77500004 1.352677471e-38
0.29008001 -0.019239999 0.77700001 1.398595219e-38
0.2937943 -0.019289525 0.77900004 1.416962879e-38
0.29939431 -0.019363809 0.78200006 1.462771046e-38
0.30242285 -0.019462857 0.78600001 1.435077324e-38
0.30585334 -0.019586666 0.79100001 1.407418916e-38
0.30735999 -0.019586666 0.79100001 1.41721217e-38
0.31316191 -0.019859049 0.80200005 1.426504461e-38
0.3154743 -0.019908572 0.80400002 1.426505722e-38
0.31779429 -0.019958096 0.80600005 1.435833185e-38
0.32012191 -0.02000762 0.80800003 1.399063674e-38
0.32480001 -0.020106668 0.81200004 1.38065958e-38
0.32634667 -0.020106668 0.81200004 1.389805295e-38
0.32870096 -0.02015619 0.81400001 1.398986882e-38
0.33025143 -0.02015619 0.81400001 1.417391817e-38
0.33180189 -0.02015619 0.81400001 1.307083704e-38
0.23990858 -0.017554285 0.76800001 8.931003403e-39
0.24105714 -0.017531428 0.76700002 8.468960267e-39
0.2464 -0.017600002 0.77000004 7.910774043e-39
0.2486857 -0.017554285 0.76800001 8.09731069e-39
0.25014856 -0.017554285 0.76800001 8.280629957e-39
0.25062856 -0.017485715 0.76500005 8.555786121e-39
0.25566667 -0.017531428 0.76700002 9.753590825e-39
0.25712761 -0.017531428 0.76700002 1.012165308e-38
0.25858858 -0.017531428 0.76700002 1.048937481e-38
0.26331431 -0.017554285 0.76800001 1.140844163e-38
0.26546669 -0.017600002 0.77000004 1.17765137e-38
0.26693335 -0.017600002 0.77000004 1.1869438e-38
0.26986668 -0.017600002 0.77000004 1.186689324e-38
0.27133337 -0.017600002 0.77000004 1.186689324e-38
0.27497905 -0.017645715 0.77200001 1.159211263e-38
0.27644953 -0.017645715 0.77200001 1.14102437e-38
0.27792001 -0.017645715 0.77200001 1.131697468e-38
0.27939048 -0.017645715 0.77200001 1.177472003e-38
0.28342858 -0.017714286 0.77500004 1.223856944e-38
0.29417142 -0.017828573 0.78000003 1.361789275e-38
0.29565713 -0.017828573 0.78000003 1.37093583e-38
0.29714286 -0.017828573 0.78000003 1.380118258e-38
0.29939431 -0.017874287 0.78200006 1.398414172e-38
0.30242285 -0.017965714 0.78600001 1.398342986e-38
0.30969146 -0.018217145 0.79700005 1.417355943e-38
0.32012191 -0.018468572 0.80800003 1.389916277e-38
0.32166097 -0.018468572 0.80800003 1.343926082e-38
0.33180189 -0.018605713 0.81400001 1.343854196e-38
0.23990858 -0.016091429 0.76800001 9.02427523e-39
0.24346668 -0.016133334 0.77000004 8.654422118e-39
0.24851048 -0.016175238 0.77200001 8.187352525e-39
0.25030476 -0.016196191 0.77300006 7.911844635e-39
0.25177717 -0.016196191 0.77300006 7.636703885e-39
0.25520003 -0.016133334 0.77000004 8.922765169e-39
0.25666666 -0.016133334 0.77000004 9.290471491e-39
0.25813335 -0.016133334 0.77000004 9.566343719e-39
0.25960001 -0.016133334 0.77000004 9.93407106e-39
0.264 -0.016133334 0.77000004 1.09463999e-38
0.26840001 -0.016133334 0.77000004 1.149599616e-38
0.27386287 -0.016196191 0.77300006 1.122224971e-38
0.27533525 -0.016196191 0.77300006 1.103966332e-38
0.2797524 -0.016196191 0.77300006 1.140522986e-38
0.28564 -0.016279999 0.77700001 1.186656394e-38
0.28712001 -0.016279999 0.77700001 1.223498212e-38
0.28934288 -0.016321905 0.77900004 1.26033947e-38
0.29417142 -0.016342856 0.78000003 1.324946896e-38
0.29790479 -0.016384764 0.78200006 1.343383499e-38
0.30016002 -0.016426668 0.78400004 1.352388384e-38
0.30319241 -0.016510477 0.78800005 1.334022125e-38
0.31316191 -0.01680381 0.80200005 1.426469288e-38
0.31468952 -0.01680381 0.80200005 1.444873522e-38
0.31932953 -0.01688762 0.80600005 1.426543277e-38
0.32166097 -0.016929524 0.80800003 1.380660561e-38
0.32634667 -0.017013334 0.81200004 1.398990946e-38
0.33025143 -0.01705524 0.81400001 1.389592437e-38
0.3353143 -0.017076191 0.81500006 1.261275817e-38
0.25242859 -0.014761905 0.77500004 6.993137947e-39
0.25390476 -0.014761905 0.77500004 7.635630491e-39
0.25586286 -0.014704762 0.77200001 8.552910656e-39
0.25766668 -0.01472381 0.77300006 8.828418546e-39
0.26061144 -0.01472381 0.77300006 9.381963669e-39
0.26174477 -0.014704762 0.77200001 9.751477667e-39
0.26468572 -0.014704762 0.77200001 1.048684967e-38
0.26650098 -0.01472381 0.77300006 1.085420567e-38
0.26944575 -0.01472381 0.77300006 1.11300765e-38
0.27239048 -0.01472381 0.77300006 1.085383573e-38
0.27604762 -0.014761905 0.77500004 1.05779663e-38
0.28047618 -0.014761905 0.77500004 1.103642772e-38
0.28564 -0.0148 0.77700001 1.149633388e-38
0.28712001 -0.0148 0.77700001 1.186332273e-38
0.29120001 -0.014857143 0.78000003 1.24186419e-38
0.29268572 -0.014857143 0.78000003 1.260266322e-38
0.30169144 -0.015009525 0.78800005 1.306541962e-38
0.31008002 -0.015200001 0.79800004 1.325342202e-38
0.31316191 -0.015276191 0.80200005 1.417286019e-38
0.32166097 -0.015390476 0.80800003 1.426577889e-38
0.324 -0.015428572 0.81000006 1.417429792e-38
0.32870096 -0.015504763 0.81400001 1.389663343e-38
0.33302477 -0.015561905 0.81700003 1.343746436e-38
0.33540002 -0.015600001 0.81900007 1.316267814e-38
0.33778289 -0.015638094 0.82100004 1.270458106e-38
0.24652381 -0.013285715 0.77500004 9.853674364e-39
0.24800003 -0.013285715 0.77500004 9.478801801e-39
0.25095239 -0.013285715 0.77500004 8.649408272e-39
0.25980952 -0.013285715 0.77500004 8.645456611e-39
0.26128572 -0.013285715 0.77500004 9.013527271e-39
0.26355618 -0.013251429 0.77300006 9.566696846e-39
0.26719049 -0.013285715 0.77500004 1.030317588e-38
0.26866665 -0.013285715 0.77500004 1.048649935e-38
0.27014288 -0.013285715 0.77500004 1.07616471e-38
0.27675998 -0.01332 0.77700001 1.057759776e-38
0.27824 -0.01332 0.77700001 1.04861224e-38
0.27971998 -0.01332 0.77700001 1.03921275e-38
0.28119999 -0.01332 0.77700001 1.057830261e-38
0.28416002 -0.01332 0.77700001 1.085345457e-38
0.28564 -0.01332 0.77700001 1.085203086e-38
0.29120001 -0.013371429 0.78000003 1.177507456e-38
0.29793143 -0.013474287 0.78600001 1.269626295e-38
0.30434665 -0.01356 0.79100001 1.2974317e-38
0.30817336 -0.013662858 0.79700005 1.288213258e-38
0.31008002 -0.01368 0.79800004 1.352929565e-38
0.31316191 -0.013748572 0.80200005 1.417322172e-38
0.31468952 -0.013748572 0.80200005 1.444908834e-38
0.31932953 -0.013817144 0.80600005 1.454164271e-38
0.32634667 -0.013920001 0.81200004 1.481534712e-38
0.33065718 -0.013971429 0.81500006 1.380515527e-38
0.2516 -0.01184 0.77700001 9.569911424e-39
0.25455999 -0.01184 0.77700001 9.016028588e-39
0.25604001 -0.01184 0.77700001 8.646894343e-39
0.25751999 -0.01184 0.77700001 8.27811883e-39
0.25980952 -0.011809524 0.77500004 8.279188021e-39
0.26276192 -0.011809524 0.77500004 8.831310826e-39
0.26423809 -0.011809524 0.77500004 9.106806104e-39
0.26571429 -0.011809524 0.77500004 9.475573209e-39
0.26788002 -0.01184 0.77700001 9.842563468e-39
0.26936001 -0.01184 0.77700001 1.011771823e-38
0.27083999 -0.01184 0.77700001 1.039322192e-38
0.27450478 -0.011870476 0.77900004 1.039464704e-38
0.27675998 -0.01184 0.77700001 1.057867256e-38
0.28044 -0.011870476 0.77900004 1.021132637e-38
0.28377146 -0.011885715 0.78000003 1.03035192e-38
0.29418668 -0.011946667 0.78400004 1.159246575e-38
0.30057144 -0.012022858 0.78900003 1.278595726e-38
0.30817336 -0.012144762 0.79700005 1.343673848e-38
0.31008002 -0.01216 0.79800004 1.380517628e-38
0.31468952 -0.012220953 0.80200005 1.435796891e-38
0.31700572 -0.012251428 0.80400002 1.454128537e-38
0.31932953 -0.012281906 0.80600005 1.454021338e-38
0.32166097 -0.012312382 0.80800003 1.454021618e-38
0.32634667 -0.012373334 0.81200004 1.545820681e-38
0.33302477 -0.012449524 0.81700003 1.362328214e-38
0.33934668 -0.012510477 0.82100004 1.288609965e-38
0.25308001 -0.01036 0.77700001 9.756450875e-39
0.25455999 -0.01036 0.77700001 9.47986959e-39
0.25604001 -0.01036 0.77700001 9.11145281e-39
0.259 -0.01036 0.77700001 8.461426886e-39
0.26196 -0.01036 0.77700001 8.740178782e-39
0.26343998 -0.01036 0.77700001 8.831317833e-39
0.26856953 -0.010386666 0.77900004 9.382667121e-39
0.27153715 -0.010386666 0.77900004 9.842200532e-39
0.27485713 -0.0104 0.78000003 1.002801691e-38
0.27782857 -0.0104 0.78000003 1.076305821e-38
0.27931428 -0.0104 0.78000003 1.039500016e-38
0.28152004 -0.010426668 0.78200006 1.002729664e-38
0.28449908 -0.010426668 0.78200006 1.002837564e-38
0.28674287 -0.0104 0.78000003 1.011949928e-38
0.28822857 -0.0104 0.78000003 1.030352901e-38
0.29493713 -0.01048 0.78600001 1.122512517e-38
0.30133334 -0.010546667 0.79100001 1.241791463e-38
0.30360574 -0.010573333 0.79300004 1.287386492e-38
0.3058857 -0.0106 0.79500002 1.316013478e-38
0.31008002 -0.010640001 0.79800004 1.380483437e-38
0.31238094 -0.010666667 0.80000001 1.417251967e-38
0.31932953 -0.010746667 0.80600005 1.454057772e-38
0.32320002 -0.010773334 0.80800003 1.472354806e-38
0.3255429 -0.010800001 0.81000006 1.490828124e-38
0.33302477 -0.010893334 0.81700003 1.38065958e-38
0.33540002 -0.01092 0.81900007 1.362362826e-38
0.33934668 -0.010946667 0.82100004 1.307117195e-38
0.25818285 -0.008902858 0.77900004 9.295490942e-39
0.26115048 -0.008902858 0.77900004 8.923115494e-39
0.26263431 -0.008902858 0.77900004 8.922053309e-39
0.26594287 -0.0089142863 0.78000003 8.738389324e-39
0.26742858 -0.0089142863 0.78000003 8.830216412e-39
0.27005336 -0.008902858 0.77900004 9.107878097e-39
0.27188572 -0.0089142863 0.78000003 9.291902217e-39
0.27337143 -0.0089142863 0.78000003 9.478078731e-39
0.27925333 -0.0089600012 0.78400004 1.103892483e-38
0.2807467 -0.0089600012 0.78400004 1.039572043e-38
0.28445715 -0.0089828568 0.78600001 9.844343117e-39
0.2859543 -0.0089828568 0.78600001 9.844350124e-39
0.28747812 -0.0089371437 0.78200006 9.936187021e-39
0.28970668 -0.0089600012 0.78400004 1.012021114e-38
0.29568762 -0.0090057142 0.78800005 1.094710195e-38
0.2975657 -0.0090171434 0.78900003 1.122297137e-38
0.30285713 -0.0090857139 0.79500002 1.20502055e-38
0.30437142 -0.0090857139 0.79500002 1.260516874e-38
0.30665523 -0.0091085723 0.79700005 1.306829508e-38
0.31085715 -0.009142857 0.80000001 1.389557825e-38
0.31468952 -0.0091657145 0.80200005 1.444801775e-38
0.31700572 -0.0091885719 0.80400002 1.463240901e-38
0.31853715 -0.0091885719 0.80400002 1.463276914e-38
0.32086477 -0.0092114294 0.80600005 1.463169995e-38
0.32473907 -0.0092342859 0.80800003 1.444874362e-38
0.32789335 -0.0092799999 0.81200004 1.426578029e-38
0.33025143 -0.0093028564 0.81400001 1.408210509e-38
0.33458099 -0.009337144 0.81700003 1.389842289e-38
0.33696002 -0.0093600005 0.81900007 1.362290939e-38
0.33852002 -0.0093600005 0.81900007 1.334669105e-38
0.34091049 -0.009382857 0.82100004 1.307083143e-38
0.34247431 -0.009382857 0.82100004 1.279426136e-38
0.25751999 -0.0074 0.77700001 9.755035563e-39
0.26297146 -0.0074285716 0.78000003 9.201503052e-39
0.27040002 -0.0074285716 0.78000003 8.372472459e-39
0.27556193 -0.0074476195 0.78200006 8.833793927e-39
0.27776 -0.0074666669 0.78400004 9.291537879e-39
0.27925333 -0.0074666669 0.78400004 9.749641966e-39
0.28146288 -0.0074857143 0.78600001 9.474857146e-39
0.28368002 -0.0075047626 0.78800005 9.291900816e-39
0.28518099 -0.0075047626 0.78800005 9.383734911e-39
0.28704572 -0.0075142859 0.78900003 9.567771642e-39
0.28854859 -0.0075142859 0.78900003 9.659614144e-39
0.29005143 -0.0075142859 0.78900003 9.749286036e-39
0.2915543 -0.0075142859 0.78900003 1.002550018e-38
0.29456002 -0.0075142859 0.78900003 1.066979059e-38
0.29681331 -0.0075333333 0.79100001 1.094566282e-38
0.30361906 -0.0075904764 0.79700005 1.223673935e-38
0.30665523 -0.0075904764 0.79700005 1.316048651e-38
0.31085715 -0.0076190475 0.80000001 1.38962817e-38
0.31700572 -0.0076571428 0.80400002 1.454021759e-38
0.31853715 -0.0076571428 0.80400002 1.472352704e-38
0.32086477 -0.0076761907 0.80600005 1.481500801e-38
0.32944003 -0.0077333339 0.81200004 1.417394059e-38
0.3337619 -0.0077619054 0.81500006 1.399026259e-38
0.33769333 -0.0077809524 0.81700003 1.362256888e-38
0.3440381 -0.0078190472 0.82100004 1.251799256e-38
0.25751999 -0.0059199999 0.77700001 1.02145942e-38
0.25966668 -0.0059352382 0.77900004 1.003270566e-38
0.26960382 -0.0059580957 0.78200006 8.001547355e-39
0.27109334 -0.0059580957 0.78200006 7.729266655e-39
0.27258289 -0.0059580957 0.78200006 7.546307523e-39
0.28067809 -0.0060038096 0.78800005 8.462518497e-39
0.28777334 -0.0060266666 0.79100001 9.291198765e-39
0.28928003 -0.0060266666 0.79100001 9.475235496e-39
0.29229331 -0.0060266666 0.79100001 1.002335199e-38
0.29756382 -0.0060419049 0.79300004 1.103750672e-38
0.29982859 -0.0060571427 0.79500002 1.149812614e-38
0.30361906 -0.006072381 0.79700005 1.242329281e-38
0.30513716 -0.006072381 0.79700005 1.27927942e-38
0.30856001 -0.0060800002 0.79800004 1.37126023e-38
0.31621715 -0.0061104763 0.80200005 1.453949732e-38
0.3200686 -0.0061257142 0.80400002 1.509051029e-38
0.32627809 -0.0061561908 0.80800003 1.454202246e-38
0.32944003 -0.0061866669 0.81200004 1.435725985e-38
0.33180189 -0.0062019047 0.81400001 1.417393358e-38
0.3337619 -0.0062095243 0.81500006 1.408209528e-38
0.33686668 -0.0062095243 0.81500006 1.38984341e-38
0.34247431 -0.0062552383 0.82100004 1.343853775e-38
0.34560192 -0.0062552383 0.82100004 1.251912621e-38
0.34716573 -0.0062552383 0.82100004 1.252023604e-38
0.26215622 -0.0044685719 0.78200006 9.849754932e-39
0.26364574 -0.0044685719 0.78200006 9.665725207e-39
0.26581332 -0.0044800006 0.78400004 9.297665758e-39
0.26730669 -0.0044800006 0.78400004 9.021794931e-39
0.26960382 -0.0044685719 0.78200006 8.183427488e-39
0.27258289 -0.0044685719 0.78200006 6.442487907e-39
0.27477336 -0.0044800006 0.78400004 6.992776412e-39
0.28174669 -0.0045200004 0.79100001 8.002274629e-39
0.29001144 -0.0045314287 0.79300004 9.199021352e-39
0.29454288 -0.0045314287 0.79300004 1.057617124e-38
0.29605335 -0.0045314287 0.79300004 1.085276093e-38
0.2983143 -0.0045428569 0.79500002 1.122154345e-38
0.30058289 -0.0045542861 0.79700005 1.168431526e-38
0.30400002 -0.0045600003 0.79800004 1.260805401e-38
0.30552003 -0.0045600003 0.79800004 1.297683934e-38
0.30933335 -0.0045714285 0.80000001 1.389628311e-38
0.31316191 -0.0045828572 0.80200005 1.435654799e-38
0.31468952 -0.0045828572 0.80200005 1.444874783e-38
0.31700572 -0.004594286 0.80400002 1.454093085e-38
0.31853715 -0.004594286 0.80400002 1.472495076e-38
0.3200686 -0.004594286 0.80400002 1.490898609e-38
0.32393524 -0.0046057147 0.80600005 1.463242443e-38
0.33686668 -0.0046571433 0.81500006 1.39902696e-38
0.33841908 -0.0046571433 0.81500006 1.380590216e-38
0.3457143 -0.004714286 0.82500005 1.32541591e-38
0.35042858 -0.004714286 0.82500005 1.251809205e-38
0.26215622 -0.0029790478 0.78200006 9.94087016e-39
0.26196 -0.00296 0.77700001 9.849393397e-39
0.26343998 -0.00296 0.77700001 9.482767476e-39
0.26640001 -0.00296 0.77700001 8.745922704e-39
0.27178666 -0.0029866667 0.78400004 6.805169173e-39
0.27327999 -0.0029866667 0.78400004 5.340100418e-39
0.28413716 -0.0030552382 0.80200005 7.358324735e-39
0.28952381 -0.003047619 0.80000001 8.371038931e-39
0.29299241 -0.0030361905 0.79700005 9.474501216e-39
0.29488003 -0.0030400001 0.79800004 1.011806295e-38
0.29602858 -0.0030361905 0.79700005 1.076270649e-38
0.29792002 -0.0030400001 0.79800004 1.114081325e-38
0.30248001 -0.0030400001 0.79800004 1.233396844e-38
0.31163427 -0.0030552382 0.80200005 1.426398663e-38
0.31316191 -0.0030552382 0.80200005 1.454021198e-38
0.31700572 -0.0030628571 0.80400002 1.4632402e-38
0.3286286 -0.0030857145 0.81000006 1.444945689e-38
0.33335239 -0.0031009524 0.81400001 1.408244561e-38
0.33645332 -0.0031009524 0.81400001 1.417357064e-38
0.3440381 -0.0031276192 0.82100004 1.362257168e-38
0.34728575 -0.0031428572 0.82500005 1.334634072e-38
0.35212764 -0.0031580955 0.82900006 1.261025405e-38
0.35370669 -0.0031580955 0.82900006 1.2334784e-38
0.25980952 -0.0014761905 0.77500004 9.85010946e-39
0.26343998 -0.00148 0.77700001 9.757912429e-39
0.26492003 -0.00148 0.77700001 9.665355264e-39
0.26640001 -0.00148 0.77700001 9.297291611e-39
0.28218666 -0.0015504762 0.81400001 7.72926105e-39
0.28373715 -0.0015504762 0.81400001 6.625435829e-39
0.28458667 -0.0015466667 0.81200004 6.809101216e-39
0.28862479 -0.0015352382 0.80600005 7.727474395e-39
0.29024762 -0.0015276191 0.80200005 8.27883069e-39
0.29336002 -0.00152 0.79800004 9.478078731e-39
0.29488003 -0.00152 0.79800004 1.021348577e-38
0.29792002 -0.00152 0.79800004 1.122654048e-38
0.3017143 -0.0015238095 0.80000001 1.205772907e-38
0.30323809 -0.0015238095 0.80000001 1.251870442e-38
0.30552381 -0.0015276191 0.80200005 1.288533455e-38
0.30780953 -0.0015238095 0.80000001 1.371188764e-38
0.30933335 -0.0015238095 0.80000001 1.407959116e-38
0.31085715 -0.0015238095 0.80000001 1.444765482e-38
0.31468952 -0.0015276191 0.80200005 1.46323978e-38
0.33253333 -0.0015466667 0.81200004 1.389733548e-38
0.33490285 -0.0015504762 0.81400001 1.408134559e-38
0.33800378 -0.0015504762 0.81400001 1.417357905e-38
0.3432 -0.0015600001 0.81900007 1.389771383e-38
0.34560192 -0.0015638096 0.82100004 1.362184721e-38
0.35212764 -0.0015790478 0.82900006 1.297792254e-38
0.25980952 0 0.77500004 9.759344556e-39
0.26343998 0 0.77700001 1.003305878e-38
0.26571429 0 0.77500004 9.756848844e-39
0.26788002 0 0.77700001 9.477736814e-39
0.28218666 0 0.81400001 8.647611808e-39
0.28373715 0 0.81400001 7.91220617e-39
0.28458667 0 0.81200004 7.54450265e-39
0.28472382 0 0.80800003 7.177164869e-39
0.28697145 0 0.81000006 7.177169073e-39
0.28934097 0 0.80800003 7.544166338e-39
0.29016003 0 0.80600005 7.911505521e-39
0.29409525 0 0.80000001 9.569563902e-39
0.3017143 0 0.80000001 1.233324257e-38
0.30857906 0 0.80200005 1.38033588e-38
0.31010669 0 0.80200005 1.417106933e-38
0.31316191 0 0.80200005 1.509193962e-38
0.31621715 0 0.80200005 1.454056511e-38
0.3200686 0 0.80400002 1.454056931e-38
0.32393524 0 0.80600005 1.463312367e-38
0.32627809 0 0.80800003 1.445017295e-38
0.3286286 0 0.81000006 1.426613762e-38
0.33098668 0 0.81200004 1.399062552e-38
0.33645332 0 0.81400001 1.426504741e-38
0.33800378 0 0.81400001 1.426506002e-38
0.3432 0 0.81900007 1.408102609e-38
0.34476 0 0.81900007 1.398917798e-38
0.34716573 0 0.82100004 1.362182479e-38
0.34957907 0 0.82300001 1.334526032e-38
0.35442859 0 0.82700002 1.261099113e-38
0.25980952 0.0014761905 0.77500004 9.758621486e-39
0.26276192 0.0014761905 0.77500004 1.012489288e-38
0.26423809 0.0014761905 0.77500004 1.01249111e-38
0.28542858 0.0015428573 0.81000006 7.08640557e-39
0.28697145 0.0015428573 0.81000006 6.993498081e-39
0.29005715 0.0015428573 0.81000006 7.267230526e-39
0.29250288 0.0015314285 0.80400002 8.371054345e-39
0.30094096 0.0015276191 0.80200005 1.168862005e-38
0.30246857 0.0015276191 0.80200005 1.205738576e-38
0.31700572 0.0015314285 0.80400002 1.426542156e-38
0.32393524 0.0015352382 0.80600005 1.481679186e-38
0.32627809 0.0015390477 0.80800003 1.454164691e-38
0.3286286 0.0015428573 0.81000006 1.426757115e-38
0.33253333 0.0015466667 0.81200004 1.399134299e-38
0.33408001 0.0015466667 0.81200004 1.426541595e-38
0.33645332 0.0015504762 0.81400001 1.453984904e-38
0.3423619 0.0015561905 0.81700003 1.408030863e-38
0.34872952 0.0015638096 0.82100004 1.334525752e-38
0.35528573 0.0015790478 0.82900006 1.269992594e-38
0.35686478 0.0015790478 0.82900006 1.233508668e-38
0.25980952 0.002952381 0.77500004 9.851891912e-39
0.26571429 0.002952381 0.77500004 1.058337251e-38
0.29160002 0.0030857145 0.81000006 7.633137581e-39
0.29556569 0.0030628571 0.80400002 9.473789356e-39
0.29941335 0.0030552382 0.80200005 1.113187436e-38
0.31163427 0.0030552382 0.80200005 1.389700197e-38
0.3154743 0.0030628571 0.80400002 1.398991086e-38
0.31700572 0.0030628571 0.80400002 1.398956474e-38
0.3200686 0.0030628571 0.80400002 1.435690813e-38
0.3224 0.0030704765 0.80600005 1.472459763e-38
0.32627809 0.0030780954 0.80800003 1.47253123e-38
0.3423619 0.0031123811 0.81700003 1.417214833e-38
0.34476 0.0031200002 0.81900007 1.408029882e-38
0.34632 0.0031200002 0.81900007 1.371294422e-38
0.35285333 0.0031504761 0.82700002 1.306833712e-38
0.35772571 0.0031657144 0.83100003 1.214676057e-38
0.28613332 0.0046399999 0.81200004 7.822531476e-39
0.28851432 0.0046285721 0.81000006 6.989917763e-39
0.29077333 0.0046399999 0.81200004 7.173595762e-39
0.29630098 0.0046057147 0.80600005 9.016404136e-39
0.29937145 0.0046057147 0.80600005 1.020955793e-38
0.30169141 0.004594286 0.80400002 1.113366242e-38
0.30322286 0.004594286 0.80400002 1.150172187e-38
0.30475429 0.004594286 0.80400002 1.186978692e-38
0.31088001 0.004594286 0.80400002 1.352856697e-38
0.31241143 0.004594286 0.80400002 1.362040667e-38
0.31700572 0.004594286 0.80400002 1.371406666e-38
0.32160002 0.004594286 0.80400002 1.435654099e-38
0.32627809 0.004617143 0.80800003 1.435617245e-38
0.32781714 0.004617143 0.80800003 1.417357625e-38
0.33800378 0.0046514282 0.81400001 1.435654799e-38
0.33955428 0.0046514282 0.81400001 1.426434956e-38
0.3423619 0.004668572 0.81700003 1.417251126e-38
0.34632 0.0046800002 0.81900007 1.389699637e-38
0.34788001 0.0046800002 0.81900007 1.362112974e-38
0.36017337 0.0047599999 0.83300006 1.205493909e-38
0.28768003 0.0061866669 0.81200004 8.004043067e-39
0.28993905 0.0062019047 0.81400001 7.450168639e-39
0.29148951 0.0062019047 0.81400001 7.356906621e-39
0.29232001 0.0061866669 0.81200004 7.265429857e-39
0.29386669 0.0061866669 0.81200004 7.357625487e-39
0.29468572 0.0061714291 0.81000006 7.543085937e-39
0.2970362 0.0061561908 0.80800003 8.554352592e-39
0.30090669 0.0061409529 0.80600005 1.021315086e-38
0.30169141 0.0061257142 0.80400002 1.076667496e-38
0.30322286 0.0061257142 0.80400002 1.113473441e-38
0.30781716 0.0061257142 0.80400002 1.260805541e-38
0.30934858 0.0061257142 0.80400002 1.297682953e-38
0.31088001 0.0061257142 0.80400002 1.334453445e-38
0.31241143 0.0061257142 0.80400002 1.334525612e-38
0.3154743 0.0061257142 0.80400002 1.343746576e-38
0.31700572 0.0061257142 0.80400002 1.35296712e-38
0.31853715 0.0061257142 0.80400002 1.37144296e-38
0.3200686 0.0061257142 0.80400002 1.389737191e-38
0.32393524 0.0061409529 0.80600005 1.408030582e-38
0.33408001 0.0061866669 0.81200004 1.407994989e-38
0.33800378 0.0062019047 0.81400001 1.417288681e-38
0.33955428 0.0062019047 0.81400001 1.42647153e-38
0.34152383 0.0062095243 0.81500006 1.42647097e-38
0.34391811 0.0062247622 0.81700003 1.426470269e-38
0.34944001 0.0062400005 0.81900007 1.362220594e-38
0.35185716 0.0062552383 0.82100004 1.334598759e-38
0.36017337 0.0063466672 0.83300006 1.260737158e-38
0.36176002 0.0063466672 0.83300006 1.23307959e-38
0.29029527 0.0077619054 0.81500006 8.002613743e-39
0.29184765 0.0077619054 0.81500006 7.726758331e-39
0.29541335 0.0077333339 0.81200004 7.635271758e-39
0.29696 0.0077333339 0.81200004 7.910418113e-39
0.30085716 0.007714286 0.81000006 9.200080734e-39
0.30165336 0.0076952381 0.80800003 9.66249101e-39
0.30244192 0.0076761907 0.80600005 1.012418102e-38
0.30781716 0.0076571428 0.80400002 1.205631937e-38
0.30934858 0.0076571428 0.80400002 1.242437742e-38
0.31394288 0.0076571428 0.80400002 1.307011397e-38
0.31853715 0.0076571428 0.80400002 1.352895373e-38
0.32393524 0.0076761907 0.80600005 1.398882205e-38
0.32547048 0.0076761907 0.80600005 1.398917098e-38
0.32781714 0.0076952381 0.80800003 1.389769001e-38
0.33408001 0.0077333339 0.81200004 1.398990105e-38
0.33800378 0.0077523813 0.81400001 1.417361549e-38
0.33955428 0.0077523813 0.81400001 1.43576354e-38
0.34110478 0.0077523813 0.81400001 1.426543136e-38
0.34462857 0.0077619054 0.81500006 1.398990666e-38
0.34703049 0.0077809524 0.81700003 1.38984299e-38
0.34858668 0.0077809524 0.81700003 1.362184861e-38
0.35342097 0.0078190472 0.82100004 1.306975523e-38
0.29172003 0.0093600005 0.81900007 8.556140649e-39
0.29328004 0.0093600005 0.81900007 8.09481778e-39
0.29339999 0.0093142865 0.81500006 7.634557096e-39
0.30005333 0.0092799999 0.81200004 8.372478065e-39
0.30160001 0.0092799999 0.81200004 8.832733144e-39
0.30165336 0.0092342859 0.80800003 9.203665255e-39
0.30319241 0.0092342859 0.80800003 9.571726106e-39
0.30397716 0.0092114294 0.80600005 1.012345935e-38
0.30704764 0.0092114294 0.80600005 1.112970936e-38
0.31088001 0.0091885719 0.80400002 1.242438302e-38
0.31241143 0.0091885719 0.80400002 1.260949455e-38
0.31394288 0.0091885719 0.80400002 1.279317395e-38
0.3154743 0.0091885719 0.80400002 1.297721208e-38
0.32547048 0.0092114294 0.80600005 1.389839907e-38
0.3317143 0.0092571443 0.81000006 1.389841028e-38
0.33325714 0.0092571443 0.81000006 1.389877882e-38
0.33562669 0.0092799999 0.81200004 1.399063113e-38
0.33800378 0.0093028564 0.81400001 1.42668733e-38
0.34265524 0.0093028564 0.81400001 1.417321892e-38
