# .PCD v0.7 - Point Cloud Data file format
VERSION 0.7
FIELDS x y z rgb
SIZE 4 4 4 4
TYPE F F F F
COUNT 1 1 1 1
WIDTH 946
HEIGHT 1
VIEWPOINT 0 0 0 1 0 0 0
POINTS 946
DATA ascii
0.26595998 -0.031973332 0.76300001 1.453767143e-38
0.26741332 -0.031973332 0.76300001 1.462951953e-38
0.26816192 -0.031889524 0.76100004 1.472135643e-38
0.27106097 -0.031889524 0.76100004 1.518054512e-38
0.27613333 -0.031973332 0.76300001 1.527489875e-38
0.28196383 -0.032140952 0.76700002 1.527740567e-38
0.28342476 -0.032140952 0.76700002 1.527704274e-38
0.29300383 -0.032392383 0.77300006 1.527742109e-38
0.296 -0.032559998 0.77700001 1.527778823e-38
0.29862857 -0.032685712 0.78000003 1.527777001e-38
0.3001143 -0.032685712 0.78000003 1.536958729e-38
0.30314669 -0.032853335 0.78400004 1.546178292e-38
0.30769524 -0.033020955 0.78800005 1.417285318e-38
0.13392763 -0.029920001 0.74800003 1.113544067e-38
0.13535239 -0.029920001 0.74800003 1.076450856e-38
0.13801715 -0.029880002 0.74700004 1.149774498e-38
0.13944 -0.029880002 0.74700004 1.149809251e-38
0.14142859 -0.030000001 0.75000006 1.149882118e-38
0.14428572 -0.030000001 0.75000006 1.067303319e-38
0.1457143 -0.030000001 0.75000006 1.131552574e-38
0.14857145 -0.030000001 0.75000006 1.223605271e-38
0.1496 -0.029920001 0.74800003 1.25126368e-38
0.15714286 -0.030000001 0.75000006 1.334130445e-38
0.15857144 -0.030000001 0.75000006 1.352283006e-38
0.16000001 -0.030000001 0.75000006 1.379977988e-38
0.16142859 -0.030000001 0.75000006 1.416891273e-38
0.16329144 -0.030080002 0.75200003 1.453804697e-38
0.16472381 -0.030080002 0.75200003 1.490612184e-38
0.17211428 -0.03012 0.75300002 1.573371049e-38
0.17354856 -0.03012 0.75300002 1.573478109e-38
0.17498286 -0.03012 0.75300002 1.555074576e-38
0.17641714 -0.03012 0.75300002 1.536563563e-38
0.18263811 -0.030200003 0.75500005 1.610033782e-38
0.18432 -0.030240003 0.75600004 1.628473188e-38
0.18625143 -0.03032 0.75800002 1.6468756e-38
0.18988763 -0.030440001 0.76100004 1.646841268e-38
0.19133715 -0.030440001 0.76100004 1.674501498e-38
0.19329333 -0.030520001 0.76300001 1.693081034e-38
0.19868954 -0.030680001 0.76700002 1.462737835e-38
0.20480001 -0.030720001 0.76800001 1.57347979e-38
0.20626286 -0.030720001 0.76800001 1.601067994e-38
0.20918857 -0.030720001 0.76800001 1.656094883e-38
0.21910095 -0.030879999 0.77200001 1.60095645e-38
0.22351238 -0.030879999 0.77200001 1.536637411e-38
0.22498286 -0.030879999 0.77200001 1.527669101e-38
0.22792381 -0.030879999 0.77200001 1.50894369e-38
0.23086476 -0.030879999 0.77200001 1.398632774e-38
0.23233524 -0.030879999 0.77200001 1.417070639e-38
0.23380572 -0.030879999 0.77200001 1.444729188e-38
0.23760001 -0.0308 0.77000004 1.444693595e-38
0.23906668 -0.0308 0.77000004 1.44476422e-38
0.24053334 -0.0308 0.77000004 1.444727226e-38
0.2425181 -0.030680001 0.76700002 1.454128678e-38
0.24544001 -0.030680001 0.76700002 1.500082579e-38
0.25354287 -0.0306 0.76500005 1.379971963e-38
0.25500003 -0.0306 0.76500005 1.388726715e-38
0.25712761 -0.030680001 0.76700002 1.370648283e-38
0.25858858 -0.030680001 0.76700002 1.343097074e-38
0.26082858 -0.0306 0.76500005 1.380155393e-38
0.26228574 -0.0306 0.76500005 1.407708004e-38
0.26374286 -0.0306 0.76500005 1.435293685e-38
0.27106097 -0.030440001 0.76100004 1.518233318e-38
0.27322668 -0.030520001 0.76300001 1.527453862e-38
0.27467999 -0.030520001 0.76300001 1.536708738e-38
0.28672001 -0.030720001 0.76800001 1.500151103e-38
0.30314669 -0.03136 0.78400004 1.582949905e-38
0.30619431 -0.031520002 0.78800005 1.518629325e-38
0.30769524 -0.031520002 0.78800005 1.445016874e-38
0.1457143 -0.028571431 0.75000006 1.002945605e-38
0.14714287 -0.028571431 0.75000006 1.067410799e-38
0.1496 -0.028495239 0.74800003 1.177614656e-38
0.15142858 -0.028571431 0.75000006 1.186798485e-38
0.15387429 -0.028495239 0.74800003 1.205236911e-38
0.15857144 -0.028571431 0.75000006 1.306150018e-38
0.16000001 -0.028571431 0.75000006 1.34302813e-38
0.16142859 -0.028571431 0.75000006 1.379905681e-38
0.16428573 -0.028571431 0.75000006 1.462917201e-38
0.16571429 -0.028571431 0.75000006 1.481213675e-38
0.16758858 -0.02864762 0.75200003 1.50883537e-38
0.17641714 -0.028685715 0.75300002 1.527380994e-38
0.17928571 -0.028685715 0.75300002 1.55489591e-38
0.18072002 -0.028685715 0.75300002 1.582626486e-38
0.18576001 -0.028800001 0.75600004 1.619325652e-38
0.18769524 -0.028876189 0.75800002 1.637655616e-38
0.18963811 -0.028952383 0.76000005 1.656023837e-38
0.19108573 -0.028952383 0.76000005 1.702050466e-38
0.19278668 -0.028990477 0.76100004 1.748074292e-38
0.19474667 -0.029066667 0.76300001 1.683895523e-38
0.19868954 -0.029219048 0.76700002 1.573083923e-38
0.20453334 -0.029219048 0.76700002 1.564331273e-38
0.20745523 -0.029219048 0.76700002 1.610251263e-38
0.2156 -0.029333334 0.77000004 1.619325511e-38
0.21853334 -0.029333334 0.77000004 1.646911473e-38
0.22000001 -0.029333334 0.77000004 1.600992464e-38
0.22146668 -0.029333334 0.77000004 1.564221832e-38
0.22351238 -0.029409524 0.77200001 1.536670622e-38
0.22440001 -0.029333334 0.77000004 1.518305064e-38
0.22586668 -0.029333334 0.77000004 1.518306606e-38
0.22792381 -0.029409524 0.77200001 1.527347784e-38
0.22939429 -0.029409524 0.77200001 1.499726369e-38
0.23233524 -0.029409524 0.77200001 1.462985585e-38
0.23320001 -0.029333334 0.77000004 1.463094325e-38
0.23674667 -0.029409524 0.77200001 1.444764781e-38
0.23906668 -0.029333334 0.77000004 1.463096007e-38
0.24283428 -0.029257143 0.76800001 1.454092524e-38
0.24544001 -0.029219048 0.76700002 1.518198566e-38
0.24690095 -0.029219048 0.76700002 1.573550696e-38
0.2483619 -0.029219048 0.76700002 1.527596794e-38
0.24982285 -0.029219048 0.76700002 1.481642472e-38
0.25062856 -0.029142858 0.76500005 1.490825321e-38
0.25208572 -0.029142858 0.76500005 1.499972858e-38
0.25500003 -0.029142858 0.76500005 1.462879086e-38
0.25712761 -0.029219048 0.76700002 1.462591399e-38
0.25858858 -0.029219048 0.76700002 1.471774809e-38
0.26004952 -0.029219048 0.76700002 1.444259893e-38
0.26151046 -0.029219048 0.76700002 1.416925605e-38
0.26741332 -0.029066667 0.76300001 1.490789168e-38
0.26886666 -0.029066667 0.76300001 1.499972858e-38
0.27032 -0.029066667 0.76300001 1.50919228e-38
0.27177334 -0.029066667 0.76300001 1.518412824e-38
0.28196383 -0.029219048 0.76700002 1.564402319e-38
0.28342476 -0.029219048 0.76700002 1.555326949e-38
0.2848857 -0.029219048 0.76700002 1.546142979e-38
0.28672001 -0.029257143 0.76800001 1.51859191e-38
0.2911543 -0.029409524 0.77200001 1.500262786e-38
0.29262477 -0.029409524 0.77200001 1.50948333e-38
0.29824573 -0.029676192 0.77900004 1.546324307e-38
0.29972953 -0.029676192 0.77900004 1.583056684e-38
0.1432381 -0.027215241 0.75200003 1.095355213e-38
0.1457143 -0.027142858 0.75000006 1.067480163e-38
0.14714287 -0.027142858 0.75000006 1.09499592e-38
0.14857145 -0.027142858 0.75000006 1.122475803e-38
0.15000001 -0.027142858 0.75000006 1.140807449e-38
0.15244953 -0.027070478 0.74800003 1.05812033e-38
0.15387429 -0.027070478 0.74800003 1.057941244e-38
0.15672383 -0.027070478 0.74800003 1.186261788e-38
0.16142859 -0.027142858 0.75000006 1.370506612e-38
0.16285716 -0.027142858 0.75000006 1.398200614e-38
0.16428573 -0.027142858 0.75000006 1.435078726e-38
0.16571429 -0.027142858 0.75000006 1.444334582e-38
0.17211428 -0.027251428 0.75300002 1.472105235e-38
0.17498286 -0.027251428 0.75300002 1.472352844e-38
0.17928571 -0.027251428 0.75300002 1.499795173e-38
0.18072002 -0.027251428 0.75300002 1.527489735e-38
0.18263811 -0.027323812 0.75500005 1.555077939e-38
0.1840762 -0.027323812 0.75500005 1.564227297e-38
0.18720001 -0.02736 0.75600004 1.600921278e-38
0.18913905 -0.027432382 0.75800002 1.619288797e-38
0.19253334 -0.027504763 0.76000005 1.683645531e-38
0.1942362 -0.027540954 0.76100004 1.646803433e-38
0.19620001 -0.027613332 0.76300001 1.600813938e-38
0.19765334 -0.027613332 0.76300001 1.573227416e-38
0.19962859 -0.027685715 0.76500005 1.545676627e-38
0.20108573 -0.027685715 0.76500005 1.545784107e-38
0.20453334 -0.027758095 0.76700002 1.564187079e-38
0.20599429 -0.027758095 0.76700002 1.573371049e-38
0.20745523 -0.027758095 0.76700002 1.610069935e-38
0.20891619 -0.027758095 0.76700002 1.646624627e-38
0.21037716 -0.027758095 0.76700002 1.628329275e-38
0.2118381 -0.027758095 0.76700002 1.619432991e-38
0.22146668 -0.027866669 0.77000004 1.555001148e-38
0.22351238 -0.027939048 0.77200001 1.536632087e-38
0.22440001 -0.027866669 0.77000004 1.51816045e-38
0.22586668 -0.027866669 0.77000004 1.545785929e-38
0.22792381 -0.027939048 0.77200001 1.573302526e-38
0.23320001 -0.027866669 0.77000004 1.472276053e-38
0.23466668 -0.027866669 0.77000004 1.463130339e-38
0.23844571 -0.027794285 0.76800001 1.499938386e-38
0.23990858 -0.027794285 0.76800001 1.472388157e-38
0.24137142 -0.027794285 0.76800001 1.454056651e-38
0.24283428 -0.027794285 0.76800001 1.46324006e-38
0.24544001 -0.027758095 0.76700002 1.509122776e-38
0.24690095 -0.027758095 0.76700002 1.545964314e-38
0.2483619 -0.027758095 0.76700002 1.518413385e-38
0.25128379 -0.027758095 0.76700002 1.500081879e-38
0.25354287 -0.027685715 0.76500005 1.518308988e-38
0.25712761 -0.027758095 0.76700002 1.50897564e-38
0.25858858 -0.027758095 0.76700002 1.49968461e-38
0.26004952 -0.027758095 0.76700002 1.472098369e-38
0.26151046 -0.027758095 0.76700002 1.453695957e-38
0.26374286 -0.027685715 0.76500005 1.49046743e-38
0.26520002 -0.027685715 0.76500005 1.499687693e-38
0.2681143 -0.027685715 0.76500005 1.518339676e-38
0.27248573 -0.027685715 0.76500005 1.536923557e-38
0.27394286 -0.027685715 0.76500005 1.546000467e-38
0.27685714 -0.027685715 0.76500005 1.591881782e-38
0.28672001 -0.027794285 0.76800001 1.490935603e-38
0.2911543 -0.027939048 0.77200001 1.463349362e-38
0.29300383 -0.027975241 0.77300006 1.481967574e-38
0.29523808 -0.028047619 0.77500004 1.500406559e-38
0.29862857 -0.028228572 0.78000003 1.518664778e-38
0.30088383 -0.028300956 0.78200006 1.546250179e-38
0.30237335 -0.028300956 0.78200006 1.582950186e-38
0.3091962 -0.028518097 0.78800005 1.46356306e-38
0.31069717 -0.028518097 0.78800005 1.435904371e-38
0.14467049 -0.025782857 0.75200003 1.132197171e-38
0.1457143 -0.025714288 0.75000006 1.132016403e-38
0.14857145 -0.025714288 0.75000006 1.122762369e-38
0.15183239 -0.025782857 0.75200003 1.021313404e-38
0.15387429 -0.025645716 0.74800003 9.189670487e-39
0.15529905 -0.025645716 0.74800003 9.109331244e-39
0.15957333 -0.025645716 0.74800003 1.342633384e-38
0.16099809 -0.025645716 0.74800003 1.361358936e-38
0.16428573 -0.025714288 0.75000006 1.416711066e-38
0.1733181 -0.025782857 0.75200003 1.426183283e-38
0.17785142 -0.025817145 0.75300002 1.435438299e-38
0.17928571 -0.025817145 0.75300002 1.453877285e-38
0.1821543 -0.025817145 0.75300002 1.509123056e-38
0.18720001 -0.025920002 0.75600004 1.564365745e-38
0.18864 -0.025920002 0.75600004 1.591737728e-38
0.19058286 -0.025988571 0.75800002 1.610141541e-38
0.1942362 -0.02609143 0.76100004 1.610143223e-38
0.20108573 -0.026228571 0.76500005 1.554932484e-38
0.20545715 -0.026228571 0.76500005 1.57326427e-38
0.21037716 -0.026297145 0.76700002 1.637404924e-38
0.2156 -0.026400002 0.77000004 1.573264551e-38
0.21706668 -0.026400002 0.77000004 1.573409305e-38
0.22146668 -0.026400002 0.77000004 1.555038142e-38
0.22293335 -0.026400002 0.77000004 1.536633908e-38
0.22586668 -0.026400002 0.77000004 1.57337147e-38
0.22792381 -0.026468571 0.77200001 1.619218873e-38
0.23026668 -0.026400002 0.77000004 1.499938526e-38
0.23173334 -0.026400002 0.77000004 1.49071588e-38
0.23552001 -0.026331428 0.76800001 1.472351583e-38
0.23844571 -0.026331428 0.76800001 1.536673145e-38
0.24137142 -0.026331428 0.76800001 1.454128397e-38
0.24283428 -0.026331428 0.76800001 1.472602976e-38
0.24544001 -0.026297145 0.76700002 1.509051029e-38
0.25062856 -0.026228571 0.76500005 1.518411283e-38
0.25500003 -0.026228571 0.76500005 1.600849531e-38
0.26374286 -0.026228571 0.76500005 1.527238342e-38
0.26520002 -0.026228571 0.76500005 1.536423013e-38
0.26595998 -0.02616 0.76300001 1.545855573e-38
0.26741332 -0.02616 0.76300001 1.555108907e-38
0.27032 -0.02616 0.76300001 1.555182335e-38
0.27248573 -0.026228571 0.76500005 1.555184157e-38
0.27394286 -0.026228571 0.76500005 1.555186119e-38
0.27831429 -0.026228571 0.76500005 1.665242419e-38
0.28050286 -0.026297145 0.76700002 1.619359983e-38
0.28342476 -0.026297145 0.76700002 1.546216688e-38
0.28672001 -0.026331428 0.76800001 1.454092664e-38
0.29523808 -0.02657143 0.77500004 1.47285493e-38
0.29824573 -0.026708573 0.77900004 1.491220067e-38
0.3069143 -0.026948573 0.78600001 1.518808691e-38
0.3091962 -0.027017144 0.78800005 1.491221608e-38
0.31109145 -0.02705143 0.78900003 1.47263927e-38
0.31497142 -0.027257143 0.79500002 1.426757255e-38
0.31728193 -0.027325716 0.79700005 1.390166129e-38
0.3188 -0.027325716 0.79700005 1.353503116e-38
0.1432381 -0.024350477 0.75200003 1.141599043e-38
0.1457143 -0.024285715 0.75000006 1.12322774e-38
0.14753523 -0.024350477 0.75200003 1.13241157e-38
0.15000001 -0.024285715 0.75000006 1.159603906e-38
0.15183239 -0.024350477 0.75200003 1.104323523e-38
0.15814857 -0.024220953 0.74800003 1.342454018e-38
0.15957333 -0.024220953 0.74800003 1.361144117e-38
0.16099809 -0.024220953 0.74800003 1.388945458e-38
0.16242287 -0.024220953 0.74800003 1.425786996e-38
0.16527238 -0.024220953 0.74800003 1.453372397e-38
0.1681219 -0.024220953 0.74800003 1.416567433e-38
0.16954666 -0.024220953 0.74800003 1.407418215e-38
0.17618287 -0.024350477 0.75200003 1.297613448e-38
0.17785142 -0.024382858 0.75300002 1.352642859e-38
0.17928571 -0.024382858 0.75300002 1.407672411e-38
0.18072002 -0.024382858 0.75300002 1.435223199e-38
0.18864 -0.024480002 0.75600004 1.55500325e-38
0.19202667 -0.024544762 0.75800002 1.582736347e-38
0.19398096 -0.024609525 0.76000005 1.573483153e-38
0.19620001 -0.024706667 0.76300001 1.573445318e-38
0.19765334 -0.024706667 0.76300001 1.56418806e-38
0.19962859 -0.02477143 0.76500005 1.554968778e-38
0.20254287 -0.02477143 0.76500005 1.545822502e-38
0.20691429 -0.02477143 0.76500005 1.545713061e-38
0.20891619 -0.024836192 0.76700002 1.573227556e-38
0.2118381 -0.024836192 0.76700002 1.582410405e-38
0.21357714 -0.02486857 0.76800001 1.564078619e-38
0.21942858 -0.02486857 0.76800001 1.55500409e-38
0.23026668 -0.024933334 0.77000004 1.481679747e-38
0.23320001 -0.024933334 0.77000004 1.481678766e-38
0.23405714 -0.02486857 0.76800001 1.481571006e-38
0.23552001 -0.02486857 0.76800001 1.481500381e-38
0.24137142 -0.02486857 0.76800001 1.445016594e-38
0.24283428 -0.02486857 0.76800001 1.463383553e-38
0.24429713 -0.02486857 0.76800001 1.490898749e-38
0.24722287 -0.02486857 0.76800001 1.55511171e-38
0.24982285 -0.024836192 0.76700002 1.518447016e-38
0.25208572 -0.02477143 0.76500005 1.536778102e-38
0.25354287 -0.02477143 0.76500005 1.555003109e-38
0.25712761 -0.024836192 0.76700002 1.545676067e-38
0.25858858 -0.024836192 0.76700002 1.51816003e-38
0.26082858 -0.02477143 0.76500005 1.509012774e-38
0.26228574 -0.02477143 0.76500005 1.518161992e-38
0.26374286 -0.02477143 0.76500005 1.527346803e-38
0.26665717 -0.02477143 0.76500005 1.545963473e-38
0.27248573 -0.02477143 0.76500005 1.555185418e-38
0.27540001 -0.02477143 0.76500005 1.555186399e-38
0.28050286 -0.024836192 0.76700002 1.600958833e-38
0.28196383 -0.024836192 0.76700002 1.582700194e-38
0.2911543 -0.024998097 0.77200001 1.453986446e-38
0.29300383 -0.025030477 0.77300006 1.47285493e-38
0.29523808 -0.025095237 0.77500004 1.491257061e-38
0.29824573 -0.025224764 0.77900004 1.500473822e-38
0.30464 -0.025386669 0.78400004 1.546394372e-38
0.30613333 -0.025386669 0.78400004 1.528027553e-38
0.3091962 -0.025516191 0.78800005 1.509589128e-38
0.31338665 -0.025613334 0.79100001 1.454309025e-38
0.31799999 -0.025742857 0.79500002 1.390022916e-38
0.15142858 -0.022857144 0.75000006 1.187371056e-38
0.1565143 -0.022765715 0.74700004 1.315046162e-38
0.15793715 -0.022765715 0.74700004 1.361107403e-38
0.15936001 -0.022765715 0.74700004 1.388837418e-38
0.16078286 -0.022765715 0.74700004 1.416496107e-38
0.16669716 -0.022796191 0.74800003 1.462378402e-38
0.1681219 -0.022796191 0.74800003 1.444046615e-38
0.16954666 -0.022796191 0.74800003 1.434898238e-38
0.17285715 -0.022857144 0.75000006 1.407527656e-38
0.17761524 -0.022918096 0.75200003 1.278670836e-38
0.17928571 -0.022948572 0.75300002 1.370901638e-38
0.1821543 -0.022948572 0.75300002 1.435151313e-38
0.18551429 -0.023009526 0.75500005 1.47199145e-38
0.18720001 -0.02304 0.75600004 1.49050036e-38
0.19058286 -0.023100954 0.75800002 1.527561061e-38
0.19253334 -0.023161907 0.76000005 1.536781325e-38
0.20400001 -0.023314286 0.76500005 1.509087463e-38
0.20545715 -0.023314286 0.76500005 1.481464788e-38
0.20982857 -0.023314286 0.76500005 1.518234579e-38
0.22440001 -0.023466667 0.77000004 1.417285458e-38
0.22586668 -0.023466667 0.77000004 1.435616404e-38
0.23405714 -0.023405714 0.76800001 1.481678766e-38
0.23552001 -0.023405714 0.76800001 1.499795033e-38
0.23844571 -0.023405714 0.76800001 1.463060274e-38
0.24137142 -0.023405714 0.76800001 1.444943867e-38
0.25208572 -0.023314286 0.76500005 1.536814536e-38
0.25354287 -0.023314286 0.76500005 1.545783266e-38
0.25566667 -0.023375239 0.76700002 1.555038002e-38
0.25712761 -0.023375239 0.76700002 1.527558539e-38
0.26082858 -0.023314286 0.76500005 1.527414485e-38
0.26665717 -0.023314286 0.76500005 1.555075136e-38
0.26741332 -0.023253333 0.76300001 1.582623823e-38
0.26886666 -0.023253333 0.76300001 1.619358722e-38
0.27102858 -0.023314286 0.76500005 1.582625365e-38
0.27394286 -0.023314286 0.76500005 1.55500367e-38
0.27540001 -0.023314286 0.76500005 1.555039823e-38
0.27685714 -0.023314286 0.76500005 1.564259527e-38
0.28525713 -0.023405714 0.76800001 1.536781045e-38
0.28746668 -0.023466667 0.77000004 1.509157528e-38
0.29523808 -0.023619048 0.77500004 1.509768775e-38
0.29747999 -0.02368 0.77700001 1.518842883e-38
0.3001143 -0.023771429 0.78000003 1.54639171e-38
0.30386287 -0.023832383 0.78200006 1.555470723e-38
0.15142858 -0.021428574 0.75000006 1.159821528e-38
0.15366857 -0.021342859 0.74700004 1.195839243e-38
0.1565143 -0.021342859 0.74700004 1.296857868e-38
0.15793715 -0.021342859 0.74700004 1.342918969e-38
0.16505145 -0.021342859 0.74700004 1.480712571e-38
0.16647428 -0.021342859 0.74700004 1.471491606e-38
0.16789715 -0.021342859 0.74700004 1.453194712e-38
0.16932 -0.021342859 0.74700004 1.444262135e-38
0.17285715 -0.021428574 0.75000006 1.444298429e-38
0.17761524 -0.021485716 0.75200003 1.380047213e-38
0.1821543 -0.021514285 0.75300002 1.444263116e-38
0.18551429 -0.021571429 0.75500005 1.434933551e-38
0.18864 -0.021600001 0.75600004 1.490465328e-38
0.19058286 -0.021657143 0.75800002 1.481356187e-38
0.19398096 -0.021714287 0.76000005 1.472422909e-38
0.19620001 -0.021799998 0.76300001 1.463417605e-38
0.19765334 -0.021799998 0.76300001 1.444798412e-38
0.19910666 -0.021799998 0.76300001 1.426216634e-38
0.20108573 -0.021857142 0.76500005 1.417177278e-38
0.21128573 -0.021857142 0.76500005 1.536529932e-38
0.21274288 -0.021857142 0.76500005 1.536493218e-38
0.21420002 -0.021857142 0.76500005 1.536457064e-38
0.21914285 -0.021914287 0.76700002 1.554861858e-38
0.22089143 -0.021942858 0.76800001 1.536529652e-38
0.22528 -0.021942858 0.76800001 1.472206269e-38
0.22644763 -0.021914287 0.76700002 1.48139136e-38
0.22936954 -0.021914287 0.76700002 1.463134963e-38
0.23083048 -0.021914287 0.76700002 1.444805138e-38
0.23229143 -0.021914287 0.76700002 1.426507824e-38
0.23698285 -0.021942858 0.76800001 1.481319193e-38
0.23844571 -0.021942858 0.76800001 1.462951113e-38
0.24283428 -0.021942858 0.76800001 1.444944147e-38
0.24576001 -0.021942858 0.76800001 1.500122236e-38
0.24722287 -0.021942858 0.76800001 1.546037462e-38
0.2483619 -0.021914287 0.76700002 1.527703853e-38
0.24982285 -0.021914287 0.76700002 1.518628064e-38
0.25208572 -0.021857142 0.76500005 1.51848401e-38
0.25354287 -0.021857142 0.76500005 1.51848331e-38
0.25712761 -0.021914287 0.76700002 1.518481067e-38
0.25858858 -0.021914287 0.76700002 1.50943975e-38
0.26082858 -0.021857142 0.76500005 1.518445054e-38
0.26374286 -0.021857142 0.76500005 1.53663615e-38
0.26520002 -0.021857142 0.76500005 1.545892427e-38
0.26665717 -0.021857142 0.76500005 1.555074996e-38
0.2681143 -0.021857142 0.76500005 1.573512861e-38
0.26886666 -0.021799998 0.76300001 1.59198772e-38
0.27248573 -0.021857142 0.76500005 1.536705234e-38
0.27831429 -0.021857142 0.76500005 1.573442095e-38
0.27977145 -0.021857142 0.76500005 1.582625925e-38
0.28968382 -0.022057142 0.77200001 1.499974959e-38
0.2911543 -0.022057142 0.77200001 1.50008314e-38
0.29447621 -0.022085717 0.77300006 1.5002995e-38
0.3001143 -0.022285715 0.78000003 1.527919794e-38
0.30160001 -0.022285715 0.78000003 1.564654412e-38
0.30762669 -0.022400001 0.78400004 1.537105305e-38
0.3121981 -0.022514287 0.78800005 1.509409762e-38
0.31409714 -0.022542858 0.78900003 1.481894146e-38
0.32022098 -0.022657143 0.79300004 1.417572444e-38
0.15224572 -0.019920001 0.74700004 1.140987937e-38
0.15366857 -0.019920001 0.74700004 1.177578922e-38
0.15509143 -0.019920001 0.74700004 1.223389331e-38
0.16177145 -0.01986667 0.74500006 1.4347923e-38
0.16362858 -0.019920001 0.74700004 1.453195693e-38
0.16647428 -0.019920001 0.74700004 1.480674736e-38
0.17285715 -0.020000001 0.75000006 1.490395963e-38
0.17428572 -0.020000001 0.75000006 1.508834249e-38
0.1757143 -0.020000001 0.75000006 1.527200507e-38
0.17761524 -0.020053335 0.75200003 1.490501341e-38
0.17904763 -0.020053335 0.75200003 1.45373225e-38
0.18048 -0.020053335 0.75200003 1.453697498e-38
0.18358858 -0.02008 0.75300002 1.435258652e-38
0.18839049 -0.020133335 0.75500005 1.462628394e-38
0.19910666 -0.020346668 0.76300001 1.314650015e-38
0.20055999 -0.020346668 0.76300001 1.286811819e-38
0.20637333 -0.020346668 0.76300001 1.398632494e-38
0.20782667 -0.020346668 0.76300001 1.435402986e-38
0.20928 -0.020346668 0.76300001 1.472281238e-38
0.21073334 -0.020346668 0.76300001 1.518162412e-38
0.21420002 -0.020400003 0.76500005 1.563970439e-38
0.21565716 -0.020400003 0.76500005 1.573152587e-38
0.22352572 -0.020453334 0.76700002 1.527309248e-38
0.22644763 -0.020453334 0.76700002 1.499758739e-38
0.22790857 -0.020453334 0.76700002 1.481356467e-38
0.23521332 -0.020453334 0.76700002 1.499830345e-38
0.24105714 -0.020453334 0.76700002 1.408065335e-38
0.24397905 -0.020453334 0.76700002 1.444910096e-38
0.2483619 -0.020453334 0.76700002 1.500186976e-38
0.24917144 -0.020400003 0.76500005 1.500153345e-38
0.25062856 -0.020400003 0.76500005 1.500119854e-38
0.25354287 -0.020400003 0.76500005 1.500117051e-38
0.25712761 -0.020453334 0.76700002 1.5092999e-38
0.25858858 -0.020453334 0.76700002 1.51848331e-38
0.26004952 -0.020453334 0.76700002 1.518483169e-38
0.26082858 -0.020400003 0.76500005 1.518447997e-38
0.26374286 -0.020400003 0.76500005 1.546000467e-38
0.26520002 -0.020400003 0.76500005 1.546001448e-38
0.26665717 -0.020400003 0.76500005 1.555075977e-38
0.2681143 -0.020400003 0.76500005 1.564437491e-38
0.26957145 -0.020400003 0.76500005 1.573549154e-38
0.27248573 -0.020400003 0.76500005 1.527558959e-38
0.27540001 -0.020400003 0.76500005 1.472422349e-38
0.27685714 -0.020400003 0.76500005 1.518377231e-38
0.27831429 -0.020400003 0.76500005 1.573443076e-38
0.27977145 -0.020400003 0.76500005 1.582627046e-38
0.28342476 -0.020453334 0.76700002 1.564331693e-38
0.28893334 -0.020533334 0.77000004 1.518342059e-38
0.29447621 -0.020613333 0.77300006 1.491006649e-38
0.29972953 -0.020773333 0.77900004 1.518808411e-38
0.30762669 -0.020906668 0.78400004 1.555437652e-38
0.30912003 -0.020906668 0.78400004 1.5829869e-38
0.31140572 -0.020959999 0.78600001 1.54635906e-38
0.31941333 -0.021093333 0.79100001 1.43590395e-38
0.32405716 -0.021199999 0.79500002 1.371511203e-38
0.32557142 -0.021199999 0.79500002 1.32563185e-38
0.15366857 -0.018497143 0.74700004 1.140736404e-38
0.15609525 -0.018447619 0.74500006 1.223497511e-38
0.1575143 -0.018447619 0.74500006 1.278634402e-38
0.16460954 -0.018447619 0.74500006 1.462414275e-38
0.16647428 -0.018497143 0.74700004 1.499041414e-38
0.17074287 -0.018497143 0.74700004 1.472031106e-38
0.1723962 -0.018521905 0.74800003 1.481356467e-38
0.17382096 -0.018521905 0.74800003 1.499721885e-38
0.17714287 -0.018571431 0.75000006 1.490609381e-38
0.17857145 -0.018571431 0.75000006 1.46313132e-38
0.18048 -0.018620953 0.75200003 1.47231571e-38
0.18358858 -0.018645715 0.75300002 1.472351163e-38
0.18502286 -0.018645715 0.75300002 1.46323922e-38
0.18789144 -0.018645715 0.75300002 1.490610362e-38
0.19152001 -0.018720001 0.75600004 1.462628534e-38
0.19347048 -0.018769523 0.75800002 1.434969705e-38
0.19620001 -0.018893335 0.76300001 1.407347309e-38
0.19713524 -0.018843811 0.76100004 1.388729097e-38
0.20148382 -0.018843811 0.76100004 1.277772183e-38
0.20583239 -0.018843811 0.76100004 1.315764187e-38
0.20728192 -0.018843811 0.76100004 1.361897875e-38
0.21018097 -0.018843811 0.76100004 1.509157808e-38
0.21857144 -0.018942859 0.76500005 1.591523049e-38
0.22294286 -0.018942859 0.76500005 1.545892427e-38
0.22440001 -0.018942859 0.76500005 1.527417708e-38
0.22790857 -0.018992381 0.76700002 1.499866359e-38
0.22877143 -0.018942859 0.76500005 1.490719103e-38
0.23229143 -0.018992381 0.76700002 1.435689692e-38
0.23375238 -0.018992381 0.76700002 1.481571426e-38
0.23667429 -0.018992381 0.76700002 1.499722445e-38
0.24105714 -0.018992381 0.76700002 1.426396561e-38
0.24397905 -0.018992381 0.76700002 1.444766042e-38
0.2448 -0.018942859 0.76500005 1.463205168e-38
0.24917144 -0.018942859 0.76500005 1.490862316e-38
0.25062856 -0.018942859 0.76500005 1.481611504e-38
0.25208572 -0.018942859 0.76500005 1.481573528e-38
0.26082858 -0.018942859 0.76500005 1.536746432e-38
0.26159999 -0.018893335 0.76300001 1.536817338e-38
0.26305333 -0.018893335 0.76300001 1.546037742e-38
0.26450667 -0.018893335 0.76300001 1.545967116e-38
0.26741332 -0.018893335 0.76300001 1.573478109e-38
0.26886666 -0.018893335 0.76300001 1.582661378e-38
0.27248573 -0.018942859 0.76500005 1.536672164e-38
0.27394286 -0.018942859 0.76500005 1.527560921e-38
0.27540001 -0.018942859 0.76500005 1.518377652e-38
0.27685714 -0.018942859 0.76500005 1.545928581e-38
0.27831429 -0.018942859 0.76500005 1.58266334e-38
0.27977145 -0.018942859 0.76500005 1.59184759e-38
0.28196383 -0.018992381 0.76700002 1.601030579e-38
0.28342476 -0.018992381 0.76700002 1.582662919e-38
0.2848857 -0.018992381 0.76700002 1.56429568e-38
0.28672001 -0.019017143 0.76800001 1.545892708e-38
0.29262477 -0.019116191 0.77200001 1.518448838e-38
0.29447621 -0.019140953 0.77300006 1.481749672e-38
0.29747999 -0.019239999 0.77700001 1.445052467e-38
0.30386287 -0.019363809 0.78200006 1.546180955e-38
0.30684191 -0.019363809 0.78200006 1.527780645e-38
0.30912003 -0.019413333 0.78400004 1.527886162e-38
0.31140572 -0.019462857 0.78600001 1.518736524e-38
0.31369907 -0.019512381 0.78800005 1.509624161e-38
0.31520003 -0.019512381 0.78800005 1.481965331e-38
0.31710285 -0.019537143 0.78900003 1.463526486e-38
0.31941333 -0.019586666 0.79100001 1.435940104e-38
0.32091999 -0.019586666 0.79100001 1.417464124e-38
0.32242668 -0.019586666 0.79100001 1.39906003e-38
0.32475239 -0.019636191 0.79300004 1.380660141e-38
0.32626286 -0.019636191 0.79300004 1.343893292e-38
0.1631905 -0.017028572 0.74500006 1.416496247e-38
0.16460954 -0.017028572 0.74500006 1.471597825e-38
0.16602859 -0.017028572 0.74500006 1.526699683e-38
0.16744764 -0.017028572 0.74500006 1.489966045e-38
0.16932 -0.017074287 0.74700004 1.462595463e-38
0.17074287 -0.017074287 0.74700004 1.472102572e-38
0.17809524 -0.017097142 0.74800003 1.481498979e-38
0.18000001 -0.017142858 0.75000006 1.490790849e-38
0.18477714 -0.017188571 0.75200003 1.527524908e-38
0.18645714 -0.01721143 0.75300002 1.518377091e-38
0.18789144 -0.01721143 0.75300002 1.518376671e-38
0.18932572 -0.01721143 0.75300002 1.509192841e-38
0.19126669 -0.017257143 0.75500005 1.499829645e-38
0.19491428 -0.017325716 0.75800002 1.462951393e-38
0.19832383 -0.017371429 0.76000005 1.426144047e-38
0.20411429 -0.017371429 0.76000005 1.177650389e-38
0.20556192 -0.017371429 0.76000005 1.232536447e-38
0.20990478 -0.017371429 0.76000005 1.499472454e-38
0.21135239 -0.017371429 0.76000005 1.518090666e-38
0.21308 -0.017394286 0.76100004 1.536385598e-38
0.21452953 -0.017394286 0.76100004 1.591486475e-38
0.22236 -0.017440001 0.76300001 1.56418736e-38
0.22585715 -0.017485715 0.76500005 1.545748094e-38
0.22731429 -0.017485715 0.76500005 1.527344841e-38
0.22877143 -0.017485715 0.76500005 1.509014175e-38
0.23897144 -0.017485715 0.76500005 1.462951253e-38
0.24042858 -0.017485715 0.76500005 1.453768544e-38
0.24334286 -0.017485715 0.76500005 1.453913438e-38
0.2448 -0.017485715 0.76500005 1.463169295e-38
0.24625714 -0.017485715 0.76500005 1.47231543e-38
0.2477143 -0.017485715 0.76500005 1.472278015e-38
0.24852002 -0.017440001 0.76300001 1.4815001e-38
0.25578666 -0.017440001 0.76300001 1.490719803e-38
0.25656572 -0.017394286 0.76100004 1.509195223e-38
0.26450667 -0.017440001 0.76300001 1.555113532e-38
0.26886666 -0.017440001 0.76300001 1.60095631e-38
0.27177334 -0.017440001 0.76300001 1.545891306e-38
0.27467999 -0.017440001 0.76300001 1.564331413e-38
0.27613333 -0.017440001 0.76300001 1.573551256e-38
0.27977145 -0.017485715 0.76500005 1.600960794e-38
0.2848857 -0.017531428 0.76700002 1.582698512e-38
0.30160001 -0.017828573 0.78000003 1.592026676e-38
0.30684191 -0.017874287 0.78200006 1.500120975e-38
0.31061333 -0.017920002 0.78400004 1.491042803e-38
0.31290287 -0.017965714 0.78600001 1.509445635e-38
0.31670097 -0.018011428 0.78800005 1.472711297e-38
0.32543999 -0.018080002 0.79100001 1.399029622e-38
0.33371428 -0.018285714 0.80000001 1.307159654e-38
0.15325716 -0.015609525 0.74500006 1.067266325e-38
0.15467621 -0.015609525 0.74500006 1.030245981e-38
0.15609525 -0.015609525 0.74500006 1.094711176e-38
0.15893336 -0.015609525 0.74500006 1.214240814e-38
0.16035239 -0.015609525 0.74500006 1.278418742e-38
0.1631905 -0.015609525 0.74500006 1.3521035e-38
0.16460954 -0.015609525 0.74500006 1.388802385e-38
0.16602859 -0.015609525 0.74500006 1.425537144e-38
0.16744764 -0.015609525 0.74500006 1.425717211e-38
0.17028573 -0.015609525 0.74500006 1.444480037e-38
0.17216572 -0.015651429 0.74700004 1.463133001e-38
0.17501144 -0.015651429 0.74700004 1.527345121e-38
0.18334477 -0.015756192 0.75200003 1.527525748e-38
0.18477714 -0.015756192 0.75200003 1.545856974e-38
0.18620953 -0.015756192 0.75200003 1.536673425e-38
0.19219428 -0.015777143 0.75300002 1.499651119e-38
0.19414288 -0.015819049 0.75500005 1.490502602e-38
0.20121905 -0.015923811 0.76000005 1.462411613e-38
0.20266668 -0.015923811 0.76000005 1.416384984e-38
0.20845716 -0.015923811 0.76000005 1.343065265e-38
0.20990478 -0.015923811 0.76000005 1.425896998e-38
0.21280001 -0.015923811 0.76000005 1.499690216e-38
0.21714287 -0.015923811 0.76000005 1.591702696e-38
0.22671999 -0.015986666 0.76300001 1.54571166e-38
0.23022859 -0.016028574 0.76500005 1.509014456e-38
0.23253334 -0.015986666 0.76300001 1.508980404e-38
0.23398668 -0.015986666 0.76300001 1.536422733e-38
0.23627239 -0.015944762 0.76100004 1.472172778e-38
0.23772192 -0.015944762 0.76100004 1.453805538e-38
0.24062096 -0.015944762 0.76100004 1.444692894e-38
0.24352001 -0.015944762 0.76100004 1.453950012e-38
0.24496953 -0.015944762 0.76100004 1.472388437e-38
0.24641907 -0.015944762 0.76100004 1.472388157e-38
0.2478686 -0.015944762 0.76100004 1.481572407e-38
0.25188571 -0.015923811 0.76000005 1.463168314e-38
0.25656572 -0.015944762 0.76100004 1.509230676e-38
0.25946477 -0.015944762 0.76100004 1.546000748e-38
0.26595998 -0.015986666 0.76300001 1.54603536e-38
0.27102858 -0.016028574 0.76500005 1.536957888e-38
0.27177334 -0.015986666 0.76300001 1.500188657e-38
0.27322668 -0.015986666 0.76300001 1.527704414e-38
0.27758667 -0.015986666 0.76300001 1.591992204e-38
0.28818285 -0.016091429 0.76800001 1.601065331e-38
0.29594859 -0.016196191 0.77300006 1.444838349e-38
0.30121335 -0.016321905 0.77900004 1.546216688e-38
0.30308574 -0.016342856 0.78000003 1.536961392e-38
0.30457145 -0.016342856 0.78000003 1.527670222e-38
0.30605716 -0.016342856 0.78000003 1.500155447e-38
0.30833143 -0.016384764 0.78200006 1.48182394e-38
0.31290287 -0.016468571 0.78600001 1.500227053e-38
0.32010859 -0.01653143 0.78900003 1.399208007e-38
0.32311431 -0.01653143 0.78900003 1.50019118e-38
0.32543999 -0.016573334 0.79100001 1.454130219e-38
0.32942668 -0.016699048 0.79700005 1.408212751e-38
0.33136001 -0.016720001 0.79800004 1.380662383e-38
0.33676192 -0.016761905 0.80000001 1.325563187e-38
0.15325716 -0.014190477 0.74500006 1.021455636e-38
0.15609525 -0.014190477 0.74500006 1.021098445e-38
0.15893336 -0.014190477 0.74500006 1.094602435e-38
0.16177145 -0.014190477 0.74500006 1.204878038e-38
0.1631905 -0.014190477 0.74500006 1.296857448e-38
0.16460954 -0.014190477 0.74500006 1.30650777e-38
0.16602859 -0.014190477 0.74500006 1.324803823e-38
0.16886668 -0.014190477 0.74500006 1.389089932e-38
0.17643429 -0.014228572 0.74700004 1.518233458e-38
0.17785716 -0.014228572 0.74700004 1.499866639e-38
0.17952 -0.01424762 0.74800003 1.509050469e-38
0.18094477 -0.01424762 0.74800003 1.527453582e-38
0.18428573 -0.014285715 0.75000006 1.573408184e-38
0.1876419 -0.01432381 0.75200003 1.554897031e-38
0.19076 -0.014342858 0.75300002 1.518090385e-38
0.19219428 -0.014342858 0.75300002 1.518055353e-38
0.19362858 -0.014342858 0.75300002 1.518054512e-38
0.19558096 -0.014380953 0.75500005 1.518089545e-38
0.19701906 -0.014380953 0.75500005 1.527344701e-38
0.19872001 -0.014400001 0.75600004 1.582481872e-38
0.20068952 -0.014438095 0.75800002 1.637655056e-38
0.20790857 -0.014438095 0.75800002 1.296357044e-38
0.20935239 -0.014438095 0.75800002 1.352140494e-38
0.21079619 -0.014438095 0.75800002 1.407421858e-38
0.21224 -0.014438095 0.75800002 1.462954476e-38
0.21368381 -0.014438095 0.75800002 1.509088444e-38
0.21512762 -0.014438095 0.75800002 1.564081141e-38
0.21945906 -0.014438095 0.75800002 1.591703396e-38
0.22090286 -0.014438095 0.75800002 1.600814499e-38
0.22293335 -0.014476191 0.76000005 1.591594375e-38
0.22438097 -0.014476191 0.76000005 1.591629128e-38
0.23108 -0.014533333 0.76300001 1.49975972e-38
0.23253334 -0.014533333 0.76300001 1.490576731e-38
0.23337334 -0.014495239 0.76100004 1.490576311e-38
0.23482287 -0.014495239 0.76100004 1.472208931e-38
0.23627239 -0.014495239 0.76100004 1.463026082e-38
0.23740953 -0.014476191 0.76000005 1.453843233e-38
0.24030478 -0.014476191 0.76000005 1.435542696e-38
0.24175239 -0.014476191 0.76000005 1.435508504e-38
0.24464762 -0.014476191 0.76000005 1.472352004e-38
0.24754287 -0.014476191 0.76000005 1.481572127e-38
0.25043812 -0.014476191 0.76000005 1.481536814e-38
0.25188571 -0.014476191 0.76000005 1.453950152e-38
0.25333336 -0.014476191 0.76000005 1.435726546e-38
0.25511619 -0.014495239 0.76100004 1.472532491e-38
0.25656572 -0.014495239 0.76100004 1.509230536e-38
0.25801525 -0.014495239 0.76100004 1.527561622e-38
0.25946477 -0.014495239 0.76100004 1.545928301e-38
0.26381335 -0.014495239 0.76100004 1.527669522e-38
0.26526284 -0.014495239 0.76100004 1.536888104e-38
0.27032 -0.014533333 0.76300001 1.509372067e-38
0.27106097 -0.014495239 0.76100004 1.463419006e-38
0.27467999 -0.014533333 0.76300001 1.564475186e-38
0.27540955 -0.014495239 0.76100004 1.573730903e-38
0.28780761 -0.014609524 0.76700002 1.646982799e-38
0.2896457 -0.014628571 0.76800001 1.601065051e-38
0.29186669 -0.014666667 0.77000004 1.564330712e-38
0.29556569 -0.014704762 0.77200001 1.481643733e-38
0.29819047 -0.014761905 0.77500004 1.491151123e-38
0.30044001 -0.0148 0.77700001 1.509447317e-38
0.30833143 -0.014895239 0.78200006 1.49100763e-38
0.31290287 -0.014971429 0.78600001 1.500263627e-38
0.31439999 -0.014971429 0.78600001 1.481933242e-38
0.31670097 -0.015009525 0.78800005 1.472749132e-38
0.32543999 -0.015066667 0.79100001 1.509266689e-38
0.33011428 -0.015142857 0.79500002 1.426615724e-38
0.33246288 -0.015180953 0.79700005 1.399063814e-38
0.34150857 -0.015314286 0.80400002 1.307124762e-38
0.15893336 -0.012771429 0.74500006 1.039464143e-38
0.16460954 -0.012771429 0.74500006 1.168358519e-38
0.16744764 -0.012771429 0.74500006 1.251263119e-38
0.17501144 -0.012805715 0.74700004 1.490431556e-38
0.17643429 -0.012805715 0.74700004 1.49046771e-38
0.17785716 -0.012805715 0.74700004 1.481320174e-38
0.17928 -0.012805715 0.74700004 1.49068323e-38
0.1857143 -0.012857144 0.75000006 1.573338539e-38
0.18714286 -0.012857144 0.75000006 1.554825985e-38
0.19623619 -0.012891429 0.75200003 1.518198285e-38
0.19793142 -0.012908572 0.75300002 1.554968357e-38
0.19936571 -0.012908572 0.75300002 1.591811857e-38
0.20133334 -0.012942858 0.75500005 1.582629989e-38
0.20736001 -0.012960001 0.75600004 1.351851826e-38
0.21168001 -0.012960001 0.75600004 1.435438299e-38
0.21312001 -0.012960001 0.75600004 1.490539877e-38
0.21945906 -0.012994286 0.75800002 1.591525572e-38
0.22293335 -0.013028572 0.76000005 1.600706599e-38
0.22582857 -0.013028572 0.76000005 1.573259926e-38
0.22727621 -0.013028572 0.76000005 1.554894649e-38
0.23108 -0.01308 0.76300001 1.50883537e-38
0.23253334 -0.01308 0.76300001 1.499723707e-38
0.24030478 -0.013028572 0.76000005 1.426392497e-38
0.24175239 -0.013028572 0.76000005 1.398772624e-38
0.24754287 -0.013028572 0.76000005 1.463204748e-38
0.25188571 -0.013028572 0.76000005 1.472426132e-38
0.25333336 -0.013028572 0.76000005 1.454130359e-38
0.25478098 -0.013028572 0.76000005 1.490900151e-38
0.25767621 -0.013028572 0.76000005 1.536816217e-38
0.2609143 -0.013045715 0.76100004 1.545999066e-38
0.26201907 -0.013028572 0.76000005 1.54603592e-38
0.27106097 -0.013045715 0.76100004 1.564582105e-38
0.27322668 -0.01308 0.76300001 1.573766075e-38
0.27685907 -0.013045715 0.76100004 1.592205201e-38
0.28194666 -0.01308 0.76300001 1.656310542e-38
0.2834 -0.01308 0.76300001 1.720559096e-38
0.28560001 -0.013114286 0.76500005 1.674605054e-38
0.28780761 -0.013148572 0.76700002 1.628543673e-38
0.29594859 -0.013251429 0.77300006 1.472567243e-38
0.29819047 -0.013285715 0.77500004 1.49100763e-38
0.30605716 -0.013371429 0.78000003 1.500263207e-38
0.30982095 -0.013405715 0.78200006 1.481860094e-38
0.31210667 -0.01344 0.78400004 1.491080778e-38
0.31820193 -0.013508572 0.78800005 1.445198062e-38
0.32010859 -0.013525715 0.78900003 1.417646853e-38
0.32161143 -0.013525715 0.78900003 1.47274773e-38
0.32311431 -0.013525715 0.78900003 1.518665198e-38
0.32461715 -0.013525715 0.78900003 1.491042523e-38
0.32928383 -0.013594287 0.79300004 1.445126176e-38
0.3307943 -0.013594287 0.79300004 1.445197081e-38
0.33592001 -0.01368 0.79800004 1.389878162e-38
0.15893336 -0.011352382 0.74500006 9.751431424e-39
0.16460954 -0.011352382 0.74500006 1.030318148e-38
0.17643429 -0.011382857 0.74700004 1.453732811e-38
0.17785716 -0.011382857 0.74700004 1.472171937e-38
0.17928 -0.011382857 0.74700004 1.47231571e-38
0.18070287 -0.011382857 0.74700004 1.481535133e-38
0.18806857 -0.011398096 0.74800003 1.545784107e-38
0.19142859 -0.011428572 0.75000006 1.51812738e-38
0.19285716 -0.011428572 0.75000006 1.499795874e-38
0.19623619 -0.011459048 0.75200003 1.509050889e-38
0.19793142 -0.011474286 0.75300002 1.527454002e-38
0.20366858 -0.011474286 0.75300002 1.582983116e-38
0.21168001 -0.01152 0.75600004 1.416927426e-38
0.21744001 -0.01152 0.75600004 1.573156651e-38
0.22234666 -0.011550477 0.75800002 1.619037405e-38
0.22872382 -0.011580953 0.76000005 1.536386299e-38
0.23306668 -0.011580953 0.76000005 1.499759159e-38
0.2345143 -0.011580953 0.76000005 1.490610502e-38
0.24754287 -0.011580953 0.76000005 1.444802055e-38
0.24899048 -0.011580953 0.76000005 1.472389138e-38
0.25266668 -0.011550477 0.75800002 1.481753175e-38
0.25912383 -0.011580953 0.76000005 1.564439033e-38
0.26057142 -0.011580953 0.76000005 1.573586569e-38
0.26201907 -0.011580953 0.76000005 1.582806973e-38
0.26346669 -0.011580953 0.76000005 1.564656234e-38
0.26491427 -0.011580953 0.76000005 1.555364084e-38
0.26780954 -0.011580953 0.76000005 1.601352457e-38
0.26961145 -0.011596191 0.76100004 1.638158122e-38
0.27106097 -0.011596191 0.76100004 1.674820574e-38
0.27830857 -0.011596191 0.76100004 1.582947943e-38
0.2797581 -0.011596191 0.76100004 1.573621882e-38
0.2834 -0.011626666 0.76300001 1.65627537e-38
0.28485334 -0.011626666 0.76300001 1.628725141e-38
0.28705713 -0.011657143 0.76500005 1.610249441e-38
0.29409525 -0.011763809 0.77200001 1.50000747e-38
0.29742098 -0.011779048 0.77300006 1.49090001e-38
0.29966667 -0.011809524 0.77500004 1.52774295e-38
0.30192 -0.01184 0.77700001 1.527851831e-38
0.30418095 -0.011870476 0.77900004 1.527850569e-38
0.30754286 -0.011885715 0.78000003 1.472675704e-38
0.31210667 -0.011946667 0.78400004 1.491079237e-38
0.31439999 -0.011977143 0.78600001 1.481932821e-38
0.31820193 -0.012007619 0.78800005 1.463564741e-38
0.32161143 -0.012022858 0.78900003 1.463635507e-38
0.32311431 -0.012022858 0.78900003 1.481966873e-38
0.32461715 -0.012022858 0.78900003 1.47274773e-38
0.3307943 -0.01208381 0.79300004 1.491150983e-38
0.33314288 -0.012114285 0.79500002 1.463635086e-38
0.33549905 -0.012144762 0.79700005 1.435975837e-38
0.34048003 -0.01216 0.79800004 1.362364648e-38
0.15893336 -0.0099333348 0.74500006 9.381216777e-39
0.16177145 -0.0099333348 0.74500006 9.109306021e-39
0.1631905 -0.0099333348 0.74500006 9.752877564e-39
0.16460954 -0.0099333348 0.74500006 1.011986782e-38
0.16744764 -0.0099333348 0.74500006 1.10382382e-38
0.16886668 -0.0099333348 0.74500006 1.149956667e-38
0.17028573 -0.0099333348 0.74500006 1.177650669e-38
0.17170477 -0.0099333348 0.74500006 1.205380824e-38
0.17312382 -0.0099333348 0.74500006 1.242222782e-38
0.17501144 -0.0099600004 0.74700004 1.279100754e-38
0.17785716 -0.0099600004 0.74700004 1.362040527e-38
0.17928 -0.0099600004 0.74700004 1.408030582e-38
0.18521905 -0.0099733332 0.74800003 1.527417989e-38
0.18664382 -0.0099733332 0.74800003 1.527345822e-38
0.19000001 -0.010000001 0.75000006 1.518233878e-38
0.19480382 -0.010026667 0.75200003 1.49068379e-38
0.19623619 -0.010026667 0.75200003 1.49068407e-38
0.2022343 -0.01004 0.75300002 1.536742789e-38
0.20420954 -0.010066668 0.75500005 1.573583346e-38
0.20564763 -0.010066668 0.75500005 1.619607032e-38
0.2088 -0.01008 0.75600004 1.352316637e-38
0.21140002 -0.010066668 0.75500005 1.416819667e-38
0.2128381 -0.010066668 0.75500005 1.444478355e-38
0.21600002 -0.01008 0.75600004 1.508871383e-38
0.21888 -0.01008 0.75600004 1.564008134e-38
0.22523428 -0.010106667 0.75800002 1.582449081e-38
0.2266781 -0.010106667 0.75800002 1.564081421e-38
0.22872382 -0.010133334 0.76000005 1.545606282e-38
0.23967238 -0.010106667 0.75800002 1.463238659e-38
0.2411162 -0.010106667 0.75800002 1.435688571e-38
0.24256 -0.010106667 0.75800002 1.453948611e-38
0.24400382 -0.010106667 0.75800002 1.472244384e-38
0.24689142 -0.010106667 0.75800002 1.472352985e-38
0.24977905 -0.010106667 0.75800002 1.555222132e-38
0.25122285 -0.010106667 0.75800002 1.527672885e-38
0.25622857 -0.010133334 0.76000005 1.546108648e-38
0.26057142 -0.010133334 0.76000005 1.573659296e-38
0.26201907 -0.010133334 0.76000005 1.573696291e-38
0.26346669 -0.010133334 0.76000005 1.555366186e-38
0.26491427 -0.010133334 0.76000005 1.546217248e-38
0.26636192 -0.010133334 0.76000005 1.564583226e-38
0.26925716 -0.010133334 0.76000005 1.61975571e-38
0.27106097 -0.010146667 0.76100004 1.656525361e-38
0.2725105 -0.010146667 0.76100004 1.638086235e-38
0.27830857 -0.010146667 0.76100004 1.592129812e-38
0.2797581 -0.010146667 0.76100004 1.582804731e-38
0.28120762 -0.010146667 0.76100004 1.610357482e-38
0.30566478 -0.010386666 0.77900004 1.500262646e-38
0.30754286 -0.0104 0.78000003 1.472710596e-38
0.31739429 -0.01048 0.78600001 1.48193142e-38
0.32120383 -0.010506667 0.78800005 1.463527607e-38
0.32612002 -0.01052 0.78900003 1.436050806e-38
0.32845333 -0.010546667 0.79100001 1.454418746e-38
0.33314288 -0.0106 0.79500002 1.445232114e-38
0.34048003 -0.010640001 0.79800004 1.399134579e-38
0.16647428 -0.0085371435 0.74700004 1.021026699e-38
0.16886668 -0.008514286 0.74500006 1.085490912e-38
0.17216572 -0.0085371435 0.74700004 1.039609318e-38
0.17501144 -0.0085371435 0.74700004 1.122513778e-38
0.17785716 -0.0085371435 0.74700004 1.251515073e-38
0.17928 -0.0085371435 0.74700004 1.334562185e-38
0.18070287 -0.0085371435 0.74700004 1.426075523e-38
0.18236953 -0.0085485708 0.74800003 1.425968464e-38
0.18521905 -0.0085485708 0.74800003 1.46302426e-38
0.19000001 -0.0085714292 0.75000006 1.509120954e-38
0.19428572 -0.0085714292 0.75000006 1.481535693e-38
0.19623619 -0.0085942857 0.75200003 1.481535833e-38
0.19910097 -0.0085942857 0.75200003 1.518341638e-38
0.20053335 -0.0085942857 0.75200003 1.518341358e-38
0.20366858 -0.0086057149 0.75300002 1.573441675e-38
0.20852382 -0.0086285714 0.75500005 1.49968447e-38
0.20996192 -0.0086285714 0.75500005 1.462521054e-38
0.21140002 -0.0086285714 0.75500005 1.42550071e-38
0.21571429 -0.0086285714 0.75500005 1.462809862e-38
0.21744001 -0.0086400006 0.75600004 1.508871663e-38
0.21888 -0.0086400006 0.75600004 1.536530632e-38
0.22523428 -0.008662858 0.75800002 1.582698933e-38
0.2266781 -0.008662858 0.75800002 1.564116454e-38
0.22812191 -0.008662858 0.75800002 1.545641735e-38
0.22956572 -0.008662858 0.75800002 1.536386159e-38
0.23100951 -0.008662858 0.75800002 1.517947173e-38
0.23245333 -0.008662858 0.75800002 1.499830345e-38
0.23534095 -0.008662858 0.75800002 1.509121375e-38
0.23822857 -0.008662858 0.75800002 1.518340798e-38
0.23967238 -0.008662858 0.75800002 1.518340097e-38
0.24048001 -0.0086400006 0.75600004 1.518376531e-38
0.24400382 -0.008662858 0.75800002 1.490683089e-38
0.24689142 -0.008662858 0.75800002 1.509158789e-38
0.24833524 -0.008662858 0.75800002 1.555148985e-38
0.24977905 -0.008662858 0.75800002 1.610286996e-38
0.25122285 -0.008662858 0.75800002 1.573661398e-38
0.25266668 -0.008662858 0.75800002 1.536961672e-38
0.26057142 -0.0086857146 0.76000005 1.57369503e-38
0.26491427 -0.0086857146 0.76000005 1.537068731e-38
0.26636192 -0.0086857146 0.76000005 1.564618539e-38
0.26780954 -0.0086857146 0.76000005 1.592169608e-38
0.27106097 -0.0086971428 0.76100004 1.63812309e-38
0.27396002 -0.0086971428 0.76100004 1.619648931e-38
0.27540955 -0.0086971428 0.76100004 1.610466503e-38
0.27685907 -0.0086971428 0.76100004 1.601281412e-38
0.2797581 -0.0086971428 0.76100004 1.601173231e-38
0.28120762 -0.0086971428 0.76100004 1.610321889e-38
0.28851432 -0.0087428577 0.76500005 1.564582105e-38
0.29110858 -0.0087771425 0.76800001 1.527775039e-38
0.29333335 -0.0088000009 0.77000004 1.518518762e-38
0.29556569 -0.0088228574 0.77200001 1.509265288e-38
0.3113105 -0.0089371437 0.78200006 1.500333692e-38
0.31658667 -0.0089600012 0.78400004 1.500333972e-38
0.32120383 -0.0090057142 0.78800005 1.472603537e-38
0.32270479 -0.0090057142 0.78800005 1.463492294e-38
0.32461715 -0.0090171434 0.78900003 1.436014092e-38
0.32612002 -0.0090171434 0.78900003 1.417647133e-38
0.33230478 -0.0090628574 0.79300004 1.436048985e-38
0.33465716 -0.0090857139 0.79500002 1.436013111e-38
0.34005335 -0.0091085723 0.79700005 1.435976818e-38
0.34524193 -0.0091657145 0.80200005 1.371223376e-38
0.1631905 -0.0070952387 0.74500006 9.759324938e-39
0.16505145 -0.0071142861 0.74700004 9.939414211e-39
0.16886668 -0.0070952387 0.74500006 1.039822876e-38
0.17028573 -0.0070952387 0.74500006 1.030387373e-38
0.17785716 -0.0071142861 0.74700004 1.103753194e-38
0.18236953 -0.0071238098 0.74800003 1.251267323e-38
0.18521905 -0.0071238098 0.74800003 1.334130445e-38
0.18857144 -0.0071428576 0.75000006 1.398701718e-38
0.19571429 -0.0071428576 0.75000006 1.472351863e-38
0.20797144 -0.0071714288 0.75300002 1.509299199e-38
0.20996192 -0.0071904766 0.75500005 1.472062635e-38
0.21571429 -0.0071904766 0.75500005 1.444514229e-38
0.21888 -0.0072000003 0.75600004 1.499654342e-38
0.22956572 -0.0072190473 0.75800002 1.582410686e-38
0.23100951 -0.0072190473 0.75800002 1.536563983e-38
0.23328002 -0.0072000003 0.75600004 1.509121795e-38
0.24048001 -0.0072000003 0.75600004 1.536779643e-38
0.2448 -0.0072000003 0.75600004 1.518449118e-38
0.24624 -0.0072000003 0.75600004 1.509338156e-38
0.24833524 -0.0072190473 0.75800002 1.536853772e-38
0.25266668 -0.0072190473 0.75800002 1.537068451e-38
0.25767621 -0.0072380956 0.76000005 1.573766916e-38
0.25912383 -0.0072380956 0.76000005 1.582914452e-38
0.26057142 -0.0072380956 0.76000005 1.582950186e-38
0.26132953 -0.0072190473 0.75800002 1.592205622e-38
0.26346669 -0.0072380956 0.76000005 1.573838803e-38
