# .PCD v0.7 - Point Cloud Data file format
VERSION 0.7
FIELDS x y z rgb
SIZE 4 4 4 4
TYPE F F F F
COUNT 1 1 1 1
WIDTH 975
HEIGHT 1
VIEWPOINT 0 0 0 1 0 0 0
POINTS 975
DATA ascii
0.17680001 0.028228572 0.78000003 1.343207636e-38
0.17954096 0.028192382 0.77900004 1.417430212e-38
0.18102476 0.028192382 0.77900004 1.445090022e-38
0.18250859 0.028192382 0.77900004 1.482256241e-38
0.1839924 0.028192382 0.77900004 1.49119036e-38
0.185 0.02812 0.77700001 1.509485012e-38
0.18944 0.02812 0.77700001 1.537071674e-38
0.19240001 0.02812 0.77700001 1.573732024e-38
0.16277334 0.029866667 0.78400004 1.085955443e-38
0.16874667 0.029866667 0.78400004 1.030316887e-38
0.17024001 0.029866667 0.78400004 1.04861224e-38
0.17129526 0.029790478 0.78200006 1.067124654e-38
0.17828572 0.029714286 0.78000003 1.325234863e-38
0.17954096 0.029676192 0.77900004 1.371476311e-38
0.18102476 0.029676192 0.77900004 1.39902794e-38
0.18352 0.0296 0.77700001 1.454526646e-38
0.18648 0.0296 0.77700001 1.491080498e-38
0.18796 0.0296 0.77700001 1.509447877e-38
0.18944 0.0296 0.77700001 1.53703468e-38
0.19092 0.0296 0.77700001 1.564441275e-38
0.19240001 0.0296 0.77700001 1.573624404e-38
0.19437905 0.029676192 0.77900004 1.592061008e-38
0.19586286 0.029676192 0.77900004 1.628900724e-38
0.19734667 0.029676192 0.77900004 1.665490589e-38
0.2003143 0.029676192 0.77900004 1.380116717e-38
0.16576 0.03136 0.78400004 1.168786896e-38
0.17129526 0.03128 0.78200006 1.020954812e-38
0.17427431 0.03128 0.78200006 1.149850589e-38
0.17805715 0.031160003 0.77900004 1.279389141e-38
0.18648 0.031079998 0.77700001 1.463493135e-38
0.18944 0.031079998 0.77700001 1.546073615e-38
0.19092 0.031079998 0.77700001 1.601210786e-38
0.19437905 0.031160003 0.77900004 1.582734946e-38
0.1961143 0.031200001 0.78000003 1.619503757e-38
0.19734667 0.031160003 0.77900004 1.656272567e-38
0.19883049 0.031160003 0.77900004 1.573547753e-38
0.16874667 0.032853335 0.78400004 1.094710195e-38
0.17024001 0.032853335 0.78400004 1.030388634e-38
0.17278478 0.032769527 0.78200006 1.039647713e-38
0.17427431 0.032769527 0.78200006 1.103932841e-38
0.17576383 0.032769527 0.78200006 1.150173868e-38
0.17954096 0.03264381 0.77900004 1.279640955e-38
0.18352 0.032559998 0.77700001 1.371622466e-38
0.185 0.032559998 0.77700001 1.408356244e-38
0.18648 0.032559998 0.77700001 1.445090022e-38
0.18796 0.032559998 0.77700001 1.490900291e-38
0.19092 0.032559998 0.77700001 1.646985181e-38
0.19240001 0.032559998 0.77700001 1.610286996e-38
0.19734667 0.03264381 0.77900004 1.64698336e-38
0.19832 0.032559998 0.77700001 1.619468584e-38
0.20128001 0.032559998 0.77700001 1.55525226e-38
0.16576 0.03434667 0.78400004 1.214671853e-38
0.16725335 0.03434667 0.78400004 1.168504534e-38
0.16874667 0.03434667 0.78400004 1.131553695e-38
0.17024001 0.03434667 0.78400004 9.844362735e-39
0.17173333 0.03434667 0.78400004 8.372857817e-39
0.17322668 0.03434667 0.78400004 9.476694248e-39
0.17427431 0.034259051 0.78200006 1.067234656e-38
0.17954096 0.034127623 0.77900004 1.242369078e-38
0.18102476 0.034127623 0.77900004 1.279605642e-38
0.185 0.03404 0.77700001 1.389953272e-38
0.18796 0.03404 0.77700001 1.463242022e-38
0.19832 0.03404 0.77700001 1.601032961e-38
0.20276001 0.03404 0.77700001 1.527774759e-38
0.20423999 0.03404 0.77700001 1.34349168e-38
0.1683162 0.035748575 0.78200006 1.177434589e-38
0.17024001 0.035840005 0.78400004 9.384820917e-39
0.17322668 0.035840005 0.78400004 8.649085974e-39
0.17576383 0.035748575 0.78200006 1.067411079e-38
0.17725335 0.035748575 0.78200006 1.113401555e-38
0.17874287 0.035748575 0.78200006 1.159428044e-38
0.18102476 0.035611432 0.77900004 1.242655643e-38
0.18250859 0.035611432 0.77900004 1.288826466e-38
0.1839924 0.035611432 0.77900004 1.325670246e-38
0.18796 0.035520002 0.77700001 1.43565564e-38
0.19042858 0.035428572 0.77500004 1.481358569e-38
0.19388001 0.035520002 0.77700001 1.536531473e-38
0.19684 0.035520002 0.77700001 1.582521108e-38
0.20276001 0.035520002 0.77700001 1.546106546e-38
0.20423999 0.035520002 0.77700001 1.389984941e-38
0.20719999 0.035520002 0.77700001 1.103784724e-38
0.1683162 0.037238099 0.78200006 1.16882403e-38
0.17173333 0.037333332 0.78400004 7.453768575e-39
0.17322668 0.037333332 0.78400004 8.834180685e-39
0.17725335 0.037238099 0.78200006 1.104323243e-38
0.17954096 0.037095238 0.77900004 1.187336864e-38
0.185 0.037 0.77700001 1.362260531e-38
0.18648 0.037 0.77700001 1.380554202e-38
0.19042858 0.03690476 0.77500004 1.463027343e-38
0.19190477 0.03690476 0.77500004 1.490577992e-38
0.19485715 0.03690476 0.77500004 1.545715583e-38
0.19928573 0.03690476 0.77500004 1.600958693e-38
0.2007619 0.03690476 0.77500004 1.573658175e-38
0.20276001 0.037 0.77700001 1.537210683e-38
0.17621334 0.038826667 0.78400004 1.058082775e-38
0.17725335 0.038727619 0.78200006 1.104144577e-38
0.17828572 0.038628571 0.78000003 1.132018646e-38
0.18648 0.038479999 0.77700001 1.36215081e-38
0.18796 0.038479999 0.77700001 1.380482036e-38
0.19338095 0.038380954 0.77500004 1.509017118e-38
0.19485715 0.038380954 0.77500004 1.527348484e-38
0.19729906 0.038281906 0.77300006 1.582556281e-38
0.20519048 0.038380954 0.77500004 1.582874375e-38
0.20666668 0.038380954 0.77500004 1.380510902e-38
0.17725335 0.040217146 0.78200006 1.13151656e-38
0.17828572 0.040114287 0.78000003 1.140986956e-38
0.18102476 0.04006286 0.77900004 1.187301692e-38
0.18250859 0.04006286 0.77900004 1.215068841e-38
0.18648 0.039960001 0.77700001 1.325344584e-38
0.19190477 0.039857145 0.77500004 1.435333762e-38
0.19288191 0.03975429 0.77300006 1.47206782e-38
0.19729906 0.03975429 0.77300006 1.555112831e-38
0.19877145 0.03975429 0.77300006 1.591990102e-38
0.20666668 0.039857145 0.77500004 1.463342916e-38
0.17725335 0.04170667 0.78200006 1.168286912e-38
0.17977144 0.0416 0.78000003 1.140808991e-38
0.18102476 0.041546665 0.77900004 1.159249098e-38
0.18250859 0.041546665 0.77900004 1.177796264e-38
0.185 0.041439999 0.77700001 1.269991193e-38
0.19042858 0.041333333 0.77500004 1.361718229e-38
0.19288191 0.041226666 0.77300006 1.435260614e-38
0.19704382 0.041173335 0.77200001 1.527668681e-38
0.19998477 0.041173335 0.77200001 1.555255203e-38
0.20666668 0.041333333 0.77500004 1.53699194e-38
0.20961905 0.041333333 0.77500004 1.352279082e-38
0.17828572 0.043085717 0.78000003 1.140736544e-38
0.17977144 0.043085717 0.78000003 1.122442312e-38
0.18250859 0.043030478 0.77900004 1.177616757e-38
0.185 0.042920001 0.77700001 1.26044807e-38
0.19042858 0.042809524 0.77500004 1.278776914e-38
0.19557333 0.042643812 0.77200001 1.453733652e-38
0.19704382 0.042643812 0.77200001 1.490861755e-38
0.20145524 0.042643812 0.77200001 1.536887543e-38
0.20318858 0.04269905 0.77300006 1.527739587e-38
0.20466097 0.04269905 0.77300006 1.518555196e-38
0.20613335 0.04269905 0.77300006 1.546105004e-38
0.20760573 0.04269905 0.77300006 1.573834179e-38
0.17828572 0.044571429 0.78000003 1.140736404e-38
0.17954096 0.044514287 0.77900004 1.113186876e-38
0.18102476 0.044514287 0.77900004 1.149922335e-38
0.185 0.044399999 0.77700001 1.251013548e-38
0.18993716 0.044171434 0.77300006 1.196162102e-38
0.19410285 0.044114284 0.77200001 1.370938773e-38
0.19557333 0.044114284 0.77200001 1.417215253e-38
0.19653335 0.044 0.77000004 1.454092804e-38
0.19851428 0.044114284 0.77200001 1.500154045e-38
0.20145524 0.044114284 0.77200001 1.527776301e-38
0.20586666 0.044114284 0.77200001 1.555253802e-38
0.20760573 0.044171434 0.77300006 1.601170569e-38
0.2090781 0.044171434 0.77300006 1.55525198e-38
0.21202287 0.044171434 0.77300006 1.315365377e-38
0.17954096 0.0459981 0.77900004 1.140665778e-38
0.18250859 0.0459981 0.77900004 1.195625264e-38
0.18895239 0.045761906 0.77500004 1.24229579e-38
0.18993716 0.04564381 0.77300006 1.233220421e-38
0.19263239 0.045584764 0.77200001 1.334060941e-38
0.19360001 0.045466669 0.77000004 1.371154012e-38
0.19653335 0.045466669 0.77000004 1.445018136e-38
0.19946668 0.045466669 0.77000004 1.509409622e-38
0.20093334 0.045466669 0.77000004 1.54614382e-38
0.2090781 0.04564381 0.77300006 1.536957468e-38
0.21349525 0.04564381 0.77300006 1.315187272e-38
0.17576383 0.047664765 0.78200006 1.437271197e-38
0.17805715 0.047481906 0.77900004 1.324693541e-38
0.18250859 0.047481906 0.77900004 1.21406355e-38
0.18352 0.047359999 0.77700001 1.23210863e-38
0.185 0.047359999 0.77700001 1.251228507e-38
0.18648 0.047359999 0.77700001 1.242546763e-38
0.18796 0.047359999 0.77700001 1.242475296e-38
0.18895239 0.047238097 0.77500004 1.26077107e-38
0.1911619 0.047055237 0.77200001 1.306797138e-38
0.19263239 0.047055237 0.77200001 1.343674829e-38
0.19360001 0.046933334 0.77000004 1.371369111e-38
0.19506668 0.046933334 0.77000004 1.398955774e-38
0.2024 0.046933334 0.77000004 1.536746993e-38
0.20733716 0.047055237 0.77200001 1.555362542e-38
0.20880762 0.047055237 0.77200001 1.527918953e-38
0.21404763 0.047238097 0.77500004 1.517873745e-38
0.17621334 0.049280003 0.78400004 1.519858404e-38
0.17828572 0.049028575 0.78000003 1.315545164e-38
0.17954096 0.048965715 0.77900004 1.186581845e-38
0.18352 0.048840001 0.77700001 1.242117265e-38
0.18452382 0.048714288 0.77500004 1.251730312e-38
0.18895239 0.048714288 0.77500004 1.270134546e-38
0.18969144 0.048525713 0.77200001 1.288465772e-38
0.19360001 0.048400003 0.77000004 1.352894392e-38
0.19653335 0.048400003 0.77000004 1.408210229e-38
0.19748572 0.048274286 0.76800001 1.445089181e-38
0.19894856 0.048274286 0.76800001 1.481788908e-38
0.20041144 0.048274286 0.76800001 1.518416468e-38
0.20187429 0.048274286 0.76800001 1.509234039e-38
0.20333713 0.048274286 0.76800001 1.509232498e-38
0.20480001 0.048274286 0.76800001 1.546036901e-38
0.20626286 0.048274286 0.76800001 1.583093819e-38
0.20826668 0.048400003 0.77000004 1.537140057e-38
0.21027809 0.048525713 0.77200001 1.500372788e-38
0.16637714 0.048765715 0.75300002 1.731151231e-38
0.17907999 0.050320003 0.77700001 1.205342849e-38
0.18203999 0.050320003 0.77700001 1.242115583e-38
0.18352 0.050320003 0.77700001 1.251373121e-38
0.18452382 0.050190475 0.77500004 1.260878549e-38
0.18993716 0.050060954 0.77300006 1.297649041e-38
0.1911619 0.049996193 0.77200001 1.306832871e-38
0.19213334 0.049866669 0.77000004 1.316052574e-38
0.19653335 0.049866669 0.77000004 1.389664324e-38
0.19894856 0.049737141 0.76800001 1.445018976e-38
0.20041144 0.049737141 0.76800001 1.472462286e-38
0.20333713 0.049737141 0.76800001 1.509231657e-38
0.20680001 0.049866669 0.77000004 1.610357061e-38
0.20973335 0.049866669 0.77000004 1.500227894e-38
0.21321905 0.049996193 0.77200001 1.463456141e-38
0.16234668 0.050733335 0.76100004 1.56574224e-38
0.16416001 0.0504 0.75600004 1.611588803e-38
0.16637714 0.0502 0.75300002 1.63910512e-38
0.16781144 0.0502 0.75300002 1.68509069e-38
0.17805715 0.051933337 0.77900004 1.296926952e-38
0.17907999 0.051799998 0.77700001 1.241932854e-38
0.18203999 0.051799998 0.77700001 1.242115163e-38
0.18304762 0.05166667 0.77500004 1.242190272e-38
0.186 0.05166667 0.77500004 1.260842255e-38
0.18699239 0.051533338 0.77300006 1.279245228e-38
0.18846478 0.051533338 0.77300006 1.288500524e-38
0.19263239 0.051466666 0.77200001 1.325092771e-38
0.19653335 0.051333334 0.77000004 1.380445462e-38
0.20333713 0.051200002 0.76800001 1.49089959e-38
0.20480001 0.051200002 0.76800001 1.518485692e-38
0.20626286 0.051200002 0.76800001 1.536924257e-38
0.20973335 0.051333334 0.77000004 1.490935323e-38
0.21120001 0.051333334 0.77000004 1.472712698e-38
0.21321905 0.051466666 0.77200001 1.463491313e-38
0.21468954 0.051466666 0.77200001 1.454341675e-38
0.14149334 0.051977143 0.75800002 1.428303027e-38
0.14765716 0.052114289 0.76000005 1.657746313e-38
0.15490286 0.051634289 0.75300002 1.704423985e-38
0.15633714 0.051634289 0.75300002 1.721213222e-38
0.16234668 0.052182861 0.76100004 1.675762807e-38
0.1637962 0.052182861 0.76100004 1.620661229e-38
0.1656 0.051840004 0.75600004 1.537722997e-38
0.16969524 0.051771432 0.75500005 1.435478376e-38
0.17805715 0.053417146 0.77900004 1.287458238e-38
0.18055999 0.05328 0.77700001 1.260444987e-38
0.18157144 0.053142861 0.77500004 1.242079289e-38
0.18304762 0.053142861 0.77500004 1.24218831e-38
0.18452382 0.053142861 0.77500004 1.24240341e-38
0.18846478 0.053005718 0.77300006 1.288500524e-38
0.19410285 0.052937143 0.77200001 1.343531196e-38
0.19800001 0.052800003 0.77000004 1.380373575e-38
0.19894856 0.052662857 0.76800001 1.408032544e-38
0.20187429 0.052662857 0.76800001 1.463312928e-38
0.20333713 0.052662857 0.76800001 1.48171604e-38
0.1433143 0.053561911 0.76000005 1.557311048e-38
0.14476192 0.053561911 0.76000005 1.546906267e-38
0.1464019 0.053632382 0.76100004 1.53797369e-38
0.14688002 0.053280003 0.75600004 1.556376522e-38
0.1506 0.053068571 0.75300002 1.547337727e-38
0.15203428 0.053068571 0.75300002 1.547553526e-38
0.15633714 0.053068571 0.75300002 1.574348875e-38
0.15944763 0.053632382 0.76100004 1.556160162e-38
0.16459429 0.053420953 0.75800002 1.482509456e-38
0.1660381 0.053420953 0.75800002 1.49151462e-38
0.16848001 0.053280003 0.75600004 1.519063447e-38
0.17113335 0.053209525 0.75500005 1.343674829e-38
0.1776 0.054760002 0.77700001 1.325019483e-38
0.17907999 0.054760002 0.77700001 1.297181428e-38
0.18009524 0.054619048 0.77500004 1.278778035e-38
0.18304762 0.054619048 0.77500004 1.232931053e-38
0.18552002 0.054478098 0.77300006 1.223964564e-38
0.18846478 0.054478098 0.77300006 1.279065862e-38
0.18993716 0.054478098 0.77300006 1.306652804e-38
0.1911619 0.054407619 0.77200001 1.315765168e-38
0.19410285 0.054407619 0.77200001 1.361933328e-38
0.19602285 0.054125715 0.76800001 1.3803363e-38
0.20041144 0.054125715 0.76800001 1.444945128e-38
0.20333713 0.054125715 0.76800001 1.490755957e-38
0.20480001 0.054125715 0.76800001 1.481608981e-38
0.21211429 0.054125715 0.76800001 1.500118312e-38
0.2156 0.054266669 0.77000004 1.445051346e-38
0.21706668 0.054266669 0.77000004 1.463488931e-38
0.14041905 0.055009525 0.76000005 1.740295404e-38
0.1433143 0.055009525 0.76000005 1.50102215e-38
0.14400001 0.054719999 0.75600004 1.47303836e-38
0.14688002 0.054719999 0.75600004 1.454275674e-38
0.14812382 0.054647624 0.75500005 1.46342335e-38
0.14956191 0.054647624 0.75500005 1.463387617e-38
0.15100002 0.054647624 0.75500005 1.47239138e-38
0.15675239 0.054647624 0.75500005 1.426401045e-38
0.17136 0.054719999 0.75600004 1.389448384e-38
0.17828572 0.056457143 0.78000003 1.352713345e-38
0.17861904 0.056095239 0.77500004 1.324661171e-38
0.18110287 0.055950481 0.77300006 1.297037094e-38
0.18257524 0.055950481 0.77300006 1.223494569e-38
0.1911619 0.055878095 0.77200001 1.324948437e-38
0.19263239 0.055878095 0.77200001 1.343422596e-38
0.19506668 0.055733338 0.77000004 1.417070219e-38
0.19602285 0.055588569 0.76800001 1.3987034e-38
0.19748572 0.055588569 0.76800001 1.389484397e-38
0.19894856 0.055588569 0.76800001 1.417035326e-38
0.20041144 0.055588569 0.76800001 1.444658142e-38
0.20187429 0.055588569 0.76800001 1.472316831e-38
0.20333713 0.055588569 0.76800001 1.50905131e-38
0.20626286 0.055588569 0.76800001 1.490792951e-38
0.20745523 0.055516191 0.76700002 1.500084821e-38
0.20918857 0.055588569 0.76800001 1.509338996e-38
0.21065143 0.055588569 0.76800001 1.518629045e-38
0.21357714 0.055588569 0.76800001 1.500082019e-38
0.21504 0.055588569 0.76800001 1.472530949e-38
0.21650286 0.055588569 0.76800001 1.52766784e-38
0.13968 0.056160003 0.75600004 1.602365876e-38
0.14112 0.056160003 0.75600004 1.519281489e-38
0.14256001 0.056160003 0.75600004 1.445414703e-38
0.14812382 0.056085717 0.75500005 1.316229558e-38
0.14956191 0.056085717 0.75500005 1.362218772e-38
0.15346856 0.055937145 0.75300002 1.407560307e-38
0.15490286 0.055937145 0.75300002 1.39862829e-38
0.16170667 0.056308571 0.75800002 1.360927336e-38
0.16416001 0.056160003 0.75600004 1.380083366e-38
0.1656 0.056160003 0.75600004 1.416636937e-38
0.16848001 0.056160003 0.75600004 1.416566031e-38
0.16992001 0.056160003 0.75600004 1.379762329e-38
0.17136 0.056160003 0.75600004 1.352175386e-38
0.17861904 0.057571433 0.77500004 1.297039617e-38
0.17963049 0.057422861 0.77300006 1.287786002e-38
0.18086857 0.057348572 0.77200001 1.287710052e-38
0.18257524 0.057422861 0.77300006 1.241752367e-38
0.18380952 0.057348572 0.77200001 1.186330732e-38
0.18822095 0.057348572 0.77200001 1.260661628e-38
0.18969144 0.057348572 0.77200001 1.297504287e-38
0.19506668 0.0572 0.77000004 1.389447543e-38
0.20307238 0.056977142 0.76700002 1.481428914e-38
0.20599429 0.056977142 0.76700002 1.463170696e-38
0.20891619 0.056977142 0.76700002 1.490936304e-38
0.21211429 0.057051428 0.76800001 1.509229835e-38
0.21476001 0.056977142 0.76700002 1.463204748e-38
0.22146668 0.0572 0.77000004 1.445192597e-38
0.14256001 0.057600003 0.75600004 1.389486639e-38
0.14524762 0.057523813 0.75500005 1.343638536e-38
0.14956191 0.057523813 0.75500005 1.270276357e-38
0.15100002 0.057523813 0.75500005 1.362039266e-38
0.15203428 0.05737143 0.75300002 1.371186102e-38
0.15346856 0.05737143 0.75300002 1.38919573e-38
0.1553143 0.057523813 0.75500005 1.380264554e-38
0.16271999 0.057600003 0.75600004 1.352281885e-38
0.16892572 0.057752378 0.75800002 1.361213621e-38
0.17036952 0.057752378 0.75800002 1.333735279e-38
0.17249334 0.057980955 0.76100004 1.31525986e-38
0.17746668 0.058666669 0.77000004 1.269271486e-38
0.17939809 0.058819048 0.77200001 1.278493011e-38
0.18380952 0.058819048 0.77200001 1.223244857e-38
0.18822095 0.058819048 0.77200001 1.251478359e-38
0.18969144 0.058819048 0.77200001 1.288250112e-38
0.1911619 0.058819048 0.77200001 1.29761485e-38
0.19213334 0.058666669 0.77000004 1.315873068e-38
0.19360001 0.058666669 0.77000004 1.3341673e-38
0.19722858 0.058438096 0.76700002 1.389448664e-38
0.19894856 0.058514286 0.76800001 1.398739974e-38
0.20453334 0.058438096 0.76700002 1.444766743e-38
0.20745523 0.058438096 0.76700002 1.453987847e-38
0.20837143 0.058285717 0.76500005 1.472353685e-38
0.2118381 0.058438096 0.76700002 1.490719803e-38
0.21565716 0.058285717 0.76500005 1.454129378e-38
0.2171143 0.058285717 0.76500005 1.454164551e-38
0.14256001 0.059040003 0.75600004 1.334168421e-38
0.14668572 0.058961909 0.75500005 1.270098252e-38
0.14812382 0.058961909 0.75500005 1.215032548e-38
0.14956191 0.058961909 0.75500005 1.270026085e-38
0.15100002 0.058961909 0.75500005 1.325019343e-38
0.1538762 0.058961909 0.75500005 1.343280504e-38
0.1553143 0.058961909 0.75500005 1.334099056e-38
0.15675239 0.058961909 0.75500005 1.324913545e-38
0.15984002 0.059040003 0.75600004 1.343062882e-38
0.16128001 0.059040003 0.75600004 1.343062182e-38
0.16416001 0.059040003 0.75600004 1.342991416e-38
0.16704001 0.059040003 0.75600004 1.324408937e-38
0.16892572 0.059196193 0.75800002 1.31526014e-38
0.16992001 0.059040003 0.75600004 1.287636624e-38
0.17226666 0.059352383 0.76000005 1.26923239e-38
0.17394286 0.05943048 0.76100004 1.259975973e-38
0.17631429 0.05974286 0.76500005 1.250722919e-38
0.17993143 0.059977144 0.76800001 1.296966188e-38
0.18333335 0.060133334 0.77000004 1.342739182e-38
0.18773334 0.060133334 0.77000004 1.223892117e-38
0.1892 0.060133334 0.77000004 1.269848401e-38
0.19360001 0.060133334 0.77000004 1.315621955e-38
0.19722858 0.059899047 0.76700002 1.361898296e-38
0.19868954 0.059899047 0.76700002 1.371117859e-38
0.20015047 0.059899047 0.76700002 1.389520691e-38
0.20161143 0.059899047 0.76700002 1.407923663e-38
0.20254287 0.05974286 0.76500005 1.426327336e-38
0.20453334 0.059899047 0.76700002 1.4355476e-38
0.20599429 0.059899047 0.76700002 1.435583894e-38
0.21274288 0.05974286 0.76500005 1.472317952e-38
0.21509334 0.059586667 0.76300001 1.435618786e-38
0.2171143 0.05974286 0.76500005 1.40810317e-38
0.21914285 0.059899047 0.76700002 1.426613061e-38
0.22060381 0.059899047 0.76700002 1.454415383e-38
0.22206476 0.059899047 0.76700002 1.389557125e-38
0.13805714 0.060400005 0.75500005 1.243341579e-38
0.14093335 0.060400005 0.75500005 1.270133705e-38
0.14237143 0.060400005 0.75500005 1.288501365e-38
0.14812382 0.060400005 0.75500005 1.260769948e-38
0.14956191 0.060400005 0.75500005 1.269810005e-38
0.16106668 0.060400005 0.75500005 1.315547266e-38
0.16250476 0.060400005 0.75500005 1.324623336e-38
0.16416001 0.060480006 0.75600004 1.315332447e-38
0.1656 0.060480006 0.75600004 1.306076871e-38
0.16848001 0.060480006 0.75600004 1.269305678e-38
0.17585333 0.061040003 0.76300001 1.232320647e-38
0.18139429 0.061440002 0.76800001 1.389484818e-38
0.18285714 0.061440002 0.76800001 1.471703623e-38
0.18773334 0.0616 0.77000004 1.187120924e-38
0.19455999 0.061440002 0.76800001 1.306509592e-38
0.19576761 0.061360002 0.76700002 1.315728874e-38
0.19868954 0.061360002 0.76700002 1.352570412e-38
0.20015047 0.061360002 0.76700002 1.380264834e-38
0.20254287 0.0612 0.76500005 1.407923803e-38
0.20400001 0.0612 0.76500005 1.417107914e-38
0.20837143 0.0612 0.76500005 1.472281238e-38
0.20982857 0.0612 0.76500005 1.472280818e-38
0.21274288 0.0612 0.76500005 1.472355227e-38
0.21420002 0.0612 0.76500005 1.463134963e-38
0.21509334 0.061040003 0.76300001 1.417216514e-38
0.22206476 0.061360002 0.76700002 1.490504704e-38
0.22352572 0.061360002 0.76700002 1.554893528e-38
0.13805714 0.061838102 0.75500005 1.196952714e-38
0.14380954 0.061838102 0.75500005 1.260770789e-38
0.14524762 0.061838102 0.75500005 1.279172781e-38
0.14812382 0.061838102 0.75500005 1.223855403e-38
0.15100002 0.061838102 0.75500005 1.269736857e-38
0.15203428 0.061674289 0.75300002 1.269592804e-38
0.15346856 0.061674289 0.75300002 1.278669715e-38
0.15633714 0.061674289 0.75300002 1.251298712e-38
0.16106668 0.061838102 0.75500005 1.29710842e-38
0.16250476 0.061838102 0.75500005 1.297072407e-38
0.1656 0.061920006 0.75600004 1.269341691e-38
0.16704001 0.061920006 0.75600004 1.260121848e-38
0.16992001 0.061920006 0.75600004 1.223315202e-38
0.17226666 0.062247619 0.76000005 1.195656794e-38
0.1737143 0.062247619 0.76000005 1.19562078e-38
0.17730667 0.062493335 0.76300001 1.232538829e-38
0.18285714 0.06290286 0.76800001 1.416997071e-38
0.1892 0.063066669 0.77000004 1.269917204e-38
0.19163428 0.06290286 0.76800001 1.26963176e-38
0.19430667 0.062820949 0.76700002 1.269595466e-38
0.19576761 0.062820949 0.76700002 1.278707269e-38
0.1967143 0.06265714 0.76500005 1.297038075e-38
0.19817144 0.06265714 0.76500005 1.324803543e-38
0.20201333 0.062493335 0.76300001 1.407744017e-38
0.20346667 0.062493335 0.76300001 1.417035326e-38
0.20491999 0.062493335 0.76300001 1.435617805e-38
0.20637333 0.062493335 0.76300001 1.472316411e-38
0.20782667 0.062493335 0.76300001 1.518234159e-38
0.22002858 0.06265714 0.76500005 1.444730309e-38
0.13680001 0.063359998 0.75600004 1.141996311e-38
0.13824001 0.063359998 0.75600004 1.150460995e-38
0.13949525 0.063276194 0.75500005 1.159608251e-38
0.14093335 0.063276194 0.75500005 1.187122606e-38
0.14237143 0.063276194 0.75500005 1.214636961e-38
0.14629714 0.063108571 0.75300002 1.223745821e-38
0.14773144 0.063108571 0.75300002 1.196195733e-38
0.1506 0.063108571 0.75300002 1.251297311e-38
0.15490286 0.063108571 0.75300002 1.251191513e-38
0.15633714 0.063108571 0.75300002 1.232752107e-38
0.16064 0.063108571 0.75300002 1.278776494e-38
0.16394287 0.063276194 0.75500005 1.251189691e-38
0.16538095 0.063276194 0.75500005 1.241969848e-38
0.16825715 0.063276194 0.75500005 1.232570218e-38
0.16969524 0.063276194 0.75500005 1.204875796e-38
0.17113335 0.063276194 0.75500005 1.177289414e-38
0.17875999 0.063946664 0.76300001 1.241722098e-38
0.18261905 0.064281903 0.76700002 1.361429001e-38
0.18724571 0.064365715 0.76800001 1.159569154e-38
0.19163428 0.064365715 0.76800001 1.251227807e-38
0.19525716 0.064114295 0.76500005 1.251012567e-38
0.1967143 0.064114295 0.76500005 1.269451133e-38
0.20055999 0.063946664 0.76300001 1.370758285e-38
0.20201333 0.063946664 0.76300001 1.407600244e-38
0.20637333 0.063946664 0.76300001 1.49965196e-38
0.20782667 0.063946664 0.76300001 1.564116034e-38
0.2171143 0.064114295 0.76500005 1.472424731e-38
0.21857144 0.064114295 0.76500005 1.463276354e-38
0.22206476 0.064281903 0.76700002 1.499831607e-38
0.22440001 0.064114295 0.76500005 1.398951289e-38
0.13536 0.064800002 0.75600004 1.160218936e-38
0.14093335 0.06471429 0.75500005 1.15917651e-38
0.14610286 0.064457141 0.75200003 1.242075226e-38
0.14753523 0.064457141 0.75200003 1.214561571e-38
0.14896762 0.064457141 0.75200003 1.232893918e-38
0.15040001 0.064457141 0.75200003 1.260444287e-38
0.15183239 0.064457141 0.75200003 1.260408273e-38
0.15326478 0.064457141 0.75200003 1.269557071e-38
0.15469715 0.064457141 0.75200003 1.260338909e-38
0.16064 0.06454286 0.75300002 1.260444567e-38
0.1620743 0.06454286 0.75300002 1.25129675e-38
0.16350858 0.06454286 0.75300002 1.223781975e-38
0.16681907 0.06471429 0.75500005 1.205127189e-38
0.16825715 0.06471429 0.75500005 1.223422121e-38
0.16969524 0.06471429 0.75500005 1.195763432e-38
0.17325714 0.064971432 0.75800002 1.158922875e-38
0.17875999 0.065399997 0.76300001 1.204843286e-38
0.1811581 0.065742858 0.76700002 1.250904527e-38
0.18431999 0.065828577 0.76800001 1.195585187e-38
0.18626668 0.066 0.77000004 1.103570605e-38
0.19017144 0.065828577 0.76800001 1.223748344e-38
0.19309714 0.065828577 0.76800001 1.214312841e-38
0.19525716 0.065571435 0.76500005 1.223497231e-38
0.1967143 0.065571435 0.76500005 1.241900063e-38
0.19910666 0.065399997 0.76300001 1.306149598e-38
0.20055999 0.065399997 0.76300001 1.342992257e-38
0.20201333 0.065399997 0.76300001 1.389053638e-38
0.20346667 0.065399997 0.76300001 1.398237468e-38
0.20491999 0.065399997 0.76300001 1.416604988e-38
0.20782667 0.065399997 0.76300001 1.499436581e-38
0.21073334 0.065399997 0.76300001 1.481536534e-38
0.22002858 0.065571435 0.76500005 1.444837508e-38
0.22148572 0.065571435 0.76500005 1.454020918e-38
0.22294286 0.065571435 0.76500005 1.46323936e-38
0.22440001 0.065571435 0.76500005 1.380658319e-38
0.13805714 0.066152386 0.75500005 1.076524564e-38
0.14180572 0.06588953 0.75200003 1.168502852e-38
0.14467049 0.06588953 0.75200003 1.287960604e-38
0.14610286 0.06588953 0.75200003 1.260445688e-38
0.14896762 0.06588953 0.75200003 1.251369057e-38
0.15040001 0.06588953 0.75200003 1.269628257e-38
0.15203428 0.065977141 0.75300002 1.269699723e-38
0.15469715 0.06588953 0.75200003 1.278705588e-38
0.1575619 0.06588953 0.75200003 1.278813348e-38
0.16064 0.065977141 0.75300002 1.251225144e-38
0.16394287 0.066152386 0.75500005 1.196195593e-38
0.16681907 0.066152386 0.75500005 1.186688483e-38
0.16825715 0.066152386 0.75500005 1.214202699e-38
0.17136 0.066239998 0.75600004 1.168213064e-38
0.17325714 0.066415235 0.75800002 1.140591089e-38
0.17516191 0.066590481 0.76000005 1.121866238e-38
0.18285714 0.067291424 0.76800001 1.232319946e-38
0.1892 0.067466669 0.77000004 1.195945461e-38
0.19284572 0.067203812 0.76700002 1.186618699e-38
0.1967143 0.067028575 0.76500005 1.214277528e-38
0.19765334 0.06685333 0.76300001 1.250904107e-38
0.19910666 0.06685333 0.76300001 1.287674739e-38
0.20055999 0.06685333 0.76300001 1.324481244e-38
0.20346667 0.06685333 0.76300001 1.379691143e-38
0.20637333 0.06685333 0.76300001 1.416856381e-38
0.21073334 0.06685333 0.76300001 1.463133281e-38
0.21218666 0.06685333 0.76300001 1.49997552e-38
0.21857144 0.067028575 0.76500005 1.463419707e-38
0.21945333 0.06685333 0.76300001 1.435689832e-38
0.22148572 0.067028575 0.76500005 1.417286859e-38
0.22236 0.06685333 0.76300001 1.398882766e-38
0.22440001 0.067028575 0.76500005 1.362398699e-38
0.22731429 0.067028575 0.76500005 1.36218374e-38
0.14467049 0.067321904 0.75200003 1.260734776e-38
0.14610286 0.067321904 0.75200003 1.251516614e-38
0.14753523 0.067321904 0.75200003 1.242331243e-38
0.14896762 0.067321904 0.75200003 1.260481421e-38
0.15040001 0.067321904 0.75200003 1.278812227e-38
0.15183239 0.067321904 0.75200003 1.269628397e-38
0.15469715 0.067321904 0.75200003 1.297180027e-38
0.15899429 0.067321904 0.75200003 1.269736997e-38
0.16042668 0.067321904 0.75200003 1.278883553e-38
0.16185905 0.067321904 0.75200003 1.288031229e-38
0.16538095 0.067590483 0.75500005 1.232678539e-38
0.17136 0.067680001 0.75600004 1.140446895e-38
0.17684191 0.068127625 0.76100004 1.103606759e-38
0.1848 0.068933338 0.77000004 1.140626402e-38
0.1892 0.068933338 0.77000004 1.232607913e-38
0.19163428 0.068754286 0.76800001 1.15928357e-38
0.19284572 0.068664759 0.76700002 1.168215726e-38
0.1967143 0.068485714 0.76500005 1.214241515e-38
0.19910666 0.06830667 0.76300001 1.269235753e-38
0.20346667 0.06830667 0.76300001 1.361360197e-38
0.20491999 0.06830667 0.76300001 1.370758986e-38
0.20637333 0.06830667 0.76300001 1.389197972e-38
0.20782667 0.06830667 0.76300001 1.416856521e-38
0.20928 0.06830667 0.76300001 1.435367533e-38
0.21364 0.06830667 0.76300001 1.490719803e-38
0.21509334 0.06830667 0.76300001 1.472424871e-38
0.21654667 0.06830667 0.76300001 1.463348241e-38
0.21857144 0.068485714 0.76500005 1.444944708e-38
0.22148572 0.068485714 0.76500005 1.408067717e-38
0.22236 0.06830667 0.76300001 1.38962761e-38
0.22381333 0.06830667 0.76300001 1.362290939e-38
0.22820571 0.068754286 0.76800001 1.362110592e-38
0.13680001 0.069120005 0.75600004 1.003450212e-38
0.14467049 0.068754286 0.75200003 1.233326639e-38
0.14610286 0.068754286 0.75200003 1.242474876e-38
0.15326478 0.068754286 0.75200003 1.242077748e-38
0.15612952 0.068754286 0.75200003 1.379868827e-38
0.1575619 0.068754286 0.75200003 1.325271857e-38
0.15899429 0.068754286 0.75200003 1.279028867e-38
0.16042668 0.068754286 0.75200003 1.306613147e-38
0.16185905 0.068754286 0.75200003 1.334163936e-38
0.16350858 0.068845719 0.75300002 1.315796977e-38
0.16494286 0.068845719 0.75300002 1.306326162e-38
0.16825715 0.069028571 0.75500005 1.223278909e-38
0.16969524 0.069028571 0.75500005 1.167961951e-38
0.17136 0.069120005 0.75600004 1.121972316e-38
0.18285714 0.07021714 0.76800001 9.201142918e-39
0.1848 0.070400007 0.77000004 1.085847963e-38
0.18626668 0.070400007 0.77000004 1.251081511e-38
0.18773334 0.070400007 0.77000004 1.260194715e-38
0.1892 0.070400007 0.77000004 1.269450572e-38
0.19017144 0.07021714 0.76800001 1.196090355e-38
0.19163428 0.07021714 0.76800001 1.131624741e-38
0.19284572 0.070125714 0.76700002 1.149847086e-38
0.19525716 0.069942862 0.76500005 1.195873575e-38
0.1967143 0.069942862 0.76500005 1.223424644e-38
0.19910666 0.069760002 0.76300001 1.260051923e-38
0.20491999 0.069760002 0.76300001 1.35221196e-38
0.20637333 0.069760002 0.76300001 1.370615353e-38
0.20782667 0.069760002 0.76300001 1.389162099e-38
0.21364 0.069760002 0.76300001 1.444803317e-38
0.22148572 0.069942862 0.76500005 1.408068698e-38
0.22236 0.069760002 0.76300001 1.38973579e-38
0.22440001 0.069942862 0.76500005 1.362219193e-38
0.22820571 0.07021714 0.76800001 1.362039687e-38
0.23385525 0.07149715 0.78200006 1.38962789e-38
0.23594669 0.071680009 0.78400004 1.398598022e-38
0.23744 0.071680009 0.78400004 1.408030582e-38
0.23893334 0.071680009 0.78400004 1.399203803e-38
0.13680001 0.070560001 0.75600004 9.473799165e-39
0.14056 0.070280001 0.75300002 9.935843703e-39
0.14714287 0.070000008 0.75000006 1.251297311e-38
0.15000001 0.070000008 0.75000006 1.232714412e-38
0.15142858 0.070000008 0.75000006 1.214419339e-38
0.15326478 0.070186675 0.75200003 1.196159439e-38
0.15899429 0.070186675 0.75200003 1.22403603e-38
0.16681907 0.070466675 0.75500005 1.149918412e-38
0.16969524 0.070466675 0.75500005 1.084987426e-38
0.17136 0.070560001 0.75600004 1.029778228e-38
0.17325714 0.070746668 0.75800002 1.038997511e-38
0.17875999 0.071213335 0.76300001 9.931520697e-39
0.18626668 0.071866669 0.77000004 1.242006142e-38
0.18969144 0.072053328 0.77200001 1.26033961e-38
0.19017144 0.071680002 0.76800001 1.205166846e-38
0.19309714 0.071680002 0.76800001 1.149845544e-38
0.20055999 0.071213335 0.76300001 1.250904387e-38
0.20491999 0.071213335 0.76300001 1.324660891e-38
0.21364 0.071213335 0.76300001 1.426257972e-38
0.21800001 0.071213335 0.76300001 1.454092944e-38
0.21945333 0.071213335 0.76300001 1.481572968e-38
0.22294286 0.071400002 0.76500005 1.398955774e-38
0.22440001 0.071400002 0.76500005 1.371295263e-38
0.22820571 0.071680002 0.76800001 1.362004794e-38
0.23385525 0.072986677 0.78200006 1.389556844e-38
0.23534477 0.072986677 0.78200006 1.398813542e-38
0.23744 0.073173337 0.78400004 1.417250846e-38
0.23893334 0.073173337 0.78400004 1.389662923e-38
0.24042667 0.073173337 0.78400004 1.37125953e-38
0.24253714 0.073359996 0.78600001 1.362003813e-38
0.24403428 0.073359996 0.78600001 1.362110873e-38
0.24765715 0.07354667 0.78800005 1.270096851e-38
0.13536 0.072000004 0.75600004 9.753248908e-39
0.14467049 0.071619049 0.75200003 1.195729801e-38
0.1457143 0.071428575 0.75000006 1.223531423e-38
0.14857145 0.071428575 0.75000006 1.214346752e-38
0.15000001 0.071428575 0.75000006 1.17757668e-38
0.15142858 0.071428575 0.75000006 1.159173708e-38
0.15285715 0.071428575 0.75000006 1.149917991e-38
0.16042668 0.071619049 0.75200003 1.149164233e-38
0.1620743 0.071714289 0.75300002 1.121578692e-38
0.16681907 0.071904771 0.75500005 1.03864102e-38
0.16969524 0.071904771 0.75500005 1.001905981e-38
0.1728 0.072000004 0.75600004 9.742828852e-39
0.17470096 0.072190478 0.75800002 1.011124283e-38
0.17922859 0.072857149 0.76500005 9.471262815e-39
0.18139429 0.073142856 0.76800001 9.188943214e-39
0.18528001 0.073523812 0.77200001 1.067265484e-38
0.18626668 0.073333338 0.77000004 1.241969848e-38
0.18822095 0.073523812 0.77200001 1.251872684e-38
0.19284572 0.073047623 0.76700002 1.159173988e-38
0.19430667 0.073047623 0.76700002 1.159138535e-38
0.19525716 0.072857149 0.76500005 1.232571479e-38
0.1967143 0.072857149 0.76500005 1.315223426e-38
0.19910666 0.072666667 0.76300001 1.195801968e-38
0.20055999 0.072666667 0.76300001 1.223424644e-38
0.20201333 0.072666667 0.76300001 1.250975433e-38
0.20346667 0.072666667 0.76300001 1.278633982e-38
0.20637333 0.072666667 0.76300001 1.343242669e-38
0.20782667 0.072666667 0.76300001 1.379869948e-38
0.21073334 0.072666667 0.76300001 1.416892114e-38
0.21509334 0.072666667 0.76300001 1.417037849e-38
0.21800001 0.072666667 0.76300001 1.472530109e-38
0.21945333 0.072666667 0.76300001 1.527452881e-38
0.22148572 0.072857149 0.76500005 1.463025522e-38
0.23325716 0.074285716 0.78000003 1.389555863e-38
0.23744 0.074666664 0.78400004 1.426397822e-38
0.23893334 0.074666664 0.78400004 1.38951943e-38
0.24192001 0.074666664 0.78400004 1.380299867e-38
0.2461562 0.07504762 0.78800005 1.407957435e-38
0.24765715 0.07504762 0.78800005 1.417178539e-38
0.13949525 0.07334286 0.75500005 6.530389958e-39
0.1419943 0.073148571 0.75300002 9.012815411e-39
0.14467049 0.07305143 0.75200003 9.292625287e-39
0.15183239 0.07305143 0.75200003 1.113075893e-38
0.15285715 0.072857149 0.75000006 1.122187276e-38
0.15612952 0.07305143 0.75200003 1.102816426e-38
0.15899429 0.07305143 0.75200003 1.194759542e-38
0.16042668 0.07305143 0.75200003 1.203977844e-38
0.16185905 0.07305143 0.75200003 1.222418371e-38
0.16681907 0.07334286 0.75500005 1.130585538e-38
0.17969714 0.07450857 0.76700002 1.121505824e-38
0.18139429 0.074605711 0.76800001 1.029059922e-38
0.1848 0.0748 0.77000004 1.057974175e-38
0.18626668 0.0748 0.77000004 1.168465298e-38
0.18822095 0.074994288 0.77200001 1.242473335e-38
0.19017144 0.074605711 0.76800001 1.214709828e-38
0.19163428 0.074605711 0.76800001 1.104326466e-38
0.19430667 0.07450857 0.76700002 1.07616443e-38
0.1967143 0.074314289 0.76500005 1.214132353e-38
0.19817144 0.074314289 0.76500005 1.195800987e-38
0.19910666 0.07412 0.76300001 1.168286492e-38
0.20055999 0.07412 0.76300001 1.195837421e-38
0.20201333 0.07412 0.76300001 1.214276267e-38
0.20346667 0.07412 0.76300001 1.251154098e-38
0.20928 0.07412 0.76300001 1.379977848e-38
0.21364 0.07412 0.76300001 1.398739833e-38
0.21509334 0.07412 0.76300001 1.407851777e-38
0.21654667 0.07412 0.76300001 1.417033925e-38
0.21945333 0.07412 0.76300001 1.472313888e-38
0.22294286 0.074314289 0.76500005 1.389446282e-38
0.22498667 0.07450857 0.76700002 1.361894512e-38
0.22733334 0.0748 0.77000004 1.334344704e-38
0.22939429 0.074994288 0.77200001 1.361932067e-38
0.24403428 0.076354288 0.78600001 1.435509205e-38
0.2461562 0.076548576 0.78800005 1.426325515e-38
0.24765715 0.076548576 0.78800005 1.417215954e-38
0.13805714 0.074780956 0.75500005 6.343133043e-39
0.13949525 0.074780956 0.75500005 4.694031761e-39
0.14093335 0.074780956 0.75500005 6.436029322e-39
0.1419943 0.07458286 0.75300002 8.272384717e-39
0.14629714 0.07458286 0.75300002 7.635647306e-39
0.15142858 0.074285723 0.75000006 1.067051506e-38
0.15285715 0.074285723 0.75000006 1.094745227e-38
0.1575619 0.074483812 0.75200003 1.168861024e-38
0.15899429 0.074483812 0.75200003 1.223998335e-38
0.16042668 0.074483812 0.75200003 1.26998797e-38
0.16350858 0.07458286 0.75300002 1.251693038e-38
0.16494286 0.07458286 0.75300002 1.178296527e-38
0.16681907 0.074780956 0.75500005 1.224322175e-38
0.16969524 0.074780956 0.75500005 1.297646098e-38
0.17113335 0.074780956 0.75500005 1.32501654e-38
0.1848 0.076266669 0.77000004 1.039500997e-38
0.1892 0.076266669 0.77000004 1.38919629e-38
0.19525716 0.075771436 0.76500005 1.05801159e-38
0.1967143 0.075771436 0.76500005 1.122296717e-38
0.19817144 0.075771436 0.76500005 1.13151642e-38
0.19962859 0.075771436 0.76500005 1.1498838e-38
0.20055999 0.07557334 0.76300001 1.168287052e-38
0.20346667 0.07557334 0.76300001 1.223713031e-38
0.20491999 0.07557334 0.76300001 1.269558332e-38
0.20637333 0.07557334 0.76300001 1.306220223e-38
0.20728192 0.075375244 0.76100004 1.343026869e-38
0.21073334 0.07557334 0.76300001 1.380013161e-38
0.21218666 0.07557334 0.76300001 1.380228541e-38
0.21800001 0.07557334 0.76300001 1.417105251e-38
0.21945333 0.07557334 0.76300001 1.417069658e-38
0.22294286 0.075771436 0.76500005 1.371187783e-38
0.22498667 0.075969525 0.76700002 1.343672727e-38
0.22792381 0.076464765 0.77200001 1.325269615e-38
0.23087999 0.076959997 0.77700001 1.36196794e-38
0.23981334 0.077455238 0.78200006 1.417106232e-38
0.24702857 0.07785143 0.78600001 1.417178959e-38
0.24915811 0.078049526 0.78800005 1.398777108e-38
0.25248 0.078148574 0.78900003 1.36218388e-38
0.25398287 0.078148574 0.78900003 1.34381594e-38
0.25764 0.078346662 0.79100001 1.362147727e-38
0.25914666 0.078346662 0.79100001 1.352965578e-38
0.14093335 0.076219052 0.75500005 8.732983114e-39
0.14237143 0.076219052 0.75500005 9.281850703e-39
0.14380954 0.076219052 0.75500005 9.100339112e-39
0.14486286 0.076017141 0.75300002 8.919189055e-39
0.14896762 0.075916193 0.75200003 1.076417645e-38
0.15285715 0.07571429 0.75000006 1.205989268e-38
0.15469715 0.075916193 0.75200003 1.215244424e-38
0.15857144 0.07571429 0.75000006 1.279460608e-38
0.16042668 0.075916193 0.75200003 1.343746856e-38
0.16185905 0.075916193 0.75200003 1.408066175e-38
0.16329144 0.075916193 0.75200003 1.353035363e-38
0.16637714 0.076017141 0.75300002 1.307153488e-38
0.1728 0.07632 0.75600004 1.334234422e-38
0.17829144 0.076824762 0.76100004 1.297034572e-38
0.18822095 0.077935241 0.77200001 1.223856944e-38
0.19430667 0.077430479 0.76700002 1.012130135e-38
0.20201333 0.077026665 0.76300001 1.177436831e-38
0.20346667 0.077026665 0.76300001 1.214244457e-38
0.21218666 0.077026665 0.76300001 1.370829191e-38
0.21364 0.077026665 0.76300001 1.380084767e-38
0.21654667 0.077026665 0.76300001 1.398739273e-38
0.21945333 0.077026665 0.76300001 1.407850936e-38
0.22090666 0.077026665 0.76300001 1.38941195e-38
0.22294286 0.077228576 0.76500005 1.380121341e-38
0.22528 0.077531427 0.76800001 1.33438352e-38
0.22821906 0.078036197 0.77300006 1.288572271e-38
0.23087999 0.078439996 0.77700001 1.334453164e-38
0.23235999 0.078439996 0.77700001 1.380586572e-38
0.23444192 0.078641906 0.77900004 1.435580811e-38
0.23771429 0.078742854 0.78000003 1.453948611e-38
0.24130288 0.078944765 0.78200006 1.435508644e-38
0.24341334 0.079146668 0.78400004 1.453768264e-38
0.24852571 0.079348572 0.78600001 1.398846612e-38
0.25065905 0.079550482 0.78800005 1.389663203e-38
0.25398287 0.07965143 0.78900003 1.362004934e-38
0.26348573 0.080257148 0.79500002 1.306903076e-38
0.266 0.080560006 0.79800004 1.270420691e-38
0.26819047 0.080761909 0.80000001 1.242583757e-38
0.27344385 0.08096382 0.80200005 1.178010943e-38
0.27497146 0.08096382 0.80200005 1.141062626e-38
0.13716191 0.077965714 0.75800002 1.224899931e-38
0.13968 0.077760004 0.75600004 1.169330039e-38
0.14237143 0.077657148 0.75500005 1.03964449e-38
0.14380954 0.077657148 0.75500005 1.075947509e-38
0.14524762 0.077657148 0.75500005 1.12233217e-38
0.14629714 0.07745143 0.75300002 1.168752704e-38
0.14753523 0.077348575 0.75200003 1.214814786e-38
0.15000001 0.077142864 0.75000006 1.214994572e-38
0.15285715 0.077142864 0.75000006 1.325304367e-38
0.15857144 0.077142864 0.75000006 1.334525892e-38
0.16185905 0.077348575 0.75200003 1.490682109e-38
0.16472381 0.077348575 0.75200003 1.43568815e-38
0.16781144 0.07745143 0.75300002 1.362147587e-38
0.16924572 0.07745143 0.75300002 1.362110732e-38
0.17068 0.07745143 0.75300002 1.371078342e-38
0.17400953 0.077657148 0.75500005 1.334199529e-38
0.17712002 0.077760004 0.75600004 1.287959062e-38
0.17785142 0.07745143 0.75300002 1.213737888e-38
0.17928571 0.07745143 0.75300002 1.139767686e-38
0.18626668 0.0792 0.77000004 1.057547199e-38
0.1892 0.0792 0.77000004 1.370794299e-38
0.19066668 0.0792 0.77000004 1.398381942e-38
0.19455999 0.078994282 0.76800001 1.03964421e-38
0.19576761 0.078891426 0.76700002 1.067121991e-38
0.19868954 0.078891426 0.76700002 1.094745928e-38
0.19962859 0.078685716 0.76500005 1.094746629e-38
0.20201333 0.078479998 0.76300001 1.177471723e-38
0.20346667 0.078479998 0.76300001 1.214278509e-38
0.20491999 0.078479998 0.76300001 1.251082772e-38
0.21073334 0.078479998 0.76300001 1.343241968e-38
0.21218666 0.078479998 0.76300001 1.352390345e-38
0.21509334 0.078479998 0.76300001 1.3803363e-38
0.21800001 0.078479998 0.76300001 1.389483697e-38
0.21945333 0.078479998 0.76300001 1.398667386e-38
0.22090666 0.078479998 0.76300001 1.389340484e-38
0.22294286 0.078685716 0.76500005 1.389340624e-38
0.23028573 0.079714291 0.77500004 1.306974963e-38
0.23383999 0.079920001 0.77700001 1.398883046e-38
0.23592572 0.080125719 0.77900004 1.435616824e-38
0.24341334 0.080640003 0.78400004 1.426289501e-38
0.24852571 0.080845714 0.78600001 1.398808497e-38
0.25002286 0.080845714 0.78600001 1.407993028e-38
0.25216001 0.081051432 0.78800005 1.398774586e-38
0.25366098 0.081051432 0.78800005 1.389555303e-38
0.25548571 0.081154287 0.78900003 1.380407907e-38
0.26065335 0.081359997 0.79100001 1.343745034e-38
0.26282287 0.081565715 0.79300004 1.316120257e-38
0.27038857 0.082491435 0.80200005 1.260877568e-38
0.27191621 0.082491435 0.80200005 1.251622132e-38
0.2742857 0.082285717 0.80000001 1.279424874e-38
0.29077333 0.083520003 0.81200004 9.109318632e-39
0.13860573 0.079409525 0.75800002 1.206468512e-38
0.14380954 0.079095237 0.75500005 1.122869708e-38
0.14486286 0.078885712 0.75300002 1.150061624e-38
0.14629714 0.078885712 0.75300002 1.205557528e-38
0.15387429 0.078361914 0.74800003 1.279208934e-38
0.15529905 0.078361914 0.74800003 1.288499964e-38
0.15714286 0.078571431 0.75000006 1.28857171e-38
0.15857144 0.078571431 0.75000006 1.29775568e-38
0.16571429 0.078571431 0.75000006 1.371297505e-38
0.17188573 0.078780949 0.75200003 1.361895353e-38
0.17354856 0.078885712 0.75300002 1.325196327e-38
0.17641714 0.078885712 0.75300002 1.278919566e-38
0.17785142 0.078885712 0.75300002 1.213917534e-38
0.18333335 0.080666669 0.77000004 1.158457644e-38
0.1848 0.080666669 0.77000004 1.102639162e-38
0.18773334 0.080666669 0.77000004 1.214492767e-38
0.1892 0.080666669 0.77000004 1.379942536e-38
0.19213334 0.080666669 0.77000004 1.435509205e-38
0.19309714 0.080457143 0.76800001 1.260336947e-38
0.19602285 0.080457143 0.76800001 1.085560277e-38
0.19748572 0.080457143 0.76800001 1.085453357e-38
0.19894856 0.080457143 0.76800001 1.094709354e-38
0.20108573 0.080142856 0.76500005 1.131660894e-38
0.20491999 0.07993333 0.76300001 1.232713991e-38
0.21073334 0.07993333 0.76300001 1.315690899e-38
0.21218666 0.07993333 0.76300001 1.334202752e-38
0.21800001 0.07993333 0.76300001 1.380299867e-38
0.22294286 0.080142856 0.76500005 1.380228821e-38
0.22586668 0.080666669 0.77000004 1.343422876e-38
0.22821906 0.080980957 0.77300006 1.306868044e-38
0.23235999 0.0814 0.77700001 1.38962789e-38
0.23383999 0.0814 0.77700001 1.39881186e-38
0.24068573 0.081714287 0.78000003 1.398846612e-38
0.2427924 0.081923813 0.78200006 1.371295964e-38
0.24490668 0.082133338 0.78400004 1.389663063e-38
0.2464 0.082133338 0.78400004 1.39884437e-38
0.25516191 0.082552388 0.78800005 1.380408047e-38
0.25698858 0.082657143 0.78900003 1.371260371e-38
0.25849143 0.082657143 0.78900003 1.362112694e-38
0.26065335 0.082866669 0.79100001 1.352962355e-38
0.26282287 0.083076194 0.79300004 1.334592734e-38
0.2697143 0.083809525 0.80000001 1.28835605e-38
0.27276188 0.083809525 0.80000001 1.270168878e-38
0.2742857 0.083809525 0.80000001 1.28857185e-38
0.27649906 0.08401905 0.80200005 1.307045868e-38
0.27871999 0.084228575 0.80400002 1.251907997e-38
0.28094861 0.0844381 0.80600005 1.205989408e-38
0.28768003 0.085066676 0.81200004 1.122978729e-38
0.29232001 0.085066676 0.81200004 9.936188422e-39
0.13716191 0.080853336 0.75800002 1.298120438e-38
0.14093335 0.080533341 0.75500005 1.141815263e-38
0.14857145 0.080000006 0.75000006 1.26091176e-38
0.1557143 0.080000006 0.75000006 1.251657725e-38
0.15672383 0.079786666 0.74800003 1.251837091e-38
0.15814857 0.079786666 0.74800003 1.261021061e-38
0.15957333 0.079786666 0.74800003 1.279388721e-38
0.16099809 0.079786666 0.74800003 1.30683147e-38
0.16571429 0.080000006 0.75000006 1.352930266e-38
0.16714287 0.080000006 0.75000006 1.362004794e-38
0.1733181 0.080213338 0.75200003 1.325090109e-38
0.17498286 0.080320001 0.75300002 1.29753974e-38
0.17904763 0.080213338 0.75200003 1.17689649e-38
0.1848 0.082133338 0.77000004 1.111965644e-38
0.18626668 0.082133338 0.77000004 1.056828753e-38
0.18773334 0.082133338 0.77000004 1.223532123e-38
0.19163428 0.081919998 0.76800001 1.453696237e-38
0.19309714 0.081919998 0.76800001 1.297322539e-38
0.19455999 0.081919998 0.76800001 1.140914088e-38
0.19602285 0.081919998 0.76800001 1.104035416e-38
0.19748572 0.081919998 0.76800001 1.076341835e-38
0.20201333 0.08138667 0.76300001 1.150171486e-38
0.20491999 0.08138667 0.76300001 1.223602749e-38
0.20928 0.08138667 0.76300001 1.27884852e-38
0.21073334 0.08138667 0.76300001 1.29732436e-38
0.21218666 0.08138667 0.76300001 1.325163116e-38
0.21364 0.08138667 0.76300001 1.352714606e-38
0.21945333 0.08138667 0.76300001 1.398631233e-38
0.22090666 0.08138667 0.76300001 1.389447683e-38
0.22294286 0.08160001 0.76500005 1.380191546e-38
0.22645333 0.08234667 0.77200001 1.37093555e-38
0.22821906 0.082453333 0.77300006 1.362004234e-38
0.23028573 0.082666665 0.77500004 1.380480074e-38
0.23532 0.082879998 0.77700001 1.408137782e-38
0.2368 0.082879998 0.77700001 1.408099526e-38
0.23889334 0.08309333 0.77900004 1.417285038e-38
0.2464 0.083626673 0.78400004 1.408064214e-38
0.25152001 0.083839998 0.78600001 1.41732035e-38
0.25301713 0.083839998 0.78600001 1.417248604e-38
0.25451428 0.083839998 0.78600001 1.389626069e-38
0.25666285 0.084053338 0.78800005 1.371223937e-38
0.27276188 0.085333332 0.80000001 1.297719106e-38
0.2742857 0.085333332 0.80000001 1.297647079e-38
0.27580953 0.085333332 0.80000001 1.297647079e-38
0.27941337 0.085973337 0.80600005 1.27928012e-38
0.2831848 0.08618667 0.80800003 1.279349905e-38
0.28768003 0.086613335 0.81200004 1.269951957e-38
0.29077333 0.086613335 0.81200004 1.178227163e-38
0.29160002 0.08640001 0.81000006 1.113652948e-38
0.29314288 0.08640001 0.81000006 1.09499648e-38
0.1360762 0.082514293 0.76000005 1.169511927e-38
0.13716191 0.082297146 0.75800002 1.19699125e-38
0.14342858 0.08175429 0.75300002 1.113726376e-38
0.1457143 0.08142858 0.75000006 1.205455373e-38
0.14714287 0.08142858 0.75000006 1.251407033e-38
0.15142858 0.08142858 0.75000006 1.214671433e-38
0.15387429 0.081211433 0.74800003 1.22392743e-38
0.15529905 0.081211433 0.74800003 1.224035049e-38
0.15814857 0.081211433 0.74800003 1.233326639e-38
0.15957333 0.081211433 0.74800003 1.233291186e-38
0.16669716 0.081211433 0.74800003 1.352606005e-38
0.1681219 0.081211433 0.74800003 1.36175256e-38
0.17000002 0.08142858 0.75000006 1.380083927e-38
0.18578286 0.08338286 0.76800001 9.833239228e-39
0.18773334 0.083600007 0.77000004 1.158923716e-38
0.19309714 0.08338286 0.76800001 1.315654185e-38
0.19455999 0.08338286 0.76800001 1.242005301e-38
0.19962859 0.08305715 0.76500005 1.11336456e-38
