# .PCD v0.7 - Point Cloud Data file format
VERSION 0.7
FIELDS x y z rgb
SIZE 4 4 4 4
TYPE F F F F
COUNT 1 1 1 1
WIDTH 972
HEIGHT 1
VIEWPOINT 0 0 0 1 0 0 0
POINTS 972
DATA ascii
0.16317713 0.052594285 0.708 1.380119239e-38
0.16587429 0.052594285 0.708 1.334453725e-38
0.16769525 0.052742861 0.71000004 1.334382679e-38
0.17040001 0.052742861 0.71000004 1.389448944e-38
0.17580953 0.052742861 0.71000004 1.435618226e-38
0.1771619 0.052742861 0.71000004 1.444803457e-38
0.18632001 0.053040005 0.71400005 1.398958716e-38
0.44304001 0.06329143 0.85200006 1.362763177e-38
0.1434 0.05462857 0.71700001 1.445416104e-38
0.1447657 0.05462857 0.71700001 1.399317309e-38
0.14824 0.054400001 0.71400005 1.288248571e-38
0.14939049 0.054323815 0.71300006 1.297431279e-38
0.15687619 0.054095242 0.71000004 1.370901078e-38
0.16228572 0.054095242 0.71000004 1.371078342e-38
0.1636381 0.054095242 0.71000004 1.371006315e-38
0.16634285 0.054095242 0.71000004 1.297467433e-38
0.16769525 0.054095242 0.71000004 1.31580006e-38
0.16904764 0.054095242 0.71000004 1.33416758e-38
0.17040001 0.054095242 0.71000004 1.398488581e-38
0.17175239 0.054095242 0.71000004 1.47209991e-38
0.17445715 0.054095242 0.71000004 1.426254189e-38
0.17741144 0.054171428 0.71100003 1.453949732e-38
0.18062669 0.054323815 0.71300006 1.444909815e-38
0.18198477 0.054323815 0.71300006 1.481679467e-38
0.18360001 0.054400001 0.71400005 1.527633929e-38
0.18820572 0.054552384 0.71600002 1.398920741e-38
0.18956953 0.054552384 0.71600002 1.398810879e-38
0.43573335 0.065523811 0.86000001 1.335284275e-38
0.44022858 0.065219052 0.85600007 1.335142183e-38
0.442 0.064761907 0.85000002 1.334996868e-38
0.1418362 0.05591619 0.71600002 1.445345339e-38
0.1432 0.05591619 0.71600002 1.390097325e-38
0.14592762 0.05591619 0.71600002 1.288465211e-38
0.15032572 0.055525716 0.71100003 1.315833691e-38
0.15146667 0.055447619 0.71000004 1.361681094e-38
0.15281905 0.055447619 0.71000004 1.3987041e-38
0.15417144 0.055447619 0.71000004 1.398562569e-38
0.15552381 0.055447619 0.71000004 1.398489562e-38
0.15687619 0.055447619 0.71000004 1.4168554e-38
0.15822859 0.055447619 0.71000004 1.426037688e-38
0.15958096 0.055447619 0.71000004 1.389266495e-38
0.16228572 0.055447619 0.71000004 1.352710682e-38
0.1636381 0.055447619 0.71000004 1.361965137e-38
0.16452572 0.055291429 0.708 1.352637394e-38
0.16904764 0.055447619 0.71000004 1.33395206e-38
0.17175239 0.055447619 0.71000004 1.426146289e-38
0.17310476 0.055447619 0.71000004 1.416998332e-38
0.18198477 0.055681907 0.71300006 1.463275233e-38
0.18360001 0.055760004 0.71400005 1.490862175e-38
0.19093335 0.05591619 0.71600002 1.297900294e-38
0.19229715 0.05591619 0.71600002 1.215029885e-38
0.43409526 0.06716191 0.86000001 1.335069876e-38
0.43472001 0.067005716 0.85800004 1.325850733e-38
0.43919998 0.066693336 0.85400003 1.298084985e-38
0.44096002 0.066224761 0.84800005 1.298011137e-38
0.13365333 0.05728 0.71600002 1.548553773e-38
0.13600001 0.057120007 0.71400005 1.611908439e-38
0.13910858 0.05728 0.71600002 1.426940124e-38
0.14047238 0.05728 0.71600002 1.353364108e-38
0.1418362 0.05728 0.71600002 1.344108952e-38
0.14456381 0.05728 0.71600002 1.279103417e-38
0.14824 0.057120007 0.71400005 1.325018362e-38
0.14939049 0.057040006 0.71300006 1.325016821e-38
0.1501143 0.056800004 0.71000004 1.334165478e-38
0.15146667 0.056800004 0.71000004 1.380084347e-38
0.15417144 0.056800004 0.71000004 1.426075803e-38
0.15687619 0.056800004 0.71000004 1.453732531e-38
0.15822859 0.056800004 0.71000004 1.490394002e-38
0.15958096 0.056800004 0.71000004 1.407705341e-38
0.1636381 0.056800004 0.71000004 1.352674949e-38
0.16587429 0.056639999 0.708 1.398342425e-38
0.17310476 0.056800004 0.71000004 1.398880664e-38
0.17580953 0.056800004 0.71000004 1.463061395e-38
0.1771619 0.056800004 0.71000004 1.518197585e-38
0.17851429 0.056800004 0.71000004 1.481498419e-38
0.18147428 0.056880001 0.71100003 1.444800234e-38
0.18334286 0.057040006 0.71300006 1.45394819e-38
0.18496001 0.057120007 0.71400005 1.444765061e-38
0.18820572 0.05728 0.71600002 1.408066596e-38
0.19093335 0.05728 0.71600002 1.399134019e-38
0.19229715 0.05728 0.71600002 1.426467606e-38
0.19366096 0.05728 0.71600002 1.095284167e-38
0.42981714 0.068640009 0.85800004 1.353472148e-38
0.43145144 0.068640009 0.85800004 1.344324752e-38
0.4337067 0.068480007 0.85600007 1.31663075e-38
0.43594667 0.068319999 0.85400003 1.270497622e-38
0.43757334 0.068319999 0.85400003 1.25209437e-38
0.44100955 0.067600004 0.84500003 1.252091707e-38
0.13736001 0.058480002 0.71400005 1.454598113e-38
0.14047238 0.05864381 0.71600002 1.316375153e-38
0.14144 0.058480002 0.71400005 1.325345285e-38
0.14456381 0.05864381 0.71600002 1.3065833e-38
0.14688002 0.058480002 0.71400005 1.297397228e-38
0.14876191 0.058152385 0.71000004 1.343456787e-38
0.1501143 0.058152385 0.71000004 1.361896194e-38
0.15146667 0.058152385 0.71000004 1.416926445e-38
0.15281905 0.058152385 0.71000004 1.48117556e-38
0.15373714 0.057988573 0.708 1.453625051e-38
0.15687619 0.058152385 0.71000004 1.444404927e-38
0.15822859 0.058152385 0.71000004 1.462627973e-38
0.15958096 0.058152385 0.71000004 1.407597861e-38
0.16047999 0.057988573 0.708 1.361787873e-38
0.16182856 0.057988573 0.708 1.352532717e-38
0.16317713 0.057988573 0.708 1.35246055e-38
0.16452572 0.057988573 0.708 1.352388524e-38
0.16587429 0.057988573 0.708 1.352317618e-38
0.16904764 0.058152385 0.71000004 1.333772554e-38
0.17445715 0.058152385 0.71000004 1.389518869e-38
0.17851429 0.058152385 0.71000004 1.453804417e-38
0.17986669 0.058152385 0.71000004 1.435401305e-38
0.18147428 0.058234289 0.71100003 1.444728207e-38
0.18768001 0.058480002 0.71400005 1.407994009e-38
0.18956953 0.05864381 0.71600002 1.380515246e-38
0.19093335 0.05864381 0.71600002 1.380658879e-38
0.19502476 0.05864381 0.71600002 1.058836954e-38
0.42881528 0.070110478 0.85600007 1.335105329e-38
0.43044576 0.070110478 0.85600007 1.325957512e-38
0.43269333 0.069946669 0.85400003 1.298227357e-38
0.43330288 0.069782861 0.85200006 1.288900034e-38
0.43552381 0.069619045 0.85000002 1.252021642e-38
0.43940002 0.069209531 0.84500003 1.24315955e-38
0.13774477 0.060007621 0.71600002 1.417431473e-38
0.14008002 0.059840005 0.71400005 1.288501785e-38
0.14144 0.059840005 0.71400005 1.306761965e-38
0.1428 0.059840005 0.71400005 1.325092911e-38
0.14667429 0.059756193 0.71300006 1.334024227e-38
0.1501143 0.059504766 0.71000004 1.398667807e-38
0.15281905 0.059504766 0.71000004 1.527130022e-38
0.15552381 0.059504766 0.71000004 1.435186205e-38
0.15913142 0.059337143 0.708 1.416674212e-38
0.16047999 0.059337143 0.708 1.398235366e-38
0.16317713 0.059337143 0.708 1.352317338e-38
0.16587429 0.059337143 0.708 1.315619573e-38
0.16722286 0.059337143 0.708 1.32476809e-38
0.16857143 0.059337143 0.708 1.33395178e-38
0.16992 0.059337143 0.708 1.343171343e-38
0.17126857 0.059337143 0.708 1.361896053e-38
0.17396571 0.059337143 0.708 1.37104443e-38
0.18282858 0.05958857 0.71100003 1.453876304e-38
0.18470097 0.059756193 0.71300006 1.444692474e-38
0.18768001 0.059840005 0.71400005 1.407958836e-38
0.18956953 0.060007621 0.71600002 1.380479934e-38
0.19366096 0.060007621 0.71600002 1.34403174e-38
0.4249143 0.071908578 0.85800004 1.362654016e-38
0.42718479 0.071740955 0.85600007 1.335141062e-38
0.42881528 0.071740955 0.85600007 1.316666063e-38
0.42944002 0.071573332 0.85400003 1.298227077e-38
0.43106669 0.071573332 0.85400003 1.289043107e-38
0.43228573 0.071238101 0.85000002 1.279607744e-38
0.43288383 0.071070485 0.84800005 1.261168478e-38
0.43449908 0.071070485 0.84800005 1.251877028e-38
0.43611428 0.071070485 0.84800005 1.233402029e-38
0.43779048 0.07081905 0.84500003 1.215285762e-38
0.14124192 0.061114289 0.71300006 1.334347647e-38
0.14395811 0.061114289 0.71300006 1.343351129e-38
0.14626285 0.060942858 0.71100003 1.334311633e-38
0.14740953 0.060857143 0.71000004 1.316016281e-38
0.14969142 0.060685717 0.708 1.408067997e-38
0.15103999 0.060685717 0.708 1.444803176e-38
0.15643428 0.060685717 0.708 1.453625752e-38
0.16047999 0.060685717 0.708 1.39816404e-38
0.16452572 0.060685717 0.708 1.30618435e-38
0.16587429 0.060685717 0.708 1.269486866e-38
0.16857143 0.060685717 0.708 1.32476809e-38
0.17175239 0.060857143 0.71000004 1.343529234e-38
0.17261714 0.060685717 0.708 1.352640757e-38
0.17445715 0.060857143 0.71000004 1.370937091e-38
0.17580953 0.060857143 0.71000004 1.40767227e-38
0.17851429 0.060857143 0.71000004 1.435365571e-38
0.17986669 0.060857143 0.71000004 1.426290062e-38
0.18632001 0.0612 0.71400005 1.435473471e-38
0.19093335 0.061371431 0.71600002 1.362077522e-38
0.19229715 0.061371431 0.71600002 1.343709722e-38
0.42456001 0.073200002 0.85400003 1.325670246e-38
0.42843431 0.073028579 0.85200006 1.270496641e-38
0.43288383 0.072685719 0.84800005 1.251840174e-38
0.43449908 0.072685719 0.84800005 1.242513131e-38
0.43618098 0.072428577 0.84500003 1.187447567e-38
0.43779048 0.072428577 0.84500003 1.196630976e-38
0.43836001 0.072257146 0.84300005 1.215034089e-38
0.43996572 0.072257146 0.84300005 1.205778933e-38
0.11035048 0.061158098 0.69800001 1.021241798e-38
0.11333334 0.061333336 0.70000005 1.0670878e-38
0.13056001 0.06256 0.71400005 1.500912568e-38
0.13192001 0.06256 0.71400005 1.454420708e-38
0.13328001 0.06256 0.71400005 1.426331821e-38
0.13716763 0.062472388 0.71300006 1.371188764e-38
0.14084572 0.062297143 0.71100003 1.371117859e-38
0.14470476 0.062209532 0.71000004 1.370974085e-38
0.14605716 0.062209532 0.71000004 1.334311914e-38
0.15373714 0.062034287 0.708 1.444693175e-38
0.15913142 0.062034287 0.708 1.444369054e-38
0.16182856 0.062034287 0.708 1.370182912e-38
0.16452572 0.062034287 0.708 1.287851302e-38
0.16587429 0.062034287 0.708 1.232751266e-38
0.16904764 0.062209532 0.71000004 1.315404474e-38
0.17040001 0.062209532 0.71000004 1.315799079e-38
0.17580953 0.062209532 0.71000004 1.407565772e-38
0.1771619 0.062209532 0.71000004 1.453518552e-38
0.18121906 0.062209532 0.71000004 1.472137745e-38
0.18282858 0.062297143 0.71100003 1.518090666e-38
0.18470097 0.062472388 0.71300006 1.472243823e-38
0.18632001 0.06256 0.71400005 1.435438999e-38
0.19093335 0.062735237 0.71600002 1.371261492e-38
0.19229715 0.062735237 0.71600002 1.362077381e-38
0.19529714 0.062822863 0.71700001 1.334742112e-38
0.19721143 0.062998094 0.71900004 1.343997969e-38
0.42130667 0.074826665 0.85400003 1.325454306e-38
0.42194289 0.074651428 0.85200006 1.30712294e-38
0.42356572 0.074651428 0.85200006 1.29793925e-38
0.42580953 0.074476197 0.85000002 1.242837672e-38
0.42642286 0.07430096 0.84800005 1.242837392e-38
0.42813334 0.074038103 0.84500003 1.252055974e-38
0.42872572 0.073862866 0.84300005 1.260951977e-38
0.43033144 0.073862866 0.84300005 1.251552628e-38
0.43675432 0.073862866 0.84300005 1.178263036e-38
0.43787813 0.073512383 0.83900005 1.205778092e-38
0.44157144 0.073862866 0.84300005 1.205777812e-38
0.11333334 0.062666669 0.70000005 1.399634983e-38
0.11466667 0.062666669 0.70000005 1.409138729e-38
0.12982857 0.063561909 0.71000004 1.425577362e-38
0.13309334 0.06383048 0.71300006 1.389522092e-38
0.13407429 0.063651428 0.71100003 1.371154853e-38
0.13542858 0.063651428 0.71100003 1.361971163e-38
0.13813715 0.063651428 0.71100003 1.371150929e-38
0.14969142 0.063382857 0.708 1.426290342e-38
0.15103999 0.063382857 0.708 1.444693034e-38
0.15238857 0.063382857 0.708 1.463096147e-38
0.15373714 0.063382857 0.708 1.444585695e-38
0.15643428 0.063382857 0.708 1.444372978e-38
0.15913142 0.063382857 0.708 1.416747079e-38
0.16317713 0.063382857 0.708 1.333590105e-38
0.16722286 0.063382857 0.708 1.30618407e-38
0.16904764 0.063561909 0.71000004 1.351994479e-38
0.17040001 0.063561909 0.71000004 1.333950659e-38
0.17986669 0.063561909 0.71000004 1.416928688e-38
0.18121906 0.063561909 0.71000004 1.444444864e-38
0.18282858 0.063651428 0.71100003 1.481142349e-38
0.18768001 0.063920006 0.71400005 1.407891293e-38
0.18956953 0.064099051 0.71600002 1.398670469e-38
0.19256571 0.06418857 0.71700001 1.371297365e-38
0.19393143 0.06418857 0.71700001 1.352965718e-38
0.4111619 0.076990478 0.86000001 1.316380058e-38
0.41279998 0.076990478 0.86000001 1.30737153e-38
0.41607618 0.076990478 0.86000001 1.289149746e-38
0.41674286 0.076811425 0.85800004 1.28907842e-38
0.41837716 0.076811425 0.85800004 1.298190783e-38
0.42419049 0.076095238 0.85000002 1.242765365e-38
0.4265238 0.075647615 0.84500003 1.233545102e-38
0.42712003 0.075468577 0.84300005 1.233437342e-38
0.4351486 0.075468577 0.84300005 1.168971727e-38
0.43468192 0.07511048 0.83900005 1.178118703e-38
0.43628001 0.07511048 0.83900005 1.196485942e-38
0.43787813 0.07511048 0.83900005 1.196378602e-38
0.11800382 0.064365722 0.70400006 1.703920639e-38
0.11951429 0.064457148 0.70500004 1.722145086e-38
0.12220001 0.064457148 0.70500004 1.537754667e-38
0.12354286 0.064457148 0.70500004 1.472893325e-38
0.12676571 0.064731427 0.708 1.361829212e-38
0.13388571 0.064914286 0.71000004 1.343568191e-38
0.13485715 0.064731427 0.708 1.35275188e-38
0.13620572 0.064731427 0.708 1.362041929e-38
0.14160001 0.064731427 0.708 1.417036027e-38
0.14335239 0.064914286 0.71000004 1.398632354e-38
0.14429714 0.064731427 0.708 1.389377618e-38
0.14969142 0.064731427 0.708 1.435438159e-38
0.15103999 0.064731427 0.708 1.453733231e-38
0.15217333 0.06464 0.70700002 1.472063757e-38
0.15373714 0.064731427 0.708 1.453660224e-38
0.15508571 0.064731427 0.708 1.435186485e-38
0.15778285 0.064731427 0.708 1.41674764e-38
0.16182856 0.064731427 0.708 1.352066225e-38
0.16634285 0.064914286 0.71000004 1.315365798e-38
0.16904764 0.064914286 0.71000004 1.388836016e-38
0.17040001 0.064914286 0.71000004 1.352102238e-38
0.17175239 0.064914286 0.71000004 1.31547622e-38
0.17310476 0.064914286 0.71000004 1.3155844e-38
0.17445715 0.064914286 0.71000004 1.315585521e-38
0.1771619 0.064914286 0.71000004 1.379870229e-38
0.18605906 0.065188579 0.71300006 1.426182582e-38
0.18768001 0.065280005 0.71400005 1.417144067e-38
0.18904002 0.065280005 0.71400005 1.407960097e-38
0.19093335 0.065462857 0.71600002 1.389592718e-38
0.19256571 0.065554284 0.71700001 1.380408888e-38
0.19393143 0.065554284 0.71700001 1.362041508e-38
0.19529714 0.065554284 0.71700001 1.34367497e-38
0.19721143 0.065737143 0.71900004 1.316125021e-38
0.19858097 0.065737143 0.71900004 1.297792394e-38
0.19995049 0.065737143 0.71900004 1.28867919e-38
0.20132001 0.065737143 0.71900004 1.279497181e-38
0.35858288 0.077531435 0.84800005 1.049621735e-38
0.39597717 0.077897146 0.85200006 1.437387645e-38
0.39760002 0.077897146 0.85200006 1.354590524e-38
0.40530288 0.078445718 0.85800004 1.261638894e-38
0.4078857 0.07862857 0.86000001 1.233944191e-38
0.4111619 0.07862857 0.86000001 1.224722667e-38
0.41740194 0.078262866 0.85600007 1.289006253e-38
0.41805336 0.078079998 0.85400003 1.270566987e-38
0.42257145 0.077714294 0.85000002 1.224397425e-38
0.42480764 0.077531435 0.84800005 1.224325398e-38
0.4265238 0.077257141 0.84500003 1.224217078e-38
0.42712003 0.077074297 0.84300005 1.224145191e-38
0.43193716 0.077074297 0.84300005 1.223857925e-38
0.43251431 0.07689143 0.84100002 1.196307417e-38
0.43411621 0.07689143 0.84100002 1.17797591e-38
0.43579048 0.076342858 0.83500004 1.187158899e-38
0.11248 0.065613329 0.70300001 1.621523168e-38
0.11381905 0.065613329 0.70300001 1.593756439e-38
0.1151581 0.065613329 0.70300001 1.566025723e-38
0.11800382 0.06570667 0.70400006 1.556481339e-38
0.12085715 0.065800004 0.70500004 1.519102543e-38
0.12336763 0.06570667 0.70400006 1.444868337e-38
0.12470859 0.06570667 0.70400006 1.425643503e-38
0.12928 0.065986671 0.70700002 1.380338823e-38
0.13332 0.065986671 0.70700002 1.288574513e-38
0.13601334 0.065986671 0.70700002 1.352931247e-38
0.13890286 0.066080004 0.708 1.380446443e-38
0.14025143 0.066080004 0.708 1.398814383e-38
0.14544 0.065986671 0.70700002 1.389450626e-38
0.14678667 0.065986671 0.70700002 1.426183984e-38
0.15082668 0.065986671 0.70700002 1.435366272e-38
0.15643428 0.066080004 0.708 1.39837998e-38
0.16047999 0.066080004 0.708 1.361500607e-38
0.17445715 0.066266671 0.71000004 1.288034172e-38
0.17580953 0.066266671 0.71000004 1.315585241e-38
0.17986669 0.066266671 0.71000004 1.398128587e-38
0.18257144 0.066266671 0.71000004 1.426073001e-38
0.18768001 0.066640005 0.71400005 1.398738712e-38
0.19256571 0.066919997 0.71700001 1.398668087e-38
0.19393143 0.066919997 0.71700001 1.361898015e-38
0.20022857 0.067200005 0.72000003 1.279529972e-38
0.2016 0.067200005 0.72000003 1.297898332e-38
0.20297144 0.067200005 0.72000003 1.288716044e-38
0.31024 0.07756 0.83100003 1.040074829e-38
0.31182286 0.07756 0.83100003 1.021672837e-38
0.3553524 0.079146668 0.84800005 1.07735175e-38
0.35696763 0.079146668 0.84800005 1.095790316e-38
0.35892382 0.078866668 0.84500003 1.095574656e-38
0.35968003 0.078680001 0.84300005 1.123160898e-38
0.36504382 0.079146668 0.84800005 1.159752444e-38
0.36988956 0.079146668 0.84800005 1.141818486e-38
0.37400001 0.079333335 0.85000002 1.142035547e-38
0.37561905 0.079333335 0.85000002 1.14214639e-38
0.39876571 0.080080003 0.85800004 1.326822113e-38
0.40366858 0.080080003 0.85800004 1.270565866e-38
0.40530288 0.080080003 0.85800004 1.261453222e-38
0.40693715 0.080080003 0.85800004 1.252341979e-38
0.41020575 0.080080003 0.85800004 1.234120194e-38
0.41279998 0.080266662 0.86000001 1.252165696e-38
0.41414097 0.079893343 0.85600007 1.270532515e-38
0.41707432 0.079520002 0.85200006 1.27027902e-38
0.42095238 0.079333335 0.85000002 1.215141428e-38
0.42157719 0.079146668 0.84800005 1.168972568e-38
0.42319238 0.079146668 0.84800005 1.18737554e-38
0.42330477 0.078866668 0.84500003 1.205813965e-38
0.42491427 0.078866668 0.84500003 1.224180784e-38
0.42551431 0.078680001 0.84300005 1.242224604e-38
0.43091238 0.078493334 0.84100002 1.186800727e-38
0.43148574 0.078306675 0.83900005 1.177652911e-38
0.43524 0.078120001 0.83700001 1.168756067e-38
0.11216 0.066761911 0.70100003 1.546722136e-38
0.11483048 0.066761911 0.70100003 1.426833345e-38
0.11649714 0.066952385 0.70300001 1.408214713e-38
0.11917524 0.066952385 0.70300001 1.407891574e-38
0.12185333 0.066952385 0.70300001 1.407744157e-38
0.12319238 0.066952385 0.70300001 1.426035586e-38
0.12873144 0.067047626 0.70400006 1.417036027e-38
0.13294287 0.067142867 0.70500004 1.242585438e-38
0.13428573 0.067142867 0.70500004 1.297794916e-38
0.13562857 0.067142867 0.70500004 1.352931527e-38
0.13965715 0.067142867 0.70500004 1.389701458e-38
0.14502858 0.067142867 0.70500004 1.380268478e-38
0.15217333 0.067333341 0.70700002 1.426108033e-38
0.15373714 0.067428574 0.708 1.407847012e-38
0.15508571 0.067428574 0.708 1.398413471e-38
0.15778285 0.067428574 0.708 1.370792057e-38
0.16047999 0.067428574 0.708 1.343312313e-38
0.16228572 0.067619048 0.71000004 1.31583257e-38
0.1636381 0.067619048 0.71000004 1.297285264e-38
0.16499048 0.067619048 0.71000004 1.278809564e-38
0.16769525 0.067619048 0.71000004 1.260301494e-38
0.17040001 0.067619048 0.71000004 1.260194996e-38
0.17310476 0.067619048 0.71000004 1.26033975e-38
0.18121906 0.067619048 0.71000004 1.398452427e-38
0.18282858 0.067714289 0.71100003 1.407706322e-38
0.18605906 0.067904763 0.71300006 1.389446422e-38
0.18741715 0.067904763 0.71300006 1.380371613e-38
0.18904002 0.068000004 0.71400005 1.371116317e-38
0.19093335 0.06819047 0.71600002 1.38941167e-38
0.19256571 0.068285711 0.71700001 1.416926586e-38
0.19721143 0.068476193 0.71900004 1.270276778e-38
0.20022857 0.068571426 0.72000003 1.270347543e-38
0.2016 0.068571426 0.72000003 1.316229838e-38
0.20297144 0.068571426 0.72000003 1.307046849e-38
0.20434287 0.068571426 0.72000003 1.297827567e-38
0.22148572 0.07238096 0.76000005 1.270241325e-38
0.22674668 0.073619053 0.77300006 1.270240904e-38
0.22939429 0.073523812 0.77200001 1.260877288e-38
0.23263621 0.073619053 0.77300006 1.261093648e-38
0.31032193 0.078761905 0.82700002 1.058552771e-38
0.31189713 0.078761905 0.82700002 1.067773735e-38
0.33949527 0.078952387 0.82900006 1.160181522e-38
0.34354287 0.079523809 0.83500004 1.178512467e-38
0.35158098 0.079904765 0.83900005 1.132452488e-38
0.35402095 0.080095239 0.84100002 1.159967263e-38
0.35722476 0.080095239 0.84100002 1.141528558e-38
0.35797334 0.079904765 0.83900005 1.150711967e-38
0.36042857 0.080095239 0.84100002 1.168792361e-38
0.36289144 0.080285713 0.84300005 1.168756768e-38
0.3653619 0.080476187 0.84500003 1.177797665e-38
0.36858097 0.080476187 0.84500003 1.15017555e-38
0.37796572 0.080761909 0.84800005 1.086073572e-38
0.39435431 0.081142858 0.85200006 1.178518773e-38
0.39690667 0.081333332 0.85400003 1.215252972e-38
0.39760002 0.081142858 0.85200006 1.261062119e-38
0.40272766 0.081523813 0.85600007 1.251948214e-38
0.4059886 0.081523813 0.85600007 1.270493699e-38
0.40952381 0.081904761 0.86000001 1.261166796e-38
0.41020575 0.081714287 0.85800004 1.251983947e-38
0.41251051 0.081523813 0.85600007 1.251841015e-38
0.41414097 0.081523813 0.85600007 1.233366156e-38
0.41480002 0.081333332 0.85400003 1.224181905e-38
0.41545147 0.081142858 0.85200006 1.242548304e-38
0.41933334 0.080952384 0.85000002 1.233399927e-38
0.42390859 0.080285713 0.84300005 1.233255453e-38
0.42610669 0.080095239 0.84100002 1.223677158e-38
0.42988762 0.079904765 0.83900005 1.159321265e-38
0.43148574 0.079904765 0.83900005 1.159249658e-38
0.43205142 0.079714291 0.83700001 1.159357278e-38
0.43364573 0.079714291 0.83700001 1.159429024e-38
0.43683428 0.079714291 0.83700001 1.159428324e-38
0.11483048 0.068097152 0.70100003 1.408139323e-38
0.11783619 0.068291426 0.70300001 1.407924364e-38
0.11917524 0.068291426 0.70300001 1.416928267e-38
0.12051429 0.068291426 0.70300001 1.389413351e-38
0.12453143 0.068291426 0.70300001 1.45383945e-38
0.12587048 0.068291426 0.70300001 1.481463386e-38
0.12873144 0.068388574 0.70400006 1.463060274e-38
0.13007239 0.068388574 0.70400006 1.417035747e-38
0.14813334 0.068679996 0.70700002 1.444585835e-38
0.15373714 0.068777144 0.708 1.407630231e-38
0.1636381 0.068971433 0.71000004 1.279025224e-38
0.16634285 0.068971433 0.71000004 1.269089317e-38
0.16793142 0.069068573 0.71100003 1.259907309e-38
0.17310476 0.068971433 0.71000004 1.241757551e-38
0.1771619 0.068971433 0.71000004 1.297254576e-38
0.18121906 0.068971433 0.71000004 1.361681935e-38
0.18282858 0.069068573 0.71100003 1.371008277e-38
0.18741715 0.069262862 0.71300006 1.352677612e-38
0.18904002 0.069360003 0.71400005 1.343457628e-38
0.19256571 0.069651432 0.71700001 1.361645081e-38
0.19393143 0.069651432 0.71700001 1.334238345e-38
0.19529714 0.069651432 0.71700001 1.316014319e-38
0.19721143 0.069845721 0.71900004 1.288499263e-38
0.19858097 0.069845721 0.71900004 1.270168597e-38
0.20022857 0.069942862 0.72000003 1.306903497e-38
0.2016 0.069942862 0.72000003 1.334453865e-38
0.21424764 0.073828578 0.76000005 1.325305908e-38
0.21512762 0.073634289 0.75800002 1.325341782e-38
0.2185905 0.073828578 0.76000005 1.352856978e-38
0.22352572 0.07450857 0.76700002 1.297827286e-38
0.22528 0.074605711 0.76800001 1.288607443e-38
0.2288 0.0748 0.77000004 1.260984768e-38
0.23086476 0.074994288 0.77200001 1.242724027e-38
0.23233524 0.074994288 0.77200001 1.261090005e-38
0.30014288 0.080142856 0.82500005 1.031179807e-38
0.3017143 0.080142856 0.82500005 1.058803183e-38
0.30402097 0.080337144 0.82700002 1.077242029e-38
0.30717143 0.080337144 0.82700002 1.086282506e-38
0.31032193 0.080337144 0.82700002 1.104616254e-38
0.31189713 0.080337144 0.82700002 1.132133272e-38
0.31347236 0.080337144 0.82700002 1.159682099e-38
0.33320001 0.080920003 0.83300006 1.14167107e-38
0.33478668 0.080920003 0.83300006 1.141634216e-38
0.33796003 0.080920003 0.83300006 1.141705682e-38
0.34354287 0.081114292 0.83500004 1.178368694e-38
0.34513333 0.081114292 0.83500004 1.224215396e-38
0.34589335 0.080920003 0.83300006 1.178298349e-38
0.34831429 0.081114292 0.83500004 1.132236828e-38
0.34990478 0.081114292 0.83500004 1.15971559e-38
0.35233715 0.081308573 0.83700001 1.196414336e-38
0.35712001 0.081308573 0.83700001 1.150461415e-38
0.35871428 0.081308573 0.83700001 1.150425542e-38
0.36523429 0.081697144 0.84100002 1.150246175e-38
0.36683619 0.081697144 0.84100002 1.141026612e-38
0.37340954 0.082085714 0.84500003 1.131983333e-38
0.39019048 0.082571432 0.85000002 1.177293478e-38
0.39342856 0.082571432 0.85000002 1.159538045e-38
0.40924954 0.083154291 0.85600007 1.224037712e-38
0.41317335 0.082960002 0.85400003 1.224145051e-38
0.41382858 0.082765721 0.85200006 1.214817588e-38
0.41545147 0.082765721 0.85200006 1.224216097e-38
0.4183467 0.082377143 0.84800005 1.214780734e-38
0.41996193 0.082377143 0.84800005 1.178081989e-38
0.42610669 0.081697144 0.84100002 1.186906385e-38
0.4277086 0.081697144 0.84100002 1.159212664e-38
0.42726859 0.081308573 0.83700001 1.150101281e-38
0.42988762 0.081502862 0.83900005 1.141025491e-38
0.43148574 0.081502862 0.83900005 1.131806349e-38
0.43260953 0.081114292 0.83500004 1.140989758e-38
0.43420002 0.081114292 0.83500004 1.140989478e-38
0.097398102 0.068441913 0.69100004 1.583489826e-38
0.098714292 0.068441913 0.69100004 1.638663711e-38
0.11333334 0.069333337 0.70000005 1.407708284e-38
0.11483048 0.069432385 0.70100003 1.398632634e-38
0.11917524 0.069630474 0.70300001 1.43543984e-38
0.12587048 0.069630474 0.70300001 1.518232477e-38
0.12720953 0.069630474 0.70300001 1.564185538e-38
0.13122666 0.069630474 0.70300001 1.426255029e-38
0.1327543 0.069729529 0.70400006 1.407924364e-38
0.13543619 0.069729529 0.70400006 1.398812561e-38
0.13677715 0.069729529 0.70400006 1.38973607e-38
0.14234287 0.069828577 0.70500004 1.43557955e-38
0.14348191 0.069729529 0.70400006 1.407959677e-38
0.14482287 0.069729529 0.70400006 1.453951694e-38
0.14637142 0.069828577 0.70500004 1.49976e-38
0.14771429 0.069828577 0.70500004 1.47209991e-38
0.15082668 0.070026666 0.70700002 1.435184384e-38
0.15217333 0.070026666 0.70700002 1.425963559e-38
0.15352 0.070026666 0.70700002 1.407487439e-38
0.15913142 0.070125714 0.708 1.297359813e-38
0.1636381 0.07032381 0.71000004 1.260659386e-38
0.16499048 0.07032381 0.71000004 1.269591543e-38
0.16928571 0.070422858 0.71100003 1.25980039e-38
0.1719943 0.070422858 0.71100003 1.223317585e-38
0.17334858 0.070422858 0.71100003 1.232608754e-38
0.17470285 0.070422858 0.71100003 1.241793425e-38
0.17741144 0.070422858 0.71100003 1.287855366e-38
0.18768001 0.070720002 0.71400005 1.325018502e-38
0.18904002 0.070720002 0.71400005 1.325017942e-38
0.19939429 0.071017146 0.71700001 1.334381558e-38
0.20076001 0.071017146 0.71700001 1.36196794e-38
0.21657144 0.075078093 0.75800002 1.389481034e-38
0.2185905 0.075276196 0.76000005 1.426252787e-38
0.22820571 0.076068573 0.76800001 1.270132864e-38
0.23173334 0.076266669 0.77000004 1.261091406e-38
0.23380572 0.076464765 0.77200001 1.288642616e-38
0.23914286 0.076761909 0.77500004 1.306938529e-38
0.24271999 0.076959997 0.77700001 1.288500524e-38
0.24420001 0.076959997 0.77700001 1.288501085e-38
0.24567999 0.076959997 0.77700001 1.325235984e-38
0.24716 0.076959997 0.77700001 1.36196822e-38
0.2978476 0.081516191 0.82300001 1.095609128e-38
0.30098286 0.081516191 0.82300001 1.11408735e-38
0.30328572 0.081714287 0.82500005 1.141601145e-38
0.30642861 0.081714287 0.82500005 1.141456391e-38
0.30957144 0.081714287 0.82500005 1.159716851e-38
0.31038859 0.081516191 0.82300001 1.196488184e-38
0.3119562 0.081516191 0.82300001 1.233077628e-38
0.32058096 0.081318095 0.82100004 1.159932231e-38
0.32765144 0.082308576 0.83100003 1.233329442e-38
0.33398286 0.082308576 0.83100003 1.123016144e-38
0.33556575 0.082308576 0.83100003 1.123015723e-38
0.34189713 0.082308576 0.83100003 1.187445045e-38
0.34348002 0.082308576 0.83100003 1.251730733e-38
0.34748003 0.082506672 0.83300006 1.159679997e-38
0.34906667 0.082506672 0.83300006 1.196341608e-38
0.35871428 0.082902864 0.83700001 1.131949842e-38
0.36116955 0.083100952 0.83900005 1.140990039e-38
0.36363238 0.083299048 0.84100002 1.159428884e-38
0.36596382 0.083100952 0.83900005 1.141097238e-38
0.36843809 0.083299048 0.84100002 1.16857586e-38
0.3716419 0.083299048 0.84100002 1.141203737e-38
0.37465715 0.082902864 0.83700001 1.122585805e-38
0.38927239 0.083992384 0.84800005 1.168575159e-38
0.39342856 0.08419048 0.85000002 1.150281488e-38
0.40178666 0.084586665 0.85400003 1.168936835e-38
0.40504003 0.084586665 0.85400003 1.168720474e-38
0.4066667 0.084586665 0.85400003 1.177903743e-38
0.40992001 0.084586665 0.85400003 1.196450209e-38
0.41220576 0.084388576 0.85200006 1.205741518e-38
0.41382858 0.084388576 0.85200006 1.214816888e-38
0.41447619 0.08419048 0.85000002 1.20588403e-38
0.41511622 0.083992384 0.84800005 1.196485381e-38
0.41673145 0.083992384 0.84800005 1.196306295e-38
0.41686669 0.08369524 0.84500003 1.205489285e-38
0.41847622 0.08369524 0.84500003 1.187157638e-38
0.42169526 0.08369524 0.84500003 1.168718232e-38
0.42450476 0.083299048 0.84100002 1.168466419e-38
0.42828953 0.083100952 0.83900005 1.131589988e-38
0.43148574 0.083100952 0.83900005 1.113547009e-38
0.43579048 0.082704768 0.83500004 1.122513918e-38
0.096081913 0.069758095 0.69100004 1.491581042e-38
0.097398102 0.069758095 0.69100004 1.518808411e-38
0.098714292 0.069758095 0.69100004 1.555220591e-38
0.11066667 0.070666671 0.70000005 1.36171921e-38
0.112 0.070666671 0.70000005 1.380085468e-38
0.11616572 0.070767626 0.70100003 1.40788807e-38
0.12017144 0.070767626 0.70100003 1.435442363e-38
0.12185333 0.070969522 0.70300001 1.417180921e-38
0.12319238 0.070969522 0.70300001 1.444693875e-38
0.12587048 0.070969522 0.70300001 1.499828664e-38
0.12720953 0.070969522 0.70300001 1.527449938e-38
0.12854856 0.070969522 0.70300001 1.490714619e-38
0.12988763 0.070969522 0.70300001 1.463165792e-38
0.13122666 0.070969522 0.70300001 1.435581091e-38
0.1327543 0.071070485 0.70400006 1.417214412e-38
0.13409525 0.071070485 0.70400006 1.407959537e-38
0.13543619 0.071070485 0.70400006 1.39881144e-38
0.1381181 0.071070485 0.70400006 1.380552381e-38
0.14214097 0.071070485 0.70400006 1.408029882e-38
0.14637142 0.071171433 0.70500004 1.444478075e-38
0.14948002 0.071373336 0.70700002 1.435292704e-38
0.15373714 0.071474291 0.708 1.398340604e-38
0.15778285 0.071474291 0.708 1.324623336e-38
0.16093335 0.071676195 0.71000004 1.306507349e-38
0.16228572 0.071676195 0.71000004 1.26988021e-38
0.1636381 0.071676195 0.71000004 1.223962322e-38
0.16657715 0.07177715 0.71100003 1.260051222e-38
0.16793142 0.07177715 0.71100003 1.241361825e-38
0.16928571 0.07177715 0.71100003 1.232070655e-38
0.1719943 0.07177715 0.71100003 1.204878318e-38
0.17605714 0.07177715 0.71100003 1.232610015e-38
0.17741144 0.07177715 0.71100003 1.250977114e-38
0.17876573 0.07177715 0.71100003 1.260232551e-38
0.17986669 0.071676195 0.71000004 1.278707129e-38
0.18121906 0.071676195 0.71000004 1.297325341e-38
0.18282858 0.07177715 0.71100003 1.315833691e-38
0.18605906 0.071979053 0.71300006 1.315725091e-38
0.1991162 0.072281905 0.71600002 1.343564407e-38
0.21368381 0.076521903 0.75800002 1.361931226e-38
0.21427621 0.076219052 0.75500005 1.343598459e-38
0.21571429 0.076219052 0.75500005 1.361964157e-38
0.21801524 0.076521903 0.75800002 1.389517888e-38
0.2200381 0.076723814 0.76000005 1.361970322e-38
0.22148572 0.076723814 0.76000005 1.334526452e-38
0.22322668 0.076824762 0.76100004 1.325306189e-38
0.22731429 0.077228576 0.76500005 1.288464511e-38
0.22936954 0.077430479 0.76700002 1.260805962e-38
0.23405714 0.077531427 0.76800001 1.307046429e-38
0.2399981 0.078036197 0.77300006 1.297898332e-38
0.24504763 0.078238092 0.77500004 1.306974682e-38
0.24947619 0.078238092 0.77500004 1.260946652e-38
0.25405714 0.078742854 0.78000003 1.251693178e-38
0.26416764 0.079550482 0.78800005 1.224185269e-38
0.29399621 0.082881905 0.82100004 1.132238089e-38
0.29857147 0.083285719 0.82500005 1.123161739e-38
0.29952002 0.082680009 0.81900007 1.141641502e-38
0.30882093 0.083083808 0.82300001 1.159536924e-38
0.3096343 0.082881905 0.82100004 1.178011924e-38
0.31509143 0.083083808 0.82300001 1.159609512e-38
0.31980002 0.082680009 0.81900007 1.150496167e-38
0.32449904 0.083487622 0.82700002 1.178012064e-38
0.32686287 0.083689533 0.82900006 1.205562292e-38
0.33552572 0.083487622 0.82700002 1.132020187e-38
0.34025145 0.083487622 0.82700002 1.141240731e-38
0.34265333 0.083689533 0.82900006 1.196271403e-38
0.34423241 0.083689533 0.82900006 1.168722015e-38
0.34581146 0.083689533 0.82900006 1.150389108e-38
0.3538267 0.08409334 0.83300006 1.141274782e-38
0.35785717 0.084295236 0.83500004 1.09496369e-38
0.36349714 0.084497139 0.83700001 1.150029254e-38
0.37075812 0.08469905 0.83900005 1.140917872e-38
0.37146857 0.084497139 0.83700001 1.113366802e-38
0.38467619 0.085304759 0.84500003 1.104217585e-38
0.38537145 0.085102864 0.84300005 1.150170505e-38
0.38789526 0.085304759 0.84500003 1.205415857e-38
0.4057143 0.086011432 0.85200006 1.141169125e-38
0.40896001 0.086011432 0.85200006 1.168611313e-38
0.40961906 0.085809529 0.85000002 1.177723536e-38
0.4112381 0.085809529 0.85000002 1.178011083e-38
0.41285715 0.085809529 0.85000002 1.178118002e-38
0.41364762 0.085304759 0.84500003 1.122765451e-38
0.41525716 0.085304759 0.84500003 1.141204998e-38
0.41847622 0.085304759 0.84500003 1.159570836e-38
0.42390859 0.085102864 0.84300005 1.140878075e-38
0.42610669 0.084900953 0.84100002 1.131660614e-38
0.42886284 0.084497139 0.83700001 1.10403976e-38
0.43205142 0.084497139 0.83700001 1.076704631e-38
0.43364573 0.084497139 0.83700001 1.085995099e-38
0.097257152 0.070971429 0.69000006 1.462487283e-38
0.10164 0.071280003 0.69300002 1.453914139e-38
0.10296 0.071280003 0.69300002 1.463168874e-38
0.10428 0.071280003 0.69300002 1.481463526e-38
0.10560001 0.071280003 0.69300002 1.454019937e-38
0.10769143 0.071794286 0.69800001 1.435617245e-38
0.10902095 0.071794286 0.69800001 1.398883467e-38
0.112 0.072000004 0.70000005 1.380299306e-38
0.11333334 0.072000004 0.70000005 1.407814923e-38
0.11600001 0.072000004 0.70000005 1.435366833e-38
0.11866667 0.072000004 0.70000005 1.462954476e-38
0.12 0.072000004 0.70000005 1.481358009e-38
0.12150668 0.07210286 0.70100003 1.50894327e-38
0.12551239 0.07210286 0.70100003 1.481426392e-38
0.12854856 0.072308578 0.70300001 1.481461284e-38
0.13122666 0.072308578 0.70300001 1.453986306e-38
0.13543619 0.072411433 0.70400006 1.398738993e-38
0.13677715 0.072411433 0.70400006 1.38951943e-38
0.1381181 0.072411433 0.70400006 1.38044378e-38
0.13945906 0.072411433 0.70400006 1.38973523e-38
0.14348191 0.072411433 0.70400006 1.389555723e-38
0.14616382 0.072411433 0.70400006 1.398667667e-38
0.14750476 0.072411433 0.70400006 1.407814642e-38
0.14905715 0.072514288 0.70500004 1.416925885e-38
0.15352 0.072719999 0.70700002 1.389338662e-38
0.15643428 0.072822854 0.708 1.370756884e-38
0.16093335 0.073028579 0.71000004 1.306579937e-38
0.16657715 0.073131427 0.71100003 1.241899643e-38
0.17064001 0.073131427 0.71100003 1.204807973e-38
0.17334858 0.073131427 0.71100003 1.186582405e-38
0.17605714 0.073131427 0.71100003 1.205058385e-38
0.18012001 0.073131427 0.71100003 1.241937058e-38
0.18877526 0.073337145 0.71300006 1.297396247e-38
0.19093335 0.073645718 0.71600002 1.260697782e-38
0.19229715 0.073645718 0.71600002 1.22382037e-38
0.19666286 0.073748574 0.71700001 1.306471056e-38
0.21571429 0.077657148 0.75500005 1.343598739e-38
0.21945906 0.077965714 0.75800002 1.343602522e-38
0.22148572 0.078171432 0.76000005 1.343637835e-38
0.22293335 0.078171432 0.76000005 1.343637275e-38
0.22612572 0.078274287 0.76100004 1.315978866e-38
0.22757524 0.078274287 0.76100004 1.297684214e-38
0.23022859 0.078685716 0.76500005 1.307011957e-38
0.23168573 0.078685716 0.76500005 1.316194946e-38
0.23552001 0.078994282 0.76800001 1.307045168e-38
0.23698285 0.078994282 0.76800001 1.30707964e-38
0.24262857 0.07940571 0.77200001 1.279424314e-38
0.24947619 0.079714291 0.77500004 1.297681691e-38
0.2516 0.079920001 0.77700001 1.288498842e-38
0.25373146 0.080125719 0.77900004 1.279207953e-38
0.25685334 0.080640003 0.78400004 1.279136487e-38
0.26969334 0.081359997 0.79100001 1.242476417e-38
0.2681143 0.080434293 0.78200006 1.224145752e-38
0.26960382 0.080434293 0.78200006 1.205813125e-38
0.27781144 0.081977144 0.79700005 1.187481338e-38
0.27862856 0.081771426 0.79500002 1.16911494e-38
0.28094858 0.081565715 0.79300004 1.150710286e-38
0.29556 0.084445722 0.82100004 1.150641202e-38
0.29952002 0.084240004 0.81900007 1.159862866e-38
0.30108002 0.084240004 0.81900007 1.159897899e-38
0.30732003 0.084240004 0.81900007 1.159645525e-38
0.30888003 0.084240004 0.81900007 1.168972988e-38
0.31509143 0.084651433 0.82300001 1.177903043e-38
0.3260743 0.085062861 0.82700002 1.177831717e-38
0.3292343 0.085474283 0.83100003 1.16857614e-38
0.33081713 0.085474283 0.83100003 1.159463637e-38
0.33157146 0.084857151 0.82500005 1.150315259e-38
0.33628571 0.084857151 0.82500005 1.08602859e-38
0.34581146 0.085268572 0.82900006 1.141061365e-38
0.35944763 0.085885718 0.83500004 1.104327306e-38
0.36740002 0.085885718 0.83500004 1.150028414e-38
0.37376192 0.085885718 0.83500004 1.131697048e-38
0.38285524 0.086502858 0.84100002 1.159318042e-38
0.38445717 0.086502858 0.84100002 1.196051399e-38
0.38697717 0.086708575 0.84300005 1.242006142e-38
0.39342856 0.08742857 0.85000002 1.131841101e-38
0.39666668 0.08742857 0.85000002 1.131877675e-38
0.39734861 0.087222867 0.84800005 1.113510576e-38
0.4015238 0.08742857 0.85000002 1.076953642e-38
0.40476191 0.08742857 0.85000002 1.095429902e-38
0.40638095 0.08742857 0.85000002 1.141060524e-38
0.40704003 0.087222867 0.84800005 1.150064707e-38
0.41027051 0.087222867 0.84800005 1.150282329e-38
0.41427431 0.086708575 0.84300005 1.09539599e-38
0.41588002 0.086708575 0.84300005 1.141240311e-38
0.41909143 0.086708575 0.84300005 1.122583983e-38
0.42069715 0.086708575 0.84300005 1.122583563e-38
0.42509335 0.086297147 0.83900005 1.122476223e-38
0.42567429 0.086091429 0.83700001 1.12244021e-38
0.42726859 0.086091429 0.83700001 1.104072971e-38
0.42886284 0.086091429 0.83700001 1.085706852e-38
0.43579048 0.085885718 0.83500004 1.07627261e-38
0.09449143 0.072180949 0.68900001 1.444335843e-38
0.095942862 0.072285719 0.69000006 1.44419207e-38
0.098571435 0.072285719 0.69000006 1.453447506e-38
0.10003048 0.072390474 0.69100004 1.444443603e-38
0.10296 0.0726 0.69300002 1.453841692e-38
0.11168 0.073123805 0.69800001 1.389553341e-38
0.11300953 0.073123805 0.69800001 1.417212871e-38
0.11566857 0.073123805 0.69800001 1.435330819e-38
0.12400001 0.073333338 0.70000005 1.453840431e-38
0.12684762 0.073438093 0.70100003 1.472136064e-38
0.13122666 0.073647618 0.70300001 1.472212154e-38
0.13256571 0.073647618 0.70300001 1.435511026e-38
0.13390477 0.073647618 0.70300001 1.417141265e-38
0.13677715 0.073752381 0.70400006 1.380263713e-38
0.1381181 0.073752381 0.70400006 1.361824727e-38
0.14080001 0.073752381 0.70400006 1.353071376e-38
0.14214097 0.073752381 0.70400006 1.352856137e-38
0.14348191 0.073752381 0.70400006 1.343637415e-38
0.14482287 0.073752381 0.70400006 1.352821665e-38
0.14616382 0.073752381 0.70400006 1.362076681e-38
0.14750476 0.073752381 0.70400006 1.371080724e-38
0.14884572 0.073752381 0.70400006 1.38941139e-38
0.15778285 0.074171424 0.708 1.42593175e-38
0.16093335 0.074380957 0.71000004 1.32498389e-38
0.16228572 0.074380957 0.71000004 1.279100754e-38
0.1636381 0.074380957 0.71000004 1.233218038e-38
0.16499048 0.074380957 0.71000004 1.233073705e-38
0.16657715 0.074485712 0.71100003 1.242115163e-38
0.17247811 0.074695244 0.71300006 1.168073214e-38
0.1738362 0.074695244 0.71300006 1.1681437e-38
0.17791049 0.074695244 0.71300006 1.195909728e-38
0.17926858 0.074695244 0.71300006 1.205129291e-38
0.18198477 0.074695244 0.71300006 1.241903006e-38
0.19229715 0.075009525 0.71600002 1.260483943e-38
0.19584192 0.075323813 0.71900004 1.34302743e-38
0.19721143 0.075323813 0.71900004 1.288176964e-38
0.19995049 0.075323813 0.71900004 1.334417431e-38
0.21056001 0.078780949 0.75200003 1.426324954e-38
0.21342477 0.078780949 0.75200003 1.325269895e-38
0.21514286 0.078885712 0.75300002 1.343636434e-38
0.22090286 0.079409525 0.75800002 1.352856838e-38
0.23813525 0.080352381 0.76700002 1.325375273e-38
0.24053334 0.080666669 0.77000004 1.297790993e-38
0.24409907 0.080876186 0.77200001 1.297792814e-38
0.25095239 0.081190482 0.77500004 1.325125842e-38
0.25984001 0.082133338 0.78400004 1.297610505e-38
0.26199999 0.082342856 0.78600001 1.260877428e-38
0.26716954 0.082552388 0.78800005 1.269953778e-38
0.26901144 0.082657143 0.78900003 1.279101595e-38
0.27051428 0.082657143 0.78900003 1.25147934e-38
0.27781144 0.083495244 0.79700005 1.242475577e-38
0.28540194 0.083495244 0.79700005 1.16886705e-38
0.2956762 0.085590474 0.81700003 1.178190589e-38
0.29960954 0.085380957 0.81500006 1.169008721e-38
0.30079237 0.085276194 0.81400001 1.187268621e-38
0.30699429 0.085276194 0.81400001 1.178086052e-38
0.30968192 0.085590474 0.81700003 1.187230506e-38
0.31200004 0.0858 0.81900007 1.187119663e-38
0.31512004 0.0858 0.81900007 1.177830596e-38
0.31590667 0.085590474 0.81700003 1.168574879e-38
0.31746286 0.085590474 0.81700003 1.150314979e-38
0.32136002 0.0858 0.81900007 1.150209181e-38
0.3292 0.086219043 0.82300001 1.150278826e-38
0.33233523 0.086219043 0.82300001 1.150207219e-38
0.3354705 0.086219043 0.82300001 1.150168263e-38
0.3370381 0.086219043 0.82300001 1.150134352e-38
0.3394286 0.086428575 0.82500005 1.159319863e-38
0.34497714 0.086638093 0.82700002 1.140988918e-38
0.3457143 0.086428575 0.82500005 1.140952624e-38
0.3481276 0.086638093 0.82700002 1.150134352e-38
0.34970286 0.086638093 0.82700002 1.140948981e-38
0.35212764 0.086847618 0.82900006 1.140986675e-38
0.35944763 0.087476194 0.83500004 1.122479867e-38
0.36017337 0.087266669 0.83300006 1.150029254e-38
0.36176002 0.087266669 0.83300006 1.15917581e-38
0.36899048 0.087476194 0.83500004 1.149995203e-38
0.36969337 0.087266669 0.83300006 1.150065408e-38
0.37376192 0.087476194 0.83500004 1.122656851e-38
0.38194478 0.087895244 0.83900005 1.149774919e-38
0.38858289 0.088314287 0.84300005 1.140773398e-38
0.39111429 0.088523813 0.84500003 1.094927256e-38
0.39272383 0.088523813 0.84500003 1.140880877e-38
0.39990479 0.089047618 0.85000002 1.11347176e-38
0.4015238 0.089047618 0.85000002 1.104250515e-38
0.40380955 0.0888381 0.84800005 1.113401555e-38
0.40542477 0.0888381 0.84800005 1.131804807e-38
0.41027051 0.0888381 0.84800005 1.131809011e-38
0.40945715 0.088314287 0.84300005 1.150137995e-38
0.41106287 0.088314287 0.84300005 1.131912287e-38
0.41588002 0.088314287 0.84300005 1.132200254e-38
0.41748571 0.088314287 0.84300005 1.122798662e-38
0.41909143 0.088314287 0.84300005 1.11336358e-38
0.41969907 0.088104762 0.84100002 1.10417975e-38
0.42248574 0.087685712 0.83700001 1.113291132e-38
0.42407998 0.087685712 0.83700001 1.10407255e-38
0.42465717 0.087476194 0.83500004 1.094637327e-38
0.42624763 0.087476194 0.83500004 1.085489091e-38
0.42886284 0.087685712 0.83700001 1.067194719e-38
0.43045714 0.087685712 0.83700001 1.04893622e-38
0.43260953 0.087476194 0.83500004 1.058299416e-38
0.43316001 0.087266669 0.83300006 1.085599233e-38
0.078171432 0.072960004 0.68400002 1.398921582e-38
0.079474285 0.072960004 0.68400002 1.36204305e-38
0.082080007 0.072960004 0.68400002 1.279318516e-38
0.085988574 0.072960004 0.68400002 1.379691563e-38
0.087546669 0.073173344 0.68600005 1.398094255e-38
0.088853337 0.073173344 0.68600005 1.407349411e-38
0.091600008 0.073279999 0.68700004 1.425895737e-38
0.092908576 0.073279999 0.68700004 1.435079426e-38
0.09449143 0.073493332 0.68900001 1.4351153e-38
0.095942862 0.073600002 0.69000006 1.435114599e-38
0.097257152 0.073600002 0.69000006 1.435113898e-38
0.10134667 0.073706672 0.69100004 1.444621568e-38
0.10428 0.073920004 0.69300002 1.453876304e-38
0.10560001 0.073920004 0.69300002 1.435544377e-38
0.10707428 0.074026659 0.69400001 1.417141265e-38
0.11019238 0.074346669 0.69700003 1.389518589e-38
0.11152001 0.074346669 0.69700003 1.407993168e-38
0.11284763 0.074346669 0.69700003 1.426360968e-38
0.11550286 0.074346669 0.69700003 1.444549822e-38
0.11948572 0.074346669 0.69700003 1.453661204e-38
0.12081333 0.074346669 0.69700003 1.453768404e-38
0.1223162 0.074453332 0.69800001 1.444727927e-38
0.12364572 0.074453332 0.69800001 1.44465618e-38
0.12497523 0.074453332 0.69800001 1.44465618e-38
0.12630476 0.074453332 0.69800001 1.453660924e-38
0.12800001 0.074666671 0.70000005 1.49025219e-38
0.1352438 0.074986666 0.70300001 1.398665705e-38
0.13658285 0.074986666 0.70300001 1.370971563e-38
0.13945906 0.075093336 0.70400006 1.324838155e-38
0.14214097 0.075093336 0.70400006 1.306901955e-38
0.14482287 0.075093336 0.70400006 1.316087186e-38
0.14616382 0.075093336 0.70400006 1.325234442e-38
0.15822859 0.075733334 0.71000004 1.481067099e-38
0.15958096 0.075733334 0.71000004 1.407526395e-38
0.16657715 0.075840004 0.71100003 1.251442205e-38
0.16976191 0.076053336 0.71300006 1.186332133e-38
0.17112 0.076053336 0.71300006 1.167964193e-38
0.17247811 0.076053336 0.71300006 1.149632827e-38
0.1765524 0.076053336 0.71300006 1.149848487e-38
0.17791049 0.076053336 0.71300006 1.168287613e-38
0.17926858 0.076053336 0.71300006 1.186726879e-38
0.18062669 0.076053336 0.71300006 1.214242636e-38
0.18198477 0.076053336 0.71300006 1.223427166e-38
0.18334286 0.076053336 0.71300006 1.232610155e-38
0.18632001 0.076159999 0.71400005 1.26952344e-38
0.18768001 0.076159999 0.71400005 1.260268564e-38
0.19093335 0.076373331 0.71600002 1.27881629e-38
0.19502476 0.076373331 0.71600002 1.370613671e-38
0.19775237 0.076373331 0.71600002 1.187373018e-38
0.1991162 0.076373331 0.71600002 1.325269615e-38
0.20943999 0.079786666 0.74800003 1.46302342e-38
0.21142858 0.080000006 0.75000006 1.389555583e-38
0.21657714 0.080320001 0.75300002 1.380479373e-38
0.22438097 0.081066668 0.76000005 1.35289201e-38
0.22582857 0.081066668 0.76000005 1.352927323e-38
0.22727621 0.081066668 0.76000005 1.352856838e-38
0.22902477 0.081173338 0.76100004 1.343674689e-38
0.23108 0.08138667 0.76300001 1.343638256e-38
0.23253334 0.08138667 0.76300001 1.343637835e-38
0.23605716 0.08160001 0.76500005 1.343634332e-38
0.2375143 0.08160001 0.76500005 1.343779226e-38
0.23959619 0.081813335 0.76700002 1.307082162e-38
0.24556951 0.08234667 0.77200001 1.334525471e-38
0.24883239 0.082453333 0.77300006 1.398594659e-38
0.25030476 0.082453333 0.77300006 1.370972684e-38
0.25177717 0.082453333 0.77300006 1.343421335e-38
0.25455999 0.082879998 0.77700001 1.371007296e-38
0.25917715 0.08341334 0.78200006 1.34338392e-38
0.26432002 0.083626673 0.78400004 1.297540721e-38
0.26716954 0.084053338 0.78800005 1.30672329e-38
0.26867047 0.084053338 0.78800005 1.315726772e-38
0.27641714 0.084586665 0.79300004 1.297216881e-38
0.27792761 0.084586665 0.79300004 1.251371159e-38
0.27943811 0.084586665 0.79300004 1.20545187e-38
0.28388384 0.085013337 0.79700005 1.187157078e-38
0.28540194 0.085013337 0.79700005 1.187230926e-38
0.28692001 0.085013337 0.79700005 1.196449228e-38
0.28843811 0.085013337 0.79700005 1.19648398e-38
0.29468572 0.08640001 0.81000006 1.196485101e-38
0.29696 0.086613335 0.81200004 1.187302532e-38
0.29777145 0.08640001 0.81000006 1.18715946e-38
0.29931432 0.08640001 0.81000006 1.214567036e-38
0.30165336 0.08618667 0.80800003 1.214566896e-38
0.30319241 0.08618667 0.80800003 1.196379163e-38
0.31202862 0.086933337 0.81500006 1.214599967e-38
0.31358096 0.086933337 0.81500006 1.196161822e-38
0.31513333 0.086933337 0.81500006 1.177830175e-38
0.31668574 0.086933337 0.81500006 1.14113143e-38
0.31823811 0.086933337 0.81500006 1.113474282e-38
0.32368761 0.08714667 0.81700003 1.159247977e-38
0.32604003 0.087360002 0.81900007 1.159175389e-38
0.32760003 0.087360002 0.81900007 1.149919393e-38
0.33621907 0.087573335 0.82100004 1.260337228e-38
0.34728575 0.088000007 0.82500005 1.150135053e-38
0.35042858 0.088000007 0.82500005 1.159210982e-38
0.35930857 0.088640004 0.83100003 1.159319023e-38
0.3633467 0.088853337 0.83300006 1.159282028e-38
0.36493334 0.088853337 0.83300006 1.159209301e-38
0.36652005 0.088853337 0.83300006 1.159138956e-38
0.37128001 0.088853337 0.83300006 1.131732921e-38
0.37694287 0.089066669 0.83500004 1.168394532e-38
0.37944001 0.089280002 0.83700001 1.159246435e-38
0.38103428 0.089280002 0.83700001 1.149919533e-38
0.38262859 0.089280002 0.83700001 1.140628504e-38
0.38514096 0.089493334 0.83900005 1.140700811e-38
0.38766095 0.089706667 0.84100002 1.09485551e-38
0.39179432 0.089920007 0.84300005 1.150027012e-38
0.40057907 0.090453334 0.84800005 1.140806328e-38
0.40077144 0.090133332 0.84500003 1.150169665e-38
