# .PCD v0.7 - Point Cloud Data file format
VERSION 0.7
FIELDS x y z rgb
SIZE 4 4 4 4
TYPE F F F F
COUNT 1 1 1 1
WIDTH 985
HEIGHT 1
VIEWPOINT 0 0 0 1 0 0 0
POINTS 985
DATA ascii
0.15277334 0.087299049 0.67400002 1.187156517e-38
0.15616001 0.087040007 0.67200005 1.113077294e-38
0.15744001 0.087040007 0.67200005 1.113004707e-38
0.15848382 0.086910471 0.671 1.112968133e-38
0.15976191 0.086910471 0.671 1.12222441e-38
0.16384001 0.087040007 0.67200005 1.14999198e-38
0.16615239 0.086910471 0.671 1.168431807e-38
0.17024001 0.087040007 0.67200005 1.21398872e-38
0.17126477 0.086910471 0.671 1.214024874e-38
0.17280002 0.087040007 0.67200005 1.22328003e-38
0.17765523 0.086910471 0.671 1.196124267e-38
0.17893334 0.086910471 0.671 1.196267339e-38
0.18021142 0.086910471 0.671 1.196375099e-38
0.18404572 0.086910471 0.671 1.205810883e-38
0.18688001 0.087040007 0.67200005 1.205632077e-38
0.18816 0.087040007 0.67200005 1.196088674e-38
0.19000383 0.087299049 0.67400002 1.18697575e-38
0.19072001 0.087040007 0.67200005 1.186939316e-38
0.19513905 0.087299049 0.67400002 1.159065948e-38
0.19642286 0.087299049 0.67400002 1.150062045e-38
0.20057143 0.08742857 0.67500001 1.122476223e-38
0.20473145 0.087558098 0.67600006 1.177469761e-38
0.20921144 0.087817147 0.67800003 1.168573758e-38
0.21210667 0.087946668 0.67900002 1.104251636e-38
0.21340001 0.087946668 0.67900002 1.058190535e-38
0.21500953 0.088076189 0.68000001 1.104108283e-38
0.21630475 0.088076189 0.68000001 1.149846665e-38
0.21824001 0.088335246 0.68200004 1.149882398e-38
0.21889523 0.088076189 0.68000001 1.149882118e-38
0.22019047 0.088076189 0.68000001 1.131550612e-38
0.22343621 0.088335246 0.68200004 1.104071009e-38
0.2260343 0.088335246 0.68200004 1.094709074e-38
0.23685144 0.088982865 0.68700004 1.0668727e-38
0.23816 0.088982865 0.68700004 1.066871719e-38
0.23946859 0.088982865 0.68700004 1.066835426e-38
0.24708575 0.089371435 0.69000006 8.647258681e-39
0.2484 0.089371435 0.69000006 8.188084002e-39
0.2510286 0.089371435 0.69000006 8.739815845e-39
0.25234288 0.089371435 0.69000006 8.740531909e-39
0.25740001 0.089759998 0.69300002 9.75360764e-39
0.26041523 0.089889526 0.69400001 9.018193594e-39
0.26173714 0.089889526 0.69400001 9.297284604e-39
0.26305905 0.089889526 0.69400001 9.571712093e-39
0.26438096 0.089889526 0.69400001 9.296920267e-39
0.26570287 0.089889526 0.69400001 9.111812944e-39
0.26740956 0.090019047 0.69500005 9.019618715e-39
0.072822854 0.085165717 0.648 1.067482265e-38
0.075291425 0.085165717 0.648 1.048147569e-38
0.076525711 0.085165717 0.648 1.057797191e-38
0.081714287 0.085428573 0.65000004 1.094458242e-38
0.087066673 0.085822865 0.65300006 1.057007699e-38
0.088580951 0.086085722 0.65500003 1.093382745e-38
0.089965716 0.086217143 0.65600002 1.056827492e-38
0.091354281 0.086348571 0.65700001 1.020271959e-38
0.098057151 0.086742856 0.66000003 9.841830589e-39
0.099464767 0.086874284 0.66100001 1.03921233e-38
0.10608001 0.087137148 0.66300005 9.934034627e-39
0.10766667 0.087400004 0.66500002 1.021025017e-38
0.10893334 0.087400004 0.66500002 1.02116781e-38
0.11417143 0.087531433 0.66600001 1.002872457e-38
0.11561334 0.087662861 0.66700006 1.021275569e-38
0.11850858 0.087925717 0.66900003 1.048826218e-38
0.12105715 0.087925717 0.66900003 1.011984961e-38
0.12251429 0.088057138 0.67000002 1.011914055e-38
0.12634286 0.088057138 0.67000002 1.012093141e-38
0.12780952 0.088188574 0.671 1.039787563e-38
0.13036571 0.088188574 0.671 1.085741324e-38
0.1316438 0.088188574 0.671 1.094817955e-38
0.13420001 0.088188574 0.671 1.131875713e-38
0.13547809 0.088188574 0.671 1.159390629e-38
0.13675618 0.088188574 0.671 1.186905545e-38
0.14250286 0.088582858 0.67400002 1.233362092e-38
0.14528571 0.088714287 0.67500001 1.306900974e-38
0.14657144 0.088714287 0.67500001 1.297465191e-38
0.14914286 0.088714287 0.67500001 1.315551049e-38
0.15148953 0.088582858 0.67400002 1.269628957e-38
0.15277334 0.088582858 0.67400002 1.205309778e-38
0.15616001 0.088320009 0.67200005 1.149990859e-38
0.15744001 0.088320009 0.67200005 1.149846245e-38
0.15848382 0.088188574 0.671 1.140661574e-38
0.16103999 0.088188574 0.671 1.149847366e-38
0.16256002 0.088320009 0.67200005 1.149955406e-38
0.16512001 0.088320009 0.67200005 1.122404897e-38
0.16743048 0.088188574 0.671 1.186473104e-38
0.16896002 0.088320009 0.67200005 1.195763292e-38
0.17024001 0.088320009 0.67200005 1.20469629e-38
0.17152001 0.088320009 0.67200005 1.223207583e-38
0.17408001 0.088320009 0.67200005 1.223494709e-38
0.17509905 0.088188574 0.671 1.214239833e-38
0.17637715 0.088188574 0.671 1.195801548e-38
0.17765523 0.088188574 0.671 1.186581985e-38
0.17893334 0.088188574 0.671 1.177398295e-38
0.18021142 0.088188574 0.671 1.168249918e-38
0.18276763 0.088188574 0.671 1.150779229e-38
0.18872 0.088582858 0.67400002 1.150063306e-38
0.19257143 0.088582858 0.67400002 1.159209581e-38
0.19928572 0.088714287 0.67500001 1.122476083e-38
0.20344383 0.088845722 0.67600006 1.177542489e-38
0.20601907 0.088845722 0.67600006 1.186832817e-38
0.20921144 0.089108571 0.67800003 1.177758008e-38
0.21371429 0.089371428 0.68000001 1.113292814e-38
0.21500953 0.089371428 0.68000001 1.13162376e-38
0.21694095 0.089634292 0.68200004 1.159066368e-38
0.21824001 0.089634292 0.68200004 1.149918272e-38
0.21953905 0.089634292 0.68200004 1.149954145e-38
0.22213715 0.089634292 0.68200004 1.104179329e-38
0.22343621 0.089634292 0.68200004 1.104142895e-38
0.23292571 0.090291433 0.68700004 1.057866135e-38
0.2342343 0.090291433 0.68700004 1.103785985e-38
0.23554286 0.090291433 0.68700004 1.085349241e-38
0.23685144 0.090291433 0.68700004 1.076092403e-38
0.23816 0.090291433 0.68700004 1.057723763e-38
0.2414781 0.090554282 0.68900001 9.934382149e-39
0.2497143 0.090685725 0.69000006 8.924917563e-39
0.25402477 0.090817153 0.69100004 9.017490143e-39
0.25534099 0.090817153 0.69100004 9.202247141e-39
0.25872001 0.091080002 0.69300002 9.109684371e-39
0.26041523 0.091211431 0.69400001 8.925290309e-39
0.26173714 0.091211431 0.69400001 9.111109492e-39
0.26438096 0.091211431 0.69400001 9.112529007e-39
0.076525711 0.086400002 0.648 1.08613649e-38
0.078000002 0.086666673 0.65000004 1.076880494e-38
0.081714287 0.086666673 0.65000004 1.103606478e-38
0.082952388 0.086666673 0.65000004 1.112359689e-38
0.08444953 0.08693333 0.65200001 1.121615126e-38
0.089965716 0.087466672 0.65600002 1.131086222e-38
0.091354281 0.0876 0.65700001 1.103426972e-38
0.095253341 0.087733343 0.65800005 1.057758655e-38
0.096800007 0.088 0.66000003 1.048575666e-38
0.10072381 0.088133335 0.66100001 1.085811669e-38
0.1064 0.08866667 0.66500002 1.06698074e-38
0.10766667 0.08866667 0.66500002 1.085419026e-38
0.11290286 0.088799998 0.66600001 1.159137554e-38
0.11417143 0.088799998 0.66600001 1.17746864e-38
0.11815429 0.088933334 0.66700006 1.195763713e-38
0.12105715 0.089200005 0.66900003 1.076378408e-38
0.12251429 0.089333333 0.67000002 1.085634545e-38
0.12761904 0.089333333 0.67000002 1.196303072e-38
0.13292189 0.089466669 0.671 1.232931473e-38
0.13420001 0.089466669 0.671 1.278920407e-38
0.13675618 0.089466669 0.671 1.334200931e-38
0.14080001 0.089600012 0.67200005 1.333987093e-38
0.14528571 0.089999996 0.67500001 1.30672329e-38
0.1463543 0.089866668 0.67400002 1.306613988e-38
0.1476381 0.089866668 0.67400002 1.306328123e-38
0.14892191 0.089866668 0.67400002 1.35210364e-38
0.15104 0.089600012 0.67200005 1.315366639e-38
0.15232 0.089600012 0.67200005 1.232715673e-38
0.15464953 0.089466669 0.671 1.186869391e-38
0.15616001 0.089600012 0.67200005 1.186904143e-38
0.1572057 0.089466669 0.671 1.186795963e-38
0.15848382 0.089466669 0.671 1.177540247e-38
0.15976191 0.089466669 0.671 1.168285651e-38
0.1623181 0.089466669 0.671 1.168214745e-38
0.16487429 0.089466669 0.671 1.085670138e-38
0.16615239 0.089466669 0.671 1.13151586e-38
0.16870856 0.089466669 0.671 1.186579462e-38
0.17152001 0.089600012 0.67200005 1.232391833e-38
0.17280002 0.089600012 0.67200005 1.269090438e-38
0.17408001 0.089600012 0.67200005 1.241863069e-38
0.17637715 0.089466669 0.671 1.195765955e-38
0.17765523 0.089466669 0.671 1.186510378e-38
0.17893334 0.089466669 0.671 1.158780083e-38
0.18560001 0.089600012 0.67200005 1.103535993e-38
0.18872 0.089866668 0.67400002 1.113077715e-38
0.19000383 0.089866668 0.67400002 1.12233189e-38
0.19128762 0.089866668 0.67400002 1.13151586e-38
0.19414286 0.089999996 0.67500001 1.149955126e-38
0.19542857 0.089999996 0.67500001 1.150062605e-38
0.19642286 0.089866668 0.67400002 1.159175109e-38
0.19928572 0.089999996 0.67500001 1.168358238e-38
0.20473145 0.090133339 0.67600006 1.205344811e-38
0.20952 0.090533338 0.67900002 1.196161681e-38
0.21241905 0.090666667 0.68000001 1.186761071e-38
0.21564192 0.090933338 0.68200004 1.168321384e-38
0.21694095 0.090933338 0.68200004 1.168321524e-38
0.21824001 0.090933338 0.68200004 1.159138255e-38
0.22083811 0.090933338 0.68200004 1.131587606e-38
0.22213715 0.090933338 0.68200004 1.103928637e-38
0.22376382 0.091066666 0.68300003 1.113004006e-38
0.22866668 0.091466673 0.68600005 1.11314834e-38
0.23030858 0.091600008 0.68700004 1.094853548e-38
0.23292571 0.091600008 0.68700004 1.103784303e-38
0.2349162 0.091866665 0.68900001 1.131336073e-38
0.23622857 0.091866665 0.68900001 1.103786685e-38
0.23885334 0.091866665 0.68900001 1.048647973e-38
0.24016573 0.091866665 0.68900001 1.021061311e-38
0.2414781 0.091866665 0.68900001 9.751434226e-39
0.24481143 0.092133336 0.69100004 9.107882301e-39
0.24744381 0.092133336 0.69100004 9.017860085e-39
0.2484 0.092000008 0.69000006 9.110041702e-39
0.2497143 0.092000008 0.69000006 9.478087139e-39
0.25365716 0.092000008 0.69000006 9.385196465e-39
0.25497144 0.092000008 0.69000006 9.20225695e-39
0.26060572 0.092133336 0.69100004 8.926372111e-39
0.073047623 0.087904766 0.65000004 1.123192567e-38
0.078000002 0.087904766 0.65000004 1.095426819e-38
0.079238102 0.087904766 0.65000004 1.104323243e-38
0.083080001 0.088040002 0.65100002 1.148987669e-38
0.089965716 0.088716187 0.65600002 1.186368147e-38
0.091354281 0.08885143 0.65700001 1.168179152e-38
0.095253341 0.088986672 0.65800005 1.122151402e-38
0.099464767 0.089392379 0.66100001 1.113076173e-38
0.1008762 0.089527622 0.66200006 1.113111486e-38
0.10355429 0.089662857 0.66300005 1.094674322e-38
0.10513334 0.089933336 0.66500002 1.076128697e-38
0.10909715 0.090068571 0.66600001 1.14091619e-38
0.11290286 0.090068571 0.66600001 1.19616e-38
0.11561334 0.090203814 0.66700006 1.251260597e-38
0.11688382 0.090203814 0.66700006 1.223745541e-38
0.11942477 0.090203814 0.66700006 1.168536904e-38
0.12105715 0.090474285 0.66900003 1.131660053e-38
0.12233143 0.090474285 0.66900003 1.131768514e-38
0.12379047 0.090609521 0.67000002 1.122728457e-38
0.12634286 0.090609521 0.67000002 1.159139376e-38
0.12761904 0.090609521 0.67000002 1.187012604e-38
0.13036571 0.090744756 0.671 1.205492227e-38
0.13144763 0.090609521 0.67000002 1.196307136e-38
0.13420001 0.090744756 0.671 1.269952377e-38
0.13547809 0.090744756 0.671 1.297537918e-38
0.13803428 0.090744756 0.671 1.325089688e-38
0.14208001 0.090879999 0.67200005 1.370866886e-38
0.14336002 0.090879999 0.67200005 1.343317779e-38
0.1463543 0.091150478 0.67400002 1.30650749e-38
0.1472 0.090879999 0.67200005 1.306363436e-38
0.14848 0.090879999 0.67200005 1.315546565e-38
0.14976001 0.090879999 0.67200005 1.333913104e-38
0.15104 0.090879999 0.67200005 1.278739499e-38
0.15360001 0.090879999 0.67200005 1.205200057e-38
0.1572057 0.090744756 0.671 1.159245735e-38
0.15848382 0.090744756 0.671 1.159102382e-38
0.16103999 0.090744756 0.671 1.186438632e-38
0.1623181 0.090744756 0.671 1.204805311e-38
0.16487429 0.090744756 0.671 1.140770876e-38
0.16743048 0.090744756 0.671 1.214023052e-38
0.17152001 0.090879999 0.67200005 1.213917955e-38
0.17509905 0.090744756 0.671 1.214241515e-38
0.17637715 0.090744756 0.671 1.195802248e-38
0.17893334 0.090744756 0.671 1.140412984e-38
0.18048 0.090879999 0.67200005 1.121866098e-38
0.18276763 0.090744756 0.671 1.039107092e-38
0.18432 0.090879999 0.67200005 1.048219736e-38
0.18615238 0.091150478 0.67400002 1.066515369e-38
0.19128762 0.091150478 0.67400002 1.140627803e-38
0.19285715 0.091285713 0.67500001 1.140665077e-38
0.19414286 0.091285713 0.67500001 1.14988408e-38
0.19671428 0.091285713 0.67500001 1.168323766e-38
0.19800001 0.091285713 0.67500001 1.186692127e-38
0.20344383 0.091420963 0.67600006 1.205347753e-38
0.20822667 0.091826662 0.67900002 1.20545243e-38
0.21112381 0.091961898 0.68000001 1.260409815e-38
0.21694095 0.092232391 0.68200004 1.177756187e-38
0.22083811 0.092232391 0.68200004 1.149919393e-38
0.22409143 0.092502862 0.68400002 1.131335653e-38
0.22539428 0.092502862 0.68400002 1.140555076e-38
0.23360381 0.093179055 0.68900001 1.140447176e-38
0.2349162 0.093179055 0.68900001 1.177145781e-38
0.23920001 0.093314297 0.69000006 1.030281154e-38
0.24051431 0.093314297 0.69000006 9.843275328e-39
0.24349526 0.093449533 0.69100004 9.1068019e-39
0.24876003 0.093449533 0.69100004 9.017858684e-39
0.2500762 0.093449533 0.69100004 9.202944988e-39
0.25234288 0.093314297 0.69000006 9.294786089e-39
0.25365716 0.093314297 0.69000006 9.111490645e-39
0.25497144 0.093314297 0.69000006 8.927119003e-39
0.25928956 0.093449533 0.69100004 8.83274996e-39
0.26060572 0.093449533 0.69100004 9.01857755e-39
0.075523809 0.089142859 0.65000004 1.132233325e-38
0.076761909 0.089142859 0.65000004 1.123050335e-38
0.079238102 0.089142859 0.65000004 1.12265587e-38
0.080476195 0.089142859 0.65000004 1.122297558e-38
0.083080001 0.089280002 0.65100002 1.186762752e-38
0.08444953 0.089417145 0.65200001 1.22392785e-38
0.085822865 0.089554287 0.65300006 1.270061678e-38
0.087066673 0.089554287 0.65300006 1.270277899e-38
0.08831048 0.089554287 0.65300006 1.269774272e-38
0.091215238 0.089965716 0.65600002 1.232499453e-38
0.092464767 0.089965716 0.65600002 1.214131092e-38
0.093857147 0.090102859 0.65700001 1.195764413e-38
0.099464767 0.09065143 0.66100001 1.140664517e-38
0.1008762 0.09078858 0.66200006 1.140663256e-38
0.10229144 0.090925723 0.66300005 1.140663816e-38
0.1064 0.091200002 0.66500002 1.141166882e-38
0.10766667 0.091200002 0.66500002 1.177937234e-38
0.10893334 0.091200002 0.66500002 1.196340347e-38
0.11036572 0.091337144 0.66600001 1.223927149e-38
0.11290286 0.091337144 0.66600001 1.242329982e-38
0.11417143 0.091337144 0.66600001 1.26988021e-38
0.11561334 0.091474287 0.66700006 1.306614128e-38
0.11942477 0.091474287 0.66700006 1.205343269e-38
0.12069525 0.091474287 0.66700006 1.196196854e-38
0.12488001 0.091748573 0.66900003 1.159247837e-38
0.12634286 0.091885716 0.67000002 1.159103643e-38
0.12761904 0.091885716 0.67000002 1.177721154e-38
0.12889524 0.091885716 0.67000002 1.196268881e-38
0.13017143 0.091885716 0.67000002 1.196413775e-38
0.13144763 0.091885716 0.67000002 1.205452991e-38
0.13272381 0.091885716 0.67000002 1.233038672e-38
0.13675618 0.092022859 0.671 1.306722729e-38
0.14336002 0.092160001 0.67200005 1.370939053e-38
0.1472 0.092160001 0.67200005 1.30639987e-38
0.14848 0.092160001 0.67200005 1.287996477e-38
0.15104 0.092160001 0.67200005 1.251368777e-38
0.15209334 0.092022859 0.671 1.223567156e-38
0.15337144 0.092022859 0.671 1.205020971e-38
0.15464953 0.092022859 0.671 1.195980353e-38
0.15848382 0.092022859 0.671 1.149848487e-38
0.15976191 0.092022859 0.671 1.177255222e-38
0.1623181 0.092022859 0.671 1.241575102e-38
0.16359618 0.092022859 0.671 1.214311159e-38
0.16615239 0.092022859 0.671 1.22338807e-38
0.16743048 0.092022859 0.671 1.250686625e-38
0.16896002 0.092160001 0.67200005 1.223063249e-38
0.17152001 0.092160001 0.67200005 1.204661958e-38
0.18048 0.092160001 0.67200005 1.103570185e-38
0.18304001 0.092160001 0.67200005 9.656018413e-39
0.18432 0.092160001 0.67200005 1.002229401e-38
0.18872 0.092434287 0.67400002 9.842932009e-39
0.19000383 0.092434287 0.67400002 1.067016193e-38
0.19414286 0.09257143 0.67500001 1.15917567e-38
0.19800001 0.09257143 0.67500001 1.214384587e-38
0.19958097 0.09270858 0.67600006 1.260301074e-38
0.20533714 0.092982858 0.67800003 1.251262279e-38
0.20853333 0.093257137 0.68000001 1.223674916e-38
0.21304382 0.093531437 0.68200004 1.269770629e-38
0.21564192 0.093531437 0.68200004 1.214741218e-38
0.21725905 0.093668573 0.68300003 1.196123706e-38
0.21856001 0.093668573 0.68300003 1.177685561e-38
0.21986096 0.093668573 0.68300003 1.168393831e-38
0.22116192 0.093668573 0.68300003 1.168285651e-38
0.22409143 0.093805715 0.68400002 1.159030075e-38
0.229 0.094217151 0.68700004 1.131443693e-38
0.2313143 0.09462858 0.69000006 1.131443833e-38
0.23394287 0.09462858 0.69000006 1.177146762e-38
0.23657145 0.09462858 0.69000006 1.149559539e-38
0.23954669 0.094765715 0.69100004 1.011734969e-38
0.24217905 0.094765715 0.69100004 9.201858982e-39
0.24420001 0.095040001 0.69300002 9.017833461e-39
0.24552001 0.095040001 0.69300002 8.925643436e-39
0.24684 0.095040001 0.69300002 8.833459017e-39
0.2500762 0.094765715 0.69100004 9.019629925e-39
0.0744 0.090520002 0.65100002 1.132269478e-38
0.075523809 0.090380952 0.65000004 1.132162419e-38
0.076761909 0.090380952 0.65000004 1.123015303e-38
0.078000002 0.090380952 0.65000004 1.123051456e-38
0.081714287 0.090380952 0.65000004 1.158925678e-38
0.082952388 0.090380952 0.65000004 1.196018609e-38
0.087066673 0.090798102 0.65300006 1.31633928e-38
0.089828581 0.091076195 0.65500003 1.297574212e-38
0.094963811 0.091215238 0.65600002 1.195802108e-38
0.096359998 0.091354281 0.65700001 1.177400817e-38
0.098057151 0.091771431 0.66000003 1.140740187e-38
0.099464767 0.091910481 0.66100001 1.11322331e-38
0.10355429 0.092188574 0.66300005 1.122226232e-38
0.10608001 0.092188574 0.66300005 1.141166042e-38
0.10734286 0.092188574 0.66300005 1.168968504e-38
0.1102 0.092466667 0.66500002 1.260733795e-38
0.11417143 0.09260571 0.66600001 1.260877008e-38
0.11561334 0.092744775 0.66700006 1.279243827e-38
0.12196572 0.092744775 0.66700006 1.177760671e-38
0.1232362 0.092744775 0.66700006 1.168325168e-38
0.12488001 0.093022861 0.66900003 1.149921354e-38
0.12615429 0.093022861 0.66900003 1.140700811e-38
0.13272381 0.093161903 0.67000002 1.214634439e-38
0.13399999 0.093161903 0.67000002 1.242256974e-38
0.1352762 0.093161903 0.67000002 1.251404791e-38
0.13655238 0.093161903 0.67000002 1.269773992e-38
0.14059047 0.093300954 0.671 1.325125701e-38
0.14186858 0.093300954 0.671 1.361609908e-38
0.14314666 0.093300954 0.671 1.324876831e-38
0.14442475 0.093300954 0.671 1.297325481e-38
0.14825904 0.093300954 0.671 1.269378826e-38
0.15209334 0.093300954 0.671 1.205200617e-38
0.15337144 0.093300954 0.671 1.21431242e-38
0.15464953 0.093300954 0.671 1.223459396e-38
0.15592761 0.093300954 0.671 1.186832257e-38
0.1623181 0.093300954 0.671 1.186509538e-38
0.16359618 0.093300954 0.671 1.177469341e-38
0.16615239 0.093300954 0.671 1.17732809e-38
0.16743048 0.093300954 0.671 1.195550575e-38
0.17126477 0.093300954 0.671 1.177146482e-38
0.17408001 0.093440004 0.67200005 1.18675981e-38
0.17792001 0.093440004 0.67200005 1.131371946e-38
0.19157143 0.093857147 0.67500001 1.232537288e-38
0.19414286 0.093857147 0.67500001 1.168503273e-38
0.19542857 0.093857147 0.67500001 1.168502852e-38
0.19958097 0.093996197 0.67600006 1.223566315e-38
0.2027543 0.09427429 0.67800003 1.19594476e-38
0.20853333 0.094552375 0.68000001 1.205199216e-38
0.21304382 0.094830483 0.68200004 1.242147673e-38
0.21434286 0.094830483 0.68200004 1.21488457e-38
0.21564192 0.094830483 0.68200004 1.214705905e-38
0.21725905 0.094969526 0.68300003 1.223674776e-38
0.21856001 0.094969526 0.68300003 1.196124827e-38
0.21986096 0.094969526 0.68300003 1.17779248e-38
0.22116192 0.094969526 0.68300003 1.186939036e-38
0.22736001 0.095386669 0.68600005 1.149811072e-38
0.22966668 0.095803812 0.68900001 1.140555776e-38
0.23691429 0.096081913 0.69100004 1.076055129e-38
0.24086288 0.096081913 0.69100004 9.201503052e-39
0.24349526 0.096081913 0.69100004 8.743041634e-39
0.24552001 0.096359998 0.69300002 8.741969641e-39
0.24684 0.096359998 0.69300002 8.741613711e-39
0.24815999 0.096359998 0.69300002 8.741616514e-39
0.080476195 0.091619052 0.65000004 1.113006529e-38
0.082952388 0.091619052 0.65000004 1.214205641e-38
0.091076195 0.09232381 0.65500003 1.297395406e-38
0.093571432 0.09232381 0.65500003 1.232643506e-38
0.094819054 0.09232381 0.65500003 1.195802108e-38
0.10072381 0.093169525 0.66100001 1.104073811e-38
0.10198285 0.093169525 0.66100001 1.131480547e-38
0.1033981 0.093310483 0.66200006 1.122153224e-38
0.10465906 0.093310483 0.66200006 1.113292253e-38
0.10734286 0.093451433 0.66300005 1.168717111e-38
0.10986858 0.093451433 0.66300005 1.297360934e-38
0.11146667 0.093733341 0.66500002 1.279246489e-38
0.11273333 0.093733341 0.66500002 1.270061818e-38
0.11417143 0.093874283 0.66600001 1.260877148e-38
0.11688382 0.094015248 0.66700006 1.233255313e-38
0.12196572 0.094015248 0.66700006 1.17765137e-38
0.12615429 0.094297141 0.66900003 1.131444814e-38
0.13782857 0.094438098 0.67000002 1.242153278e-38
0.13910475 0.094438098 0.67000002 1.260591283e-38
0.14059047 0.094579048 0.671 1.279208654e-38
0.14570287 0.094579048 0.671 1.269630359e-38
0.14953715 0.094579048 0.671 1.260229608e-38
0.15081523 0.094579048 0.671 1.223495269e-38
0.15209334 0.094579048 0.671 1.195801268e-38
0.15464953 0.094579048 0.671 1.260121568e-38
0.1572057 0.094579048 0.671 1.158995182e-38
0.15848382 0.094579048 0.671 1.14988436e-38
0.15976191 0.094579048 0.671 1.14956066e-38
0.16103999 0.094579048 0.671 1.140412143e-38
0.1623181 0.094579048 0.671 1.14048389e-38
0.16359618 0.094579048 0.671 1.140663256e-38
0.17152001 0.094720006 0.67200005 1.158814975e-38
0.17382094 0.094579048 0.671 1.149989177e-38
0.17792001 0.094720006 0.67200005 1.113076453e-38
0.17893334 0.094579048 0.671 1.113077154e-38
0.18230096 0.095001914 0.67400002 1.122474962e-38
0.18514286 0.095142856 0.67500001 1.14059249e-38
0.18771429 0.095142856 0.67500001 1.168144961e-38
0.19571811 0.095283821 0.67600006 1.177723116e-38
0.19700573 0.095283821 0.67600006 1.177721294e-38
0.19829336 0.095283821 0.67600006 1.186903022e-38
0.21304382 0.096129529 0.68200004 1.214525698e-38
0.22018285 0.096411429 0.68400002 1.187047636e-38
0.22344001 0.096693337 0.68600005 1.251117104e-38
0.22638287 0.096834287 0.68700004 1.159030495e-38
0.22769144 0.096834287 0.68700004 1.149810792e-38
0.22966668 0.097116187 0.68900001 1.149846385e-38
0.23364 0.097680002 0.69300002 1.094781241e-38
0.23428191 0.097398102 0.69100004 1.067123393e-38
0.23628001 0.097680002 0.69300002 1.048576227e-38
0.24058667 0.097820953 0.69400001 9.38589291e-39
0.24190857 0.097820953 0.69400001 9.01854532e-39
0.24217905 0.097398102 0.69100004 8.743390558e-39
0.24349526 0.097398102 0.69100004 8.467529541e-39
0.084320001 0.093000002 0.65100002 1.223535206e-38
0.086800002 0.093000002 0.65100002 1.362155434e-38
0.093571432 0.093571432 0.65500003 1.223245558e-38
0.096213333 0.093714289 0.65600002 1.186511219e-38
0.097611435 0.093857147 0.65700001 1.149777441e-38
0.099013336 0.094000004 0.65800005 1.113078555e-38
0.10057143 0.094285719 0.66000003 1.122369304e-38
0.10450096 0.094428569 0.66100001 1.058082635e-38
0.10718096 0.094571441 0.66200006 1.150385605e-38
0.10844192 0.094571441 0.66200006 1.20545187e-38
0.10970287 0.094571441 0.66200006 1.26055541e-38
0.11544 0.095142856 0.66600001 1.242367537e-38
0.11670857 0.095142856 0.66600001 1.224001278e-38
0.11797714 0.095142856 0.66600001 1.214636681e-38
0.11924572 0.095142856 0.66600001 1.196088674e-38
0.12051429 0.095142856 0.66600001 1.177649688e-38
0.12178285 0.095142856 0.66600001 1.159210842e-38
0.12305142 0.095142856 0.66600001 1.149847646e-38
0.12742858 0.095571436 0.66900003 1.103821438e-38
0.12997715 0.095571436 0.66900003 1.12233231e-38
0.13252573 0.095571436 0.66900003 1.168502572e-38
0.1338 0.095571436 0.66900003 1.186977431e-38
0.13507429 0.095571436 0.66900003 1.195981895e-38
0.14038096 0.095714286 0.67000002 1.241937198e-38
0.14314666 0.095857143 0.671 1.2511562e-38
0.14698096 0.095857143 0.671 1.232715112e-38
0.15464953 0.095857143 0.671 1.195800427e-38
0.15592761 0.095857143 0.671 1.158994061e-38
0.16103999 0.095857143 0.671 1.085202805e-38
0.16359618 0.095857143 0.671 1.085274832e-38
0.17024001 0.096000008 0.67200005 1.085275252e-38
0.17152001 0.096000008 0.67200005 1.094422228e-38
0.1745981 0.096285716 0.67400002 1.10364039e-38
0.17588191 0.096285716 0.67400002 1.103676403e-38
0.17844953 0.096285716 0.67400002 1.122367623e-38
0.18257143 0.096428573 0.67500001 1.168393831e-38
0.18385714 0.096428573 0.67500001 1.205164464e-38
0.1944305 0.096571438 0.67600006 1.196162242e-38
0.19629715 0.096857145 0.67800003 1.196234689e-38
0.19758859 0.096857145 0.67800003 1.205487183e-38
0.20176001 0.097000003 0.67900002 1.196302512e-38
0.20305334 0.097000003 0.67900002 1.196197555e-38
0.20594285 0.097142853 0.68000001 1.214492207e-38
0.20914668 0.097428575 0.68200004 1.214525137e-38
0.21174477 0.097428575 0.68200004 1.223494288e-38
0.21952002 0.098000005 0.68600005 1.177828213e-38
0.22082667 0.098000005 0.68600005 1.150026312e-38
0.22638287 0.098142862 0.68700004 1.131372367e-38
0.22835429 0.09842857 0.68900001 1.158958188e-38
0.23364 0.099000007 0.69300002 1.048862372e-38
0.23794284 0.099142857 0.69400001 9.75178315e-39
0.080600001 0.094240002 0.65100002 1.057761598e-38
0.081714287 0.094095238 0.65000004 1.103713958e-38
0.088040002 0.094240002 0.65100002 1.508980264e-38
0.089417145 0.094384767 0.65200001 1.40799541e-38
0.090798102 0.094529532 0.65300006 1.315943693e-38
0.09204191 0.094529532 0.65300006 1.269773992e-38
0.094819054 0.094819054 0.65500003 1.21388082e-38
0.096066669 0.094819054 0.65500003 1.204877057e-38
0.097611435 0.095108569 0.65700001 1.177219349e-38
0.10026667 0.095253341 0.65800005 1.140878635e-38
0.10324191 0.09568762 0.66100001 1.066798992e-38
0.10450096 0.09568762 0.66100001 1.002801831e-38
0.10576 0.09568762 0.66100001 1.067446112e-38
0.10701905 0.09568762 0.66100001 1.13183942e-38
0.11113144 0.09597715 0.66300005 1.232933855e-38
0.11239429 0.09597715 0.66300005 1.242367396e-38
0.11653333 0.096266665 0.66500002 1.223964144e-38
0.11797714 0.096411429 0.66600001 1.214672274e-38
0.11906667 0.096266665 0.66500002 1.186905685e-38
0.12033334 0.096266665 0.66500002 1.168430405e-38
0.12413334 0.096266665 0.66500002 1.11304044e-38
0.12812571 0.096411429 0.66600001 1.067122972e-38
0.13340001 0.096556202 0.66700006 1.159211123e-38
0.13507429 0.096845716 0.66900003 1.159247136e-38
0.13634858 0.096845716 0.66900003 1.168359219e-38
0.14420952 0.096990481 0.67000002 1.214384727e-38
0.14548573 0.096990481 0.67000002 1.214240954e-38
0.14676191 0.096990481 0.67000002 1.214276127e-38
0.14825904 0.097135238 0.671 1.205163763e-38
0.14953715 0.097135238 0.671 1.195872173e-38
0.15209334 0.097135238 0.671 1.158850709e-38
0.15464953 0.097135238 0.671 1.140626962e-38
0.1572057 0.097135238 0.671 1.085489371e-38
0.15976191 0.097135238 0.671 1.020846071e-38
0.1623181 0.097135238 0.671 1.048432734e-38
0.16359618 0.097135238 0.671 1.039356804e-38
0.16487429 0.097135238 0.671 1.039357224e-38
0.16615239 0.097135238 0.671 1.030174095e-38
0.16743048 0.097135238 0.671 1.020811319e-38
0.16896002 0.097280003 0.67200005 1.020775446e-38
0.17152001 0.097280003 0.67200005 1.030137521e-38
0.17331429 0.097569525 0.67400002 1.0485042e-38
0.1745981 0.097569525 0.67400002 1.057615583e-38
0.17716572 0.097569525 0.67400002 1.104035556e-38
0.17999999 0.097714283 0.67500001 1.140879056e-38
0.18412954 0.097859055 0.67600006 1.278705308e-38
0.19056764 0.097859055 0.67600006 1.205236911e-38
0.19314288 0.097859055 0.67600006 1.205309078e-38
0.1944305 0.097859055 0.67600006 1.205380824e-38
0.19629715 0.098148577 0.67800003 1.223891556e-38
0.19758859 0.098148577 0.67800003 1.242257114e-38
0.20176001 0.098293334 0.67900002 1.214704924e-38
0.20464762 0.098438092 0.68000001 1.214528921e-38
0.20594285 0.098438092 0.68000001 1.223674635e-38
0.20784764 0.098727629 0.68200004 1.23282035e-38
0.20914668 0.098727629 0.68200004 1.24200432e-38
0.21044573 0.098727629 0.68200004 1.232857064e-38
0.2133562 0.098872378 0.68300003 1.195979653e-38
0.21497142 0.099017143 0.68400002 1.177721575e-38
0.21627429 0.099017143 0.68400002 1.16846782e-38
0.22082667 0.099306673 0.68600005 1.113363439e-38
0.22213335 0.099306673 0.68600005 1.113184353e-38
0.23496 0.10032 0.69300002 9.845778047e-39
0.23794284 0.10046476 0.69400001 9.38623763e-39
0.080476195 0.095333338 0.65000004 1.002589394e-38
0.081714287 0.095333338 0.65000004 1.048614342e-38
0.086666673 0.095333338 0.65000004 1.297398909e-38
0.090659045 0.095626667 0.65200001 1.279281522e-38
0.091900952 0.095626667 0.65200001 1.24208013e-38
0.097462863 0.096213333 0.65600002 1.177397594e-38
0.098712385 0.096213333 0.65600002 1.159065808e-38
0.10011429 0.096359998 0.65700001 1.149774078e-38
0.10136571 0.096359998 0.65700001 1.140482488e-38
0.10277334 0.09650667 0.65800005 1.085273291e-38
0.10560001 0.096800007 0.66000003 1.076450715e-38
0.1082781 0.096946664 0.66100001 1.159247837e-38
0.10953714 0.096946664 0.66100001 1.195982455e-38
0.11474667 0.097093336 0.66200006 1.223891136e-38
0.12033334 0.097533338 0.66500002 1.149740727e-38
0.12286668 0.097533338 0.66500002 1.122188257e-38
0.12558857 0.097680002 0.66600001 1.067122131e-38
0.12812571 0.097680002 0.66600001 1.076378128e-38
0.13066286 0.097680002 0.66600001 1.112897928e-38
0.13212954 0.097826675 0.66700006 1.122404897e-38
0.13594095 0.097826675 0.66700006 1.140627943e-38
0.13762286 0.098119996 0.66900003 1.140735002e-38
0.14165714 0.098266669 0.67000002 1.177577521e-38
0.14698096 0.098413333 0.671 1.168035519e-38
0.15081523 0.098413333 0.671 1.131299499e-38
0.15209334 0.098413333 0.671 1.112896667e-38
0.15337144 0.098413333 0.671 1.094637327e-38
0.15592761 0.098413333 0.671 1.048754752e-38
0.15976191 0.098413333 0.671 9.106430556e-39
0.16103999 0.098413333 0.671 9.565256311e-39
0.1623181 0.098413333 0.671 1.002407366e-38
0.16640002 0.098560005 0.67200005 9.933317162e-39
0.17024001 0.098560005 0.67200005 1.002623166e-38
0.17152001 0.098560005 0.67200005 1.020990125e-38
0.1745981 0.098853335 0.67400002 1.057723903e-38
0.17742857 0.099000007 0.67500001 1.122331049e-38
0.1815543 0.099146679 0.67600006 1.140988497e-38
0.18670478 0.099146679 0.67600006 1.186977291e-38
0.18928002 0.099146679 0.67600006 1.177722556e-38
0.19185525 0.099146679 0.67600006 1.186833938e-38
0.19371429 0.099440001 0.67800003 1.186905825e-38
0.20046666 0.099586666 0.67900002 1.205521514e-38
0.20335238 0.09973333 0.68000001 1.214669191e-38
0.20464762 0.09973333 0.68000001 1.214741638e-38
0.20594285 0.09973333 0.68000001 1.214848697e-38
0.20914668 0.10002667 0.68200004 1.260586939e-38
0.21366857 0.10032 0.68400002 1.186939596e-38
0.21821335 0.10061333 0.68600005 1.140914509e-38
0.22245716 0.10076001 0.68700004 1.104036537e-38
0.22376572 0.10076001 0.68700004 1.094781801e-38
0.22868574 0.10120001 0.69000006 1.094673901e-38
0.23265523 0.10178667 0.69400001 1.03964407e-38
0.23496 0.10164 0.69300002 9.478796196e-39
0.23628001 0.10164 0.69300002 9.295482535e-39
0.080476195 0.096571438 0.65000004 9.474869757e-39
0.081714287 0.096571438 0.65000004 9.840415277e-39
0.082952388 0.096571438 0.65000004 1.030139623e-38
0.086666673 0.096571438 0.65000004 1.241973491e-38
0.089280002 0.096719995 0.65100002 1.269882873e-38
0.090659045 0.096868567 0.65200001 1.242116564e-38
0.097462863 0.097462863 0.65600002 1.177471303e-38
0.098712385 0.097462863 0.65600002 1.168106986e-38
0.10136571 0.097611435 0.65700001 1.140303683e-38
0.10685714 0.098057151 0.66000003 1.113185054e-38
0.10811429 0.098057151 0.66000003 1.14091549e-38
0.10937143 0.098057151 0.66000003 1.168394532e-38
0.11079619 0.098205715 0.66100001 1.177865348e-38
0.11744572 0.098502867 0.66300005 1.260338349e-38
0.11870858 0.098502867 0.66300005 1.195551416e-38
0.12413334 0.098800004 0.66500002 1.076305121e-38
0.13066286 0.098948576 0.66600001 1.11293296e-38
0.13467048 0.099097148 0.66700006 1.11314862e-38
0.13594095 0.099097148 0.66700006 1.1131482e-38
0.14017144 0.099394292 0.66900003 1.11325568e-38
0.14420952 0.099542864 0.67000002 1.131479986e-38
0.14548573 0.099542864 0.67000002 1.13151586e-38
0.14676191 0.099542864 0.67000002 1.13140838e-38
0.14825904 0.099691428 0.671 1.112969675e-38
0.14953715 0.099691428 0.671 1.103785424e-38
0.15081523 0.099691428 0.671 1.085453638e-38
0.15337144 0.099691428 0.671 1.048755313e-38
0.1572057 0.099691428 0.671 9.751788755e-39
0.15976191 0.099691428 0.671 8.095884169e-39
0.16103999 0.099691428 0.671 8.832364602e-39
0.1623181 0.099691428 0.671 9.566331107e-39
0.16359618 0.099691428 0.671 9.657807871e-39
0.16768001 0.099840008 0.67200005 9.564538846e-39
0.16896002 0.099840008 0.67200005 9.750722367e-39
0.17614286 0.10028572 0.67500001 1.067122552e-38
0.18854858 0.10073143 0.67800003 1.15020736e-38
0.19113143 0.10073143 0.67800003 1.15917553e-38
0.19371429 0.10073143 0.67800003 1.177721575e-38
0.19500573 0.10073143 0.67800003 1.186940857e-38
0.19658667 0.10088 0.67900002 1.205379703e-38
0.20046666 0.10088 0.67900002 1.205558649e-38
0.20335238 0.10102857 0.68000001 1.214849818e-38
0.20464762 0.10102857 0.68000001 1.214886812e-38
0.20914668 0.10132572 0.68200004 1.288103116e-38
0.21044573 0.10132572 0.68200004 1.242185648e-38
0.21366857 0.10162286 0.68400002 1.177756187e-38
0.21560001 0.10192001 0.68600005 1.159281748e-38
0.21690668 0.10192001 0.68600005 1.140879056e-38
0.21821335 0.10192001 0.68600005 1.122439229e-38
0.22441714 0.10236572 0.68900001 1.076414562e-38
0.22605716 0.10251429 0.69000006 1.06708808e-38
0.22901715 0.10266286 0.69100004 1.021205504e-38
0.23364 0.10296 0.69300002 9.294063019e-39
0.081714287 0.097809531 0.65000004 9.657451941e-39
0.08419048 0.097809531 0.65000004 1.030139623e-38
0.090520002 0.097960003 0.65100002 1.223533945e-38
0.091900952 0.098110475 0.65200001 1.205130832e-38
0.09314286 0.098110475 0.65200001 1.186583666e-38
0.097462863 0.098712385 0.65600002 1.149707376e-38
0.099961907 0.098712385 0.65600002 1.140304523e-38
0.10136571 0.098862857 0.65700001 1.131048947e-38
0.10402668 0.099013336 0.65800005 1.085274832e-38
0.10528 0.099013336 0.65800005 1.094709915e-38
0.10811429 0.099314287 0.66000003 1.12243965e-38
0.11205524 0.099464767 0.66100001 1.168501311e-38
0.11474667 0.099615246 0.66200006 1.186905264e-38
0.11600763 0.099615246 0.66200006 1.195945882e-38
0.11870858 0.099765718 0.66300005 1.168108107e-38
0.12286668 0.10006666 0.66500002 1.085453498e-38
0.12413334 0.10006666 0.66500002 1.067085558e-38
0.12558857 0.10021715 0.66600001 1.039284216e-38
0.12812571 0.10021715 0.66600001 1.112788487e-38
0.12939428 0.10021715 0.66600001 1.103712276e-38
0.13066286 0.10021715 0.66600001 1.085453217e-38
0.13467048 0.10036763 0.66700006 1.085525244e-38
0.14825904 0.10096952 0.671 1.048325674e-38
0.14953715 0.10096952 0.671 1.039105831e-38
0.15209334 0.10096952 0.671 1.011913494e-38
0.15337144 0.10096952 0.671 9.935463951e-39
0.15488 0.10112001 0.67200005 9.751790156e-39
0.15592761 0.10096952 0.671 9.659235794e-39
0.1572057 0.10096952 0.671 9.567045769e-39
0.15976191 0.10096952 0.671 8.646901349e-39
0.16103999 0.10096952 0.671 8.923841366e-39
0.16359618 0.10096952 0.671 9.290108555e-39
0.16615239 0.10096952 0.671 9.289749823e-39
0.16896002 0.10112001 0.67200005 9.382299981e-39
0.17024001 0.10112001 0.67200005 9.565970973e-39
0.17640382 0.10172191 0.67600006 1.002766098e-38
0.17769144 0.10172191 0.67600006 1.05779593e-38
0.17897905 0.10172191 0.67600006 1.112861494e-38
0.18080001 0.10202286 0.67800003 1.085454479e-38
0.18209144 0.10202286 0.67800003 1.067230732e-38
0.18338285 0.10202286 0.67800003 1.076486028e-38
0.18596572 0.10202286 0.67800003 1.094960467e-38
0.18725716 0.10202286 0.67800003 1.104144577e-38
0.18854858 0.10202286 0.67800003 1.113256941e-38
0.18984002 0.10202286 0.67800003 1.122404897e-38
0.19242287 0.10202286 0.67800003 1.14988366e-38
0.19529334 0.10217334 0.67900002 1.168322365e-38
0.20205714 0.10232381 0.68000001 1.187227143e-38
0.20335238 0.10232381 0.68000001 1.187228684e-38
0.20594285 0.10232381 0.68000001 1.177794863e-38
0.20784764 0.10262477 0.68200004 1.205308937e-38
0.20914668 0.10262477 0.68200004 1.232859726e-38
0.21236572 0.10292572 0.68400002 1.168430545e-38
0.21429335 0.10322668 0.68600005 1.150026452e-38
0.21560001 0.10322668 0.68600005 1.140842622e-38
0.21690668 0.10322668 0.68600005 1.131623059e-38
0.21984002 0.10337715 0.68700004 1.113182812e-38
0.22179238 0.10367809 0.68900001 1.103999823e-38
0.22310477 0.10367809 0.68900001 1.103821157e-38
0.22474287 0.10382858 0.69000006 1.112825761e-38
0.23496 0.10428 0.69300002 9.018213213e-39
0.23628001 0.10428 0.69300002 8.924582653e-39
0.080476195 0.099047624 0.65000004 1.058046342e-38
0.081714287 0.099047624 0.65000004 9.383013242e-39
0.087904766 0.099047624 0.65000004 1.195838542e-38
0.089280002 0.099200003 0.65100002 1.195982876e-38
0.090520002 0.099200003 0.65100002 1.205130412e-38
0.091900952 0.099352382 0.65200001 1.17754389e-38
0.09314286 0.099352382 0.65200001 1.158925118e-38
0.097314291 0.099809527 0.65500003 1.131266709e-38
0.098712385 0.099961907 0.65600002 1.131229434e-38
0.099961907 0.099961907 0.65600002 1.12200875e-38
0.10261714 0.10011429 0.65700001 1.112861074e-38
0.10811429 0.10057143 0.66000003 1.113184073e-38
0.10937143 0.10057143 0.66000003 1.131551172e-38
0.11744572 0.10102858 0.66300005 1.168214605e-38
0.11997144 0.10102858 0.66300005 1.103893324e-38
0.12539999 0.10133334 0.66500002 1.03921247e-38
0.12685713 0.10148571 0.66600001 1.094457821e-38
0.12812571 0.10148571 0.66600001 1.149559539e-38
0.12939428 0.10148571 0.66600001 1.103642352e-38
0.13340001 0.1016381 0.66700006 1.048719439e-38
0.13594095 0.1016381 0.66700006 1.067086118e-38
0.13889715 0.10194287 0.66900003 1.039464003e-38
0.14017144 0.10194287 0.66900003 1.020989564e-38
0.14548573 0.10209524 0.67000002 9.933674493e-39
0.14698096 0.10224762 0.671 9.840761398e-39
0.14825904 0.10224762 0.671 9.839685201e-39
0.14953715 0.10224762 0.671 9.840401264e-39
0.15360001 0.1024 0.67200005 9.475923534e-39
0.15488 0.1024 0.67200005 9.384086636e-39
0.16000001 0.1024 0.67200005 9.198270256e-39
0.16128001 0.1024 0.67200005 9.107512359e-39
0.16512001 0.1024 0.67200005 8.830928272e-39
0.17074667 0.10270476 0.67400002 9.19898632e-39
0.17203048 0.10270476 0.67400002 9.291180548e-39
0.17357142 0.10285714 0.67500001 9.383373376e-39
0.1751162 0.10300954 0.67600006 9.384089439e-39
0.17640382 0.10300954 0.67600006 9.475929139e-39
0.18209144 0.10331429 0.67800003 1.002837845e-38
0.18467429 0.10331429 0.67800003 1.02127669e-38
0.18854858 0.10331429 0.67800003 1.076450856e-38
0.19270667 0.10346667 0.67900002 1.131551733e-38
0.19817142 0.10361905 0.68000001 1.159354335e-38
0.19946666 0.10361905 0.68000001 1.159606429e-38
0.20205714 0.10361905 0.68000001 1.168752424e-38
0.20335238 0.10361905 0.68000001 1.168717391e-38
0.20464762 0.10361905 0.68000001 1.159534682e-38
0.20654857 0.10392382 0.68200004 1.150207219e-38
0.21429335 0.10453334 0.68600005 1.131551873e-38
0.22211429 0.10514286 0.69000006 1.094637187e-38
0.22342859 0.10514286 0.69000006 1.122080357e-38
0.22474287 0.10514286 0.69000006 1.158850568e-38
0.22770096 0.10529524 0.69100004 1.03035262e-38
0.22901715 0.10529524 0.69100004 9.753588022e-39
0.23033336 0.10529524 0.69100004 9.202577848e-39
0.23232 0.10560001 0.69300002 9.110029091e-39
0.23496 0.10560001 0.69300002 8.9263595e-39
0.078994282 0.099977143 0.648 1.132554502e-38
0.080476195 0.10028572 0.65000004 1.085919149e-38
0.087904766 0.10028572 0.65000004 1.131481107e-38
0.093285725 0.10074858 0.65300006 1.094424751e-38
0.094529532 0.10074858 0.65300006 1.085133301e-38
0.095773347 0.10074858 0.65300006 1.066693755e-38
0.099961907 0.10121143 0.65600002 1.066835286e-38
0.10261714 0.10136571 0.65700001 1.066943326e-38
0.10386857 0.10136571 0.65700001 1.057723763e-38
0.10653334 0.10152001 0.65800005 1.057902989e-38
0.10811429 0.10182858 0.66000003 1.067086679e-38
0.11079619 0.10198285 0.66100001 1.085525945e-38
0.11205524 0.10198285 0.66100001 1.085561538e-38
0.11600763 0.10213716 0.66200006 1.104036257e-38
0.11744572 0.10229144 0.66300005 1.103928497e-38
0.11870858 0.10229144 0.66300005 1.076341975e-38
0.12160001 0.1026 0.66500002 1.03953589e-38
0.12286668 0.1026 0.66500002 1.030316046e-38
0.12558857 0.10275428 0.66600001 1.020773764e-38
0.12685713 0.10275428 0.66600001 1.048468467e-38
0.13066286 0.10275428 0.66600001 1.011771543e-38
0.13212954 0.10290858 0.66700006 1.002622745e-38
0.13467048 0.10290858 0.66700006 1.002550438e-38
0.13721143 0.10290858 0.66700006 9.841111723e-39
0.13889715 0.10321715 0.66900003 9.657446336e-39
0.14017144 0.10321715 0.66900003 9.196122066e-39
0.14570287 0.10352571 0.671 9.009222482e-39
0.14698096 0.10352571 0.671 8.642235026e-39
0.14825904 0.10352571 0.671 8.918456176e-39
0.14976001 0.10368001 0.67200005 9.103201964e-39
0.15232 0.10368001 0.67200005 9.011722398e-39
0.15360001 0.10368001 0.67200005 8.828408737e-39
0.15534095 0.10398857 0.67400002 8.553618312e-39
0.15744001 0.10368001 0.67200005 9.013157328e-39
0.15872 0.10368001 0.67200005 8.828414342e-39
0.16176 0.10398857 0.67400002 8.644030089e-39
0.16817906 0.10398857 0.67400002 8.641877694e-39
0.171 0.10414285 0.67500001 8.921327437e-39
0.17228572 0.10414285 0.67500001 8.829133208e-39
0.17692572 0.10460572 0.67800003 8.73873124e-39
0.17821714 0.10460572 0.67800003 8.92276657e-39
0.18494667 0.10476 0.67900002 9.752151691e-39
0.18882667 0.10476 0.67900002 1.030174375e-38
0.19012001 0.10476 0.67900002 1.048577067e-38
0.19400001 0.10476 0.67900002 1.094815993e-38
0.19817142 0.10491429 0.68000001 1.104144017e-38
0.2007619 0.10491429 0.68000001 1.131803126e-38
0.20205714 0.10491429 0.68000001 1.131838999e-38
0.20784764 0.10522287 0.68200004 1.140950802e-38
0.20945334 0.10537715 0.68300003 1.159318042e-38
0.21298668 0.10584001 0.68600005 1.122619716e-38
0.21591429 0.10599429 0.68700004 1.058049004e-38
0.22638477 0.10661144 0.69100004 1.048719439e-38
0.22901715 0.10661144 0.69100004 9.202209306e-39
0.23033336 0.10661144 0.69100004 8.376051376e-39
0.23364 0.10692 0.69300002 8.743750691e-39
0.080476195 0.10152382 0.65000004 1.123083826e-38
0.081714287 0.10152382 0.65000004 1.085954882e-38
0.087904766 0.10152382 0.65000004 1.066262855e-38
0.089280002 0.10168 0.65100002 1.075806258e-38
0.090659045 0.10183619 0.65200001 1.085025821e-38
0.094529532 0.10199239 0.65300006 1.0207044e-38
0.095773347 0.10199239 0.65300006 1.011555883e-38
0.10528 0.10277334 0.65800005 1.021061451e-38
0.10811429 0.10308572 0.66000003 1.030209267e-38
0.11079619 0.10324191 0.66100001 1.030424647e-38
0.11205524 0.10324191 0.66100001 1.03046024e-38
0.11474667 0.1033981 0.66200006 1.076377708e-38
0.11870858 0.10355429 0.66300005 1.02116851e-38
0.12286668 0.10386667 0.66500002 9.934380747e-39
0.12431999 0.10402285 0.66600001 9.932226952e-39
0.12558857 0.10402285 0.66600001 1.002406665e-38
0.12939428 0.10402285 0.66600001 9.935477964e-39
0.13066286 0.10402285 0.66600001 9.658529539e-39
0.13340001 0.10417905 0.66700006 9.565968171e-39
0.13721143 0.10417905 0.66700006 9.196831123e-39
0.13889715 0.10449143 0.66900003 9.013520264e-39
0.14165714 0.10464762 0.67000002 7.449448371e-39
0.14420952 0.10464762 0.67000002 8.731915325e-39
0.14570287 0.10480381 0.671 8.088349387e-39
0.14698096 0.10480381 0.671 7.539487403e-39
0.14976001 0.10496001 0.67200005 8.4571249e-39
0.15662476 0.10527238 0.67400002 8.181975742e-39
0.15790857 0.10527238 0.67400002 8.640801497e-39
0.15919238 0.10527238 0.67400002 8.457138913e-39
0.16432762 0.10527238 0.67400002 7.906106318e-39
0.16561145 0.10527238 0.67400002 7.538768537e-39
0.17254096 0.10558476 0.67600006 8.366364199e-39
0.17589334 0.10605334 0.67900002 8.001170405e-39
0.17718667 0.10605334 0.67900002 8.000815877e-39
0.17848 0.10605334 0.67900002 8.184489672e-39
0.17977335 0.10605334 0.67900002 8.369952925e-39
0.18236001 0.10605334 0.67900002 8.64797054e-39
0.18494667 0.10605334 0.67900002 9.383734911e-39
0.18882667 0.10605334 0.67900002 9.932966837e-39
0.19169523 0.10620952 0.68000001 1.020990265e-38
0.19299047 0.10620952 0.68000001 1.03942855e-38
0.19428571 0.10620952 0.68000001 1.048862652e-38
0.19558094 0.10620952 0.68000001 1.067158145e-38
0.19817142 0.10620952 0.68000001 1.058048023e-38
0.19946666 0.10620952 0.68000001 1.07659603e-38
0.2007619 0.10620952 0.68000001 1.104109965e-38
0.20395048 0.10652191 0.68200004 1.113328547e-38
0.20654857 0.10652191 0.68200004 1.122583983e-38
0.21106285 0.10683428 0.68400002 1.122727616e-38
0.21298668 0.10714667 0.68600005 1.113292394e-38
0.21429335 0.10714667 0.68600005 1.058047183e-38
0.21591429 0.10730286 0.68700004 1.002946165e-38
0.21722287 0.10730286 0.68700004 1.030568981e-38
0.21948573 0.10777144 0.69000006 1.067266745e-38
0.22342859 0.10777144 0.69000006 1.085561818e-38
0.22506858 0.10792762 0.69100004 1.057975156e-38
0.22638477 0.10792762 0.69100004 1.012021534e-38
0.081714287 0.10276191 0.65000004 1.104931967e-38
0.082952388 0.10276191 0.65000004 1.095426399e-38
0.08419048 0.10276191 0.65000004 1.076522042e-38
0.086666673 0.10276191 0.65000004 1.05736489e-38
0.088040002 0.10292 0.65100002 1.066298168e-38
0.093285725 0.1032362 0.65300006 9.197569607e-39
0.096066669 0.10355239 0.65500003 9.743903648e-39
0.098712385 0.10371048 0.65600002 9.836453807e-39
0.10685714 0.10434286 0.66000003 9.561313057e-39
0.10811429 0.10434286 0.66000003 9.471629955e-39
0.11348572 0.10465906 0.66200006 1.002622745e-38
0.11474667 0.10465906 0.66200006 1.021025297e-38
0.11618286 0.10481714 0.66300005 1.002622045e-38
0.12160001 0.10513334 0.66500002 9.566677228e-39
0.13340001 0.10544953 0.66700006 9.197547186e-39
0.13594095 0.10544953 0.66700006 8.830206603e-39
0.14017144 0.10576572 0.66900003 8.644021681e-39
0.14420952 0.10592381 0.67000002 8.920963099e-39
0.14848 0.10624 0.67200005 8.459277294e-39
0.15148953 0.10655619 0.67400002 8.645100681e-39
0.15814286 0.10671429 0.67500001 9.290475695e-39
0.15919238 0.10655619 0.67400002 9.01246929e-39
0.1632857 0.10671429 0.67500001 8.731560796e-39
0.1686781 0.10687239 0.67600006 8.554337178e-39
0.17046857 0.10718857 0.67800003 8.55146872e-39
0.17589334 0.10734667 0.67900002 7.358679263e-39
0.17744762 0.10750476 0.68000001 7.818934343e-39
0.17874286 0.10750476 0.68000001 7.909337712e-39
0.1839238 0.10750476 0.68000001 8.646178279e-39
0.18521903 0.10750476 0.68000001 9.012089538e-39
0.18651427 0.10750476 0.68000001 9.196124868e-39
0.18780951 0.10750476 0.68000001 9.380157396e-39
0.19169523 0.10750476 0.68000001 9.841843201e-39
0.1987543 0.10782096 0.68200004 1.002768621e-38
0.20265144 0.10782096 0.68200004 1.05811963e-38
0.20395048 0.10782096 0.68200004 1.067375066e-38
0.20524953 0.10782096 0.68200004 1.085706572e-38
0.20654857 0.10782096 0.68200004 1.104073671e-38
0.20815238 0.10797905 0.68300003 1.122369024e-38
0.21037334 0.10845334 0.68600005 1.149847786e-38
0.21168002 0.10845334 0.68600005 1.13151656e-38
0.21298668 0.10845334 0.68600005 1.113184494e-38
0.21460572 0.10861143 0.68700004 1.076413721e-38
0.21591429 0.10861143 0.68700004 1.039714835e-38
0.22375239 0.10924382 0.69100004 1.085562659e-38
0.22704001 0.10956 0.69300002 9.752877564e-39
0.22836 0.10956 0.69300002 9.291902217e-39
0.22968 0.10956 0.69300002 8.649050941e-39
0.081714287 0.104 0.65000004 1.132734008e-38
0.082952388 0.104 0.65000004 1.141451907e-38
0.086666673 0.104 0.65000004 1.07684406e-38
0.090798102 0.10448001 0.65300006 1.011843009e-38
0.09204191 0.10448001 0.65300006 9.108958499e-39
0.093285725 0.10448001 0.65300006 8.096970175e-39
0.096066669 0.10480001 0.65500003 9.468394357e-39
0.097462863 0.10496 0.65600002 9.470898478e-39
0.10011429 0.10512 0.65700001 9.286162498e-39
0.10136571 0.10512 0.65700001 9.194328404e-39
0.10277334 0.10528 0.65800005 8.551481332e-39
0.10402668 0.10528 0.65800005 8.002257813e-39
0.10560001 0.10560001 0.66000003 8.458202498e-39
0.11079619 0.10576 0.66100001 8.920248437e-39
0.11205524 0.10576 0.66100001 9.379786051e-39
0.11348572 0.10592001 0.66200006 9.47198028e-39
0.11618286 0.10608001 0.66300005 9.566682833e-39
0.11744572 0.10608001 0.66300005 9.474128471e-39
0.11870858 0.10608001 0.66300005 9.381934242e-39
0.12431999 0.10656 0.66600001 8.55146872e-39
0.12812571 0.10656 0.66600001 9.015311123e-39
0.13085905 0.10672001 0.66700006 7.455541217e-39
0.13634858 0.10704 0.66900003 8.371743784e-39
0.13762286 0.10704 0.66900003 8.740164769e-39
0.14017144 0.10704 0.66900003 9.015667053e-39
0.14293334 0.1072 0.67000002 9.01890125e-39
