# .PCD v0.7 - Point Cloud Data file format
VERSION 0.7
FIELDS x y z rgb
SIZE 4 4 4 4
TYPE F F F F
COUNT 1 1 1 1
WIDTH 940
HEIGHT 1
VIEWPOINT 0 0 0 1 0 0 0
POINTS 940
DATA ascii
0.25914666 -0.040679999 0.79100001 1.408283096e-38
0.26216 -0.040679999 0.79100001 1.334203453e-38
0.26517335 -0.040679999 0.79100001 1.251191653e-38
0.26969334 -0.040679999 0.79100001 1.241935656e-38
0.27421334 -0.040679999 0.79100001 1.297002202e-38
0.27722669 -0.040679999 0.79100001 1.260338349e-38
0.27873334 -0.040679999 0.79100001 1.232823293e-38
0.28396955 -0.040782858 0.79300004 1.113366102e-38
0.28620002 -0.040885713 0.79500002 1.104183533e-38
0.29147431 -0.040988572 0.79700005 1.21438753e-38
0.29640001 -0.041040003 0.79800004 1.325235563e-38
0.29792002 -0.041040003 0.79800004 1.352821665e-38
0.3017143 -0.041142859 0.80000001 1.380225598e-38
0.30323809 -0.041142859 0.80000001 1.398773324e-38
0.30552381 -0.041245718 0.80200005 1.398846332e-38
0.30705145 -0.041245718 0.80200005 1.398990105e-38
0.31011811 -0.041451432 0.80600005 1.362184441e-38
0.31242666 -0.041554287 0.80800003 1.334598059e-38
0.32134289 -0.041914288 0.81500006 1.34378371e-38
0.32289526 -0.041914288 0.81500006 1.178048217e-38
0.24432193 -0.040460952 0.81700003 7.62953204e-39
0.2465257 -0.04031238 0.81400001 7.538421015e-39
0.24746668 -0.040213335 0.81200004 6.615399729e-39
0.25376001 -0.039272383 0.79300004 1.417072461e-38
0.25527051 -0.039272383 0.79300004 1.527310789e-38
0.25613335 -0.039173331 0.79100001 1.472388858e-38
0.25764 -0.039173331 0.79100001 1.426507964e-38
0.25914666 -0.039173331 0.79100001 1.417576648e-38
0.26216 -0.039173331 0.79100001 1.371224497e-38
0.26366666 -0.039173331 0.79100001 1.333987793e-38
0.26517335 -0.039173331 0.79100001 1.315476781e-38
0.27270669 -0.039173331 0.79100001 1.361214182e-38
0.28094858 -0.039272383 0.79300004 1.084989528e-38
0.28245905 -0.039272383 0.79300004 9.66034282e-39
0.28692001 -0.039470479 0.79700005 9.571032463e-39
0.28880003 -0.039520003 0.79800004 1.030464864e-38
0.29032004 -0.039520003 0.79800004 1.113152684e-38
0.29640001 -0.039520003 0.79800004 1.269990492e-38
0.30019048 -0.039619051 0.80000001 1.325126682e-38
0.30323809 -0.039619051 0.80000001 1.352784951e-38
0.30552381 -0.039718099 0.80200005 1.362112694e-38
0.30781716 -0.039817143 0.80400002 1.371332397e-38
0.30934858 -0.039817143 0.80400002 1.334634492e-38
0.31552002 -0.040213335 0.81200004 1.362184861e-38
0.31706667 -0.040213335 0.81200004 1.435654099e-38
0.31979051 -0.040361907 0.81500006 1.407996811e-38
0.32289526 -0.040361907 0.81500006 1.251767447e-38
0.23901144 -0.039571431 0.83100003 1.428130387e-38
0.24395429 -0.039095242 0.82100004 9.654566667e-39
0.24492002 -0.039000005 0.81900007 8.458558428e-39
0.2452762 -0.038809527 0.81500006 8.090145851e-39
0.24682859 -0.038809527 0.81500006 7.720299746e-39
0.24962667 -0.038761906 0.81400001 5.791751524e-39
0.2474743 -0.038190477 0.80200005 7.825755864e-39
0.24900192 -0.038190477 0.80200005 9.851541587e-39
0.24896763 -0.037952382 0.79700005 1.048544557e-38
0.24985714 -0.037857141 0.79500002 1.112722345e-38
0.25527051 -0.037761904 0.79300004 1.453806239e-38
0.25613335 -0.037666667 0.79100001 1.435546899e-38
0.25764 -0.037666667 0.79100001 1.417361549e-38
0.25914666 -0.037666667 0.79100001 1.398960958e-38
0.26065335 -0.037666667 0.79100001 1.371407087e-38
0.27339619 -0.037761904 0.79300004 1.269377845e-38
0.27490667 -0.037761904 0.79300004 1.177505915e-38
0.28245905 -0.037761904 0.79300004 9.10574392e-39
0.28952381 -0.038095236 0.80000001 1.002662963e-38
0.29561904 -0.038095236 0.80000001 1.186656254e-38
0.30094096 -0.038190477 0.80200005 1.288465211e-38
0.30246857 -0.038190477 0.80200005 1.315944114e-38
0.31088763 -0.038476191 0.80800003 1.362185842e-38
0.31397337 -0.038666669 0.81200004 1.334670646e-38
0.31784761 -0.038761906 0.81400001 1.417322452e-38
0.31979051 -0.038809527 0.81500006 1.389700197e-38
0.32444763 -0.038809527 0.81500006 1.205452571e-38
0.23901144 -0.037988573 0.83100003 1.409545666e-38
0.24001525 -0.037897147 0.82900006 1.399714156e-38
0.24141334 -0.037622858 0.82300001 1.233613205e-38
0.24395429 -0.037531428 0.82100004 1.002586171e-38
0.24587809 -0.037348576 0.81700003 8.642595159e-39
0.24743429 -0.037348576 0.81700003 7.998311756e-39
0.24899048 -0.037348576 0.81700003 6.894850873e-39
0.24993335 -0.037257146 0.81500006 5.79534025e-39
0.25148574 -0.037257146 0.81500006 6.899882936e-39
0.24682859 -0.036342856 0.79500002 8.093754195e-39
0.25073904 -0.036251429 0.79300004 1.11311583e-38
0.25462666 -0.036160003 0.79100001 1.380264554e-38
0.25613335 -0.036160003 0.79100001 1.39870396e-38
0.25764 -0.036160003 0.79100001 1.417144207e-38
0.26216 -0.036160003 0.79100001 1.33395178e-38
0.26366666 -0.036160003 0.79100001 1.334022966e-38
0.26969334 -0.036160003 0.79100001 1.269627976e-38
0.27270669 -0.036160003 0.79100001 1.186509398e-38
0.27641714 -0.036251429 0.79300004 9.099623048e-39
0.28165716 -0.036342856 0.79500002 7.909716062e-39
0.28388384 -0.036434289 0.79700005 8.551847071e-39
0.28944001 -0.036754288 0.80400002 9.197576613e-39
0.29097146 -0.036754288 0.80400002 9.749318266e-39
0.29250288 -0.036754288 0.80400002 1.039288e-38
0.29556569 -0.036754288 0.80400002 1.113222889e-38
0.29709715 -0.036754288 0.80400002 1.159105184e-38
0.29941335 -0.036662858 0.80200005 1.233040494e-38
0.30169141 -0.036754288 0.80400002 1.260878409e-38
0.30322286 -0.036754288 0.80400002 1.306760564e-38
0.30475429 -0.036754288 0.80400002 1.352678592e-38
0.30704764 -0.036845718 0.80600005 1.371010099e-38
0.30858287 -0.036845718 0.80600005 1.398705362e-38
0.31165716 -0.037028577 0.81000006 1.389558946e-38
0.31397337 -0.03712 0.81200004 1.380553642e-38
0.31823811 -0.037257146 0.81500006 1.398955493e-38
0.32134289 -0.037257146 0.81500006 1.352929845e-38
0.32289526 -0.037257146 0.81500006 1.325235703e-38
0.32444763 -0.037257146 0.81500006 1.297469535e-38
0.23641336 -0.036493339 0.83300006 1.400902457e-38
0.23742858 -0.036405716 0.83100003 1.36373806e-38
0.24042858 -0.036142856 0.82500005 1.169185985e-38
0.24141334 -0.036055241 0.82300001 1.104325064e-38
0.24960001 -0.035880003 0.81900007 7.727097445e-39
0.25210285 -0.035792381 0.81700003 7.72713528e-39
0.24922857 -0.034740951 0.79300004 9.746793126e-39
0.25613335 -0.034653336 0.79100001 1.233363073e-38
0.26517335 -0.034653336 0.79100001 1.260588761e-38
0.26668 -0.034653336 0.79100001 1.223674495e-38
0.27188572 -0.034740951 0.79300004 9.754653009e-39
0.27641714 -0.034740951 0.79300004 7.62774118e-39
0.28860003 -0.035880003 0.81900007 7.539135677e-39
0.28838858 -0.035660952 0.81400001 8.000825686e-39
0.29005715 -0.035485715 0.81000006 8.736931973e-39
0.2932305 -0.035310481 0.80600005 1.066909134e-38
0.2940343 -0.035222858 0.80400002 1.103714659e-38
0.29862857 -0.035222858 0.80400002 1.251084033e-38
0.30169141 -0.035222858 0.80400002 1.306795877e-38
0.30322286 -0.035222858 0.80400002 1.334347086e-38
0.3055124 -0.035310481 0.80600005 1.371117578e-38
0.30934858 -0.0353981 0.80800003 1.426257131e-38
0.31319621 -0.035660952 0.81400001 1.40796374e-38
0.31668574 -0.035704762 0.81500006 1.380553221e-38
0.31979051 -0.035704762 0.81500006 1.362077522e-38
0.32524383 -0.035792381 0.81700003 1.279283764e-38
0.23742858 -0.034822859 0.83100003 1.2900505e-38
0.23901144 -0.034822859 0.83100003 1.234049289e-38
0.24141334 -0.03448762 0.82300001 9.752178316e-39
0.24298096 -0.03448762 0.82300001 1.011915176e-38
0.24395429 -0.034403808 0.82100004 9.753593627e-39
0.25010666 -0.033146668 0.79100001 9.7442834e-39
0.25548571 -0.03306286 0.78900003 1.068058479e-38
0.25698858 -0.03306286 0.78900003 1.104433805e-38
0.27037525 -0.033230476 0.79300004 8.36600827e-39
0.27188572 -0.033230476 0.79300004 7.258595724e-39
0.27339619 -0.033230476 0.79300004 6.155494975e-39
0.28530666 -0.03448762 0.82300001 6.154420179e-39
0.28617716 -0.034403808 0.82100004 6.249128337e-39
0.28789523 -0.034236193 0.81700003 7.814283433e-39
0.28838858 -0.034110479 0.81400001 8.000466954e-39
0.29241905 -0.033859048 0.80800003 1.002373174e-38
0.29476574 -0.03377524 0.80600005 1.140557037e-38
0.29937145 -0.03377524 0.80600005 1.297396387e-38
0.30244192 -0.03377524 0.80600005 1.361932767e-38
0.30397716 -0.03377524 0.80600005 1.371152611e-38
0.30780953 -0.033859048 0.80800003 1.426469428e-38
0.31011429 -0.03394286 0.81000006 1.463241181e-38
0.31319621 -0.034110479 0.81400001 1.426544538e-38
0.31668574 -0.034152381 0.81500006 1.380516928e-38
0.31823811 -0.034152381 0.81500006 1.371154432e-38
0.32213143 -0.034236193 0.81700003 1.35275104e-38
0.32368761 -0.034236193 0.81700003 1.306796437e-38
0.23685715 -0.033160001 0.82900006 1.178588418e-38
0.23984571 -0.032920003 0.82300001 9.38269795e-39
0.24141334 -0.032920003 0.82300001 9.568154196e-39
0.24239048 -0.032840002 0.82100004 9.659978482e-39
0.24648002 -0.032760002 0.81900007 9.105365569e-39
0.24804002 -0.032760002 0.81900007 8.923125303e-39
0.24960001 -0.032760002 0.81900007 8.831287004e-39
0.25116003 -0.032760002 0.81900007 8.740915865e-39
0.25521526 -0.032680001 0.81700003 9.198260447e-39
0.25010666 -0.031640001 0.79100001 9.747513393e-39
0.25312001 -0.031640001 0.79100001 9.930817245e-39
0.25462666 -0.031640001 0.79100001 9.748226654e-39
0.25764 -0.031640001 0.79100001 1.067339613e-38
0.25849143 -0.03156 0.78900003 1.094889701e-38
0.26149717 -0.03156 0.78900003 1.094351743e-38
0.26300001 -0.03156 0.78900003 1.066227402e-38
0.26668 -0.031640001 0.79100001 9.561318662e-39
0.28174856 -0.033240002 0.83100003 8.732279662e-39
0.28491428 -0.033240002 0.83100003 7.167123165e-39
0.28649715 -0.033240002 0.83100003 6.430282597e-39
0.28687429 -0.032920003 0.82300001 6.064376943e-39
0.28789523 -0.032680001 0.81700003 7.446581315e-39
0.28993905 -0.032559998 0.81400001 8.095891175e-39
0.29077333 -0.032480001 0.81200004 8.464668089e-39
0.29160002 -0.032400005 0.81000006 8.924207105e-39
0.29241905 -0.03232 0.80800003 1.002731346e-38
0.29549715 -0.03232 0.80800003 1.140593471e-38
0.2970362 -0.03232 0.80800003 1.177364243e-38
0.30319241 -0.03232 0.80800003 1.315979006e-38
0.30473143 -0.03232 0.80800003 1.334382259e-38
0.31088001 -0.032480001 0.81200004 1.417214552e-38
0.31629714 -0.032559998 0.81400001 1.361970042e-38
0.31823811 -0.032600004 0.81500006 1.352787894e-38
0.31979051 -0.032600004 0.81500006 1.361937112e-38
0.32444763 -0.032600004 0.81500006 1.260950155e-38
0.34 -0.034000002 0.85000002 1.270062099e-38
0.3424305 -0.033920001 0.84800005 1.141494926e-38
0.23685715 -0.031580955 0.82900006 1.077317839e-38
0.24141334 -0.031352382 0.82300001 9.292273561e-39
0.24298096 -0.031352382 0.82300001 9.291909223e-39
0.2455181 -0.031276189 0.82100004 9.103569105e-39
0.25177333 -0.031276189 0.82100004 9.016768474e-39
0.25272003 -0.031200001 0.81900007 9.200457683e-39
0.25584 -0.031200001 0.81900007 9.56704717e-39
0.25740001 -0.031200001 0.81900007 9.658539348e-39
0.25312001 -0.030133333 0.79100001 9.562749388e-39
0.25698858 -0.030057143 0.78900003 1.039429671e-38
0.25849143 -0.030057143 0.78900003 1.039500997e-38
0.2599943 -0.030057143 0.78900003 1.048648674e-38
0.26300001 -0.030057143 0.78900003 8.732286669e-39
0.26450288 -0.030057143 0.78900003 8.274545519e-39
0.28016573 -0.031657144 0.83100003 7.906841999e-39
0.28242669 -0.031733338 0.83300006 7.631331307e-39
0.28649715 -0.031657144 0.83100003 6.800498645e-39
0.28687429 -0.031352382 0.82300001 5.974696644e-39
0.28774098 -0.031276189 0.82100004 6.526429889e-39
0.28789523 -0.03112381 0.81700003 7.170716094e-39
0.28874287 -0.031047622 0.81500006 7.540572008e-39
0.28993905 -0.031009525 0.81400001 8.002620749e-39
0.29468572 -0.030857144 0.81000006 1.131446075e-38
0.29549715 -0.030780952 0.80800003 1.149920233e-38
0.2970362 -0.030780952 0.80800003 1.177507316e-38
0.29783621 -0.030704763 0.80600005 1.205094539e-38
0.30090669 -0.030704763 0.80600005 1.251586539e-38
0.30627048 -0.030780952 0.80800003 1.325126963e-38
0.31088001 -0.030933335 0.81200004 1.371224918e-38
0.33758476 -0.032304764 0.84800005 1.251729752e-38
0.34404573 -0.032304764 0.84800005 1.251841015e-38
0.23584573 -0.030074287 0.83100003 1.418328865e-38
0.23685715 -0.030001907 0.82900006 1.160112998e-38
0.23728572 -0.029857146 0.82500005 9.024699823e-39
0.23885716 -0.029857146 0.82500005 9.106835531e-39
0.23984571 -0.029784761 0.82300001 9.292637899e-39
0.24298096 -0.029784761 0.82300001 8.924200099e-39
0.2455181 -0.029712383 0.82100004 9.10643476e-39
0.24708191 -0.029712383 0.82100004 9.014596461e-39
0.24864571 -0.029712383 0.82100004 9.014955194e-39
0.25740001 -0.029640002 0.81900007 1.030139763e-38
0.25896001 -0.029640002 0.81900007 1.020993628e-38
0.26052001 -0.029640002 0.81900007 1.021170892e-38
0.26272002 -0.029712383 0.82100004 1.002873578e-38
0.26428384 -0.029712383 0.82100004 9.845787856e-39
0.26649523 -0.029784761 0.82300001 1.021241798e-38
0.26806286 -0.029784761 0.82300001 1.057939703e-38
0.27119809 -0.029784761 0.82300001 1.039141845e-38
0.27475429 -0.030001907 0.82900006 9.65565968e-39
0.27633336 -0.030001907 0.82900006 9.012092341e-39
0.28242669 -0.03014667 0.83300006 7.723169606e-39
0.28718668 -0.03014667 0.83300006 7.076725401e-39
0.28738669 -0.030001907 0.82900006 6.801218912e-39
0.28860003 -0.029640002 0.81900007 7.170357361e-39
0.29029527 -0.029495239 0.81500006 7.909710457e-39
0.29304001 -0.029459048 0.81400001 8.830243037e-39
0.29468572 -0.029314287 0.81000006 1.067197942e-38
0.29622862 -0.029314287 0.81000006 1.103966332e-38
0.3001143 -0.029241905 0.80800003 1.214314102e-38
0.30319241 -0.029241905 0.80800003 1.233147974e-38
0.30778667 -0.029386668 0.81200004 1.278958382e-38
0.31319621 -0.029459048 0.81400001 1.3159081e-38
0.31629714 -0.029459048 0.81400001 1.315871106e-38
0.31784761 -0.029459048 0.81400001 1.325162416e-38
0.31979051 -0.029495239 0.81500006 1.325090809e-38
0.32289526 -0.029495239 0.81500006 1.288391083e-38
0.3424305 -0.030689526 0.84800005 1.279282783e-38
0.34404573 -0.030689526 0.84800005 1.25191164e-38
0.3464762 -0.030761903 0.85000002 1.215213455e-38
0.34809524 -0.030761903 0.85000002 1.178519894e-38
0.23885716 -0.028285714 0.82500005 8.647631426e-39
0.23984571 -0.028217142 0.82300001 9.198991925e-39
0.24395429 -0.028148573 0.82100004 8.832004469e-39
0.24864571 -0.028148573 0.82100004 8.9231225e-39
0.25333714 -0.028148573 0.82100004 9.473776745e-39
0.2580286 -0.028148573 0.82100004 1.103607599e-38
0.26428384 -0.028148573 0.82100004 1.0488279e-38
0.26897526 -0.028148573 0.82100004 1.057941104e-38
0.27342859 -0.028285714 0.82500005 9.841121532e-39
0.27633336 -0.028422859 0.82900006 9.287594625e-39
0.28469527 -0.028628573 0.83500004 7.721007402e-39
0.28560004 -0.028560003 0.83300006 7.536976276e-39
0.28930476 -0.028148573 0.82100004 7.261832724e-39
0.29459047 -0.027908571 0.81400001 9.566003203e-39
0.29541335 -0.027840002 0.81200004 1.011880003e-38
0.29777145 -0.02777143 0.81000006 1.113185474e-38
0.29931432 -0.02777143 0.81000006 1.14999184e-38
0.30085716 -0.02777143 0.81000006 1.186762472e-38
0.30240002 -0.02777143 0.81000006 1.186834919e-38
0.30623999 -0.027840002 0.81200004 1.214636961e-38
0.31009525 -0.027908571 0.81400001 1.260734075e-38
0.31358096 -0.027942859 0.81500006 1.279101455e-38
0.31513333 -0.027942859 0.81500006 1.279101174e-38
0.31746286 -0.028011428 0.81700003 1.288320457e-38
0.31901905 -0.028011428 0.81700003 1.306688397e-38
0.31979051 -0.027942859 0.81500006 1.279138729e-38
0.32370859 -0.028148573 0.82100004 1.260770649e-38
0.33960953 -0.02897143 0.84500003 1.343493501e-38
0.34121904 -0.02897143 0.84500003 1.297684494e-38
0.34404573 -0.029074287 0.84800005 1.260915263e-38
0.35053715 -0.029211432 0.85200006 1.187881829e-38
0.23685715 -0.026843812 0.82900006 1.427903237e-38
0.23728572 -0.026714286 0.82500005 1.159425661e-38
0.24042858 -0.026714286 0.82500005 8.64437621e-39
0.24200001 -0.026714286 0.82500005 8.645811139e-39
0.24298096 -0.026649524 0.82300001 8.647250273e-39
0.24611619 -0.026649524 0.82300001 9.289388288e-39
0.24768379 -0.026649524 0.82300001 9.106797696e-39
0.25020951 -0.026584763 0.82100004 9.198993326e-39
0.25177333 -0.026584763 0.82100004 9.290461682e-39
0.25490096 -0.026584763 0.82100004 9.843985786e-39
0.25646478 -0.026584763 0.82100004 1.021133478e-38
0.2611562 -0.026584763 0.82100004 1.048756714e-38
0.26428384 -0.026584763 0.82100004 1.057975716e-38
0.26584762 -0.026584763 0.82100004 1.076307503e-38
0.26741144 -0.026584763 0.82100004 1.103859413e-38
0.27119809 -0.026649524 0.82300001 1.039430372e-38
0.27633336 -0.026843812 0.82900006 9.196113658e-39
0.28469527 -0.027038096 0.83500004 7.720641663e-39
0.28787622 -0.027038096 0.83500004 7.351506017e-39
0.28808001 -0.026908573 0.83100003 7.260745316e-39
0.28896573 -0.026843812 0.82900006 7.076719795e-39
0.2898438 -0.026779048 0.82700002 7.16927696e-39
0.29000953 -0.026649524 0.82300001 7.261831323e-39
0.29339999 -0.026390478 0.81500006 8.735152324e-39
0.29614094 -0.026358096 0.81400001 9.657096011e-39
0.29696 -0.026293335 0.81200004 1.021025858e-38
0.30005333 -0.026293335 0.81200004 1.113185054e-38
0.30314669 -0.026293335 0.81200004 1.159319303e-38
0.30854478 -0.026358096 0.81400001 1.205452851e-38
0.31047621 -0.026390478 0.81500006 1.223783656e-38
0.31202862 -0.026390478 0.81500006 1.242115163e-38
0.31590667 -0.02645524 0.81700003 1.223748484e-38
0.31746286 -0.02645524 0.81700003 1.242115723e-38
0.32136002 -0.026520003 0.81900007 1.242190833e-38
0.33240381 -0.02716762 0.83900005 1.233076507e-38
0.33800003 -0.027361905 0.84500003 1.26977203e-38
0.33960953 -0.027361905 0.84500003 1.306507209e-38
0.34404573 -0.027459048 0.84800005 1.279245929e-38
0.35218287 -0.027718097 0.85600007 1.215103874e-38
0.35464001 -0.027782857 0.85800004 1.23394265e-38
0.35544384 -0.027718097 0.85600007 1.215903875e-38
0.23584573 -0.025325716 0.83100003 1.741519718e-38
0.23742858 -0.025325716 0.83100003 1.622094197e-38
0.23786096 -0.025203809 0.82700002 1.500333692e-38
0.24101144 -0.025203809 0.82700002 8.185560264e-39
0.24454857 -0.025081905 0.82300001 9.107868288e-39
0.24611619 -0.025081905 0.82300001 9.473420815e-39
0.25177333 -0.025020953 0.82100004 9.383378981e-39
0.25333714 -0.025020953 0.82100004 9.662830124e-39
0.25490096 -0.025020953 0.82100004 9.935472359e-39
0.26428384 -0.025020953 0.82100004 1.067123533e-38
0.26584762 -0.025020953 0.82100004 1.094638308e-38
0.26676002 -0.024960002 0.81900007 1.131444814e-38
0.27053905 -0.025020953 0.82100004 1.048756574e-38
0.27633336 -0.025264764 0.82900006 9.195041665e-39
0.28378287 -0.025508571 0.83700001 7.998303349e-39
0.28537714 -0.025508571 0.83700001 7.813917694e-39
0.28628573 -0.02544762 0.83500004 7.626663582e-39
0.28966284 -0.025325716 0.83100003 7.170347552e-39
0.29054478 -0.025264764 0.82900006 7.262543182e-39
0.29157713 -0.025081905 0.82300001 7.5405636e-39
0.29412001 -0.024899049 0.81700003 8.45965004e-39
0.29495239 -0.024838097 0.81500006 8.830226221e-39
0.29650477 -0.024838097 0.81500006 9.289756829e-39
0.2976914 -0.024807619 0.81400001 9.841483067e-39
0.30079237 -0.024807619 0.81400001 1.085598392e-38
0.30314669 -0.024746668 0.81200004 1.140988077e-38
0.30469334 -0.024746668 0.81200004 1.150171767e-38
0.30699429 -0.024807619 0.81400001 1.15939133e-38
0.30854478 -0.024807619 0.81400001 1.177758148e-38
0.31202862 -0.024838097 0.81500006 1.205344671e-38
0.31824005 -0.024960002 0.81900007 1.196305455e-38
0.31980002 -0.024960002 0.81900007 1.233005041e-38
0.32214478 -0.025020953 0.82100004 1.205455794e-38
0.32449716 -0.025081905 0.82300001 1.187123867e-38
0.33720002 -0.025691429 0.84300005 1.251513111e-38
0.33960953 -0.025752382 0.84500003 1.279100474e-38
0.34121904 -0.025752382 0.84500003 1.28846423e-38
0.34729147 -0.025965717 0.85200006 1.269990773e-38
0.34973332 -0.026026668 0.85400003 1.242368377e-38
0.35627431 -0.026148573 0.85800004 1.196669512e-38
0.35874283 -0.026209524 0.86000001 1.142074644e-38
0.23698096 -0.023857143 0.83500004 1.648290491e-38
0.24258667 -0.023628572 0.82700002 8.367087269e-39
0.2441619 -0.023628572 0.82700002 8.554704318e-39
0.24514288 -0.02357143 0.82500005 8.371392058e-39
0.24611619 -0.023514286 0.82300001 8.188444136e-39
0.24768379 -0.023514286 0.82300001 8.556150458e-39
0.24925141 -0.023514286 0.82300001 8.924205704e-39
0.25333714 -0.023457143 0.82100004 9.568135979e-39
0.25490096 -0.023457143 0.82100004 9.843646672e-39
0.2580286 -0.023457143 0.82100004 1.021208027e-38
0.26208001 -0.023400001 0.81900007 1.048792867e-38
0.26364002 -0.023400001 0.81900007 1.057939983e-38
0.26520002 -0.023400001 0.81900007 1.067123112e-38
0.26832002 -0.023400001 0.81900007 1.058082916e-38
0.27210286 -0.023457143 0.82100004 9.841481666e-39
0.28877336 -0.023800001 0.83300006 7.445498111e-39
0.29328004 -0.023400001 0.81900007 7.908635661e-39
0.29484004 -0.023400001 0.81900007 8.184147755e-39
0.2956762 -0.023342857 0.81700003 8.644048306e-39
0.29805717 -0.023285715 0.81500006 9.748931507e-39
0.29960954 -0.023285715 0.81500006 1.030245701e-38
0.30234283 -0.023257142 0.81400001 1.103894445e-38
0.30389333 -0.023257142 0.81400001 1.113186455e-38
0.30699429 -0.023257142 0.81400001 1.131624741e-38
0.30854478 -0.023257142 0.81400001 1.149955826e-38
0.31202862 -0.023285715 0.81500006 1.186977151e-38
0.32292953 -0.023514286 0.82300001 1.18705212e-38
0.3355943 -0.024085715 0.84300005 1.214816467e-38
0.33800003 -0.024142858 0.84500003 1.242401868e-38
0.33960953 -0.024142858 0.84500003 1.279172641e-38
0.34485716 -0.024285713 0.85000002 1.306867483e-38
0.34729147 -0.024342857 0.85200006 1.288500244e-38
0.34973332 -0.024400001 0.85400003 1.279317535e-38
0.36038095 -0.02457143 0.86000001 1.242808105e-38
0.36201903 -0.02457143 0.86000001 1.281302194e-38
0.2381162 -0.022373334 0.83900005 1.556486384e-38
0.24573715 -0.022053333 0.82700002 7.6345613e-39
0.24671429 -0.022000002 0.82500005 6.990999566e-39
0.24828573 -0.022000002 0.82500005 7.816807172e-39
0.24925141 -0.021946667 0.82300001 8.736587254e-39
0.25081906 -0.021946667 0.82300001 8.9220435e-39
0.25395429 -0.021946667 0.82300001 9.474859948e-39
0.25646478 -0.021893334 0.82100004 9.934398964e-39
0.26428384 -0.021893334 0.82100004 1.04882846e-38
0.26676002 -0.021840001 0.81900007 1.048863493e-38
0.26832002 -0.021840001 0.81900007 1.030532127e-38
0.26988003 -0.021840001 0.81900007 1.011913775e-38
0.27500004 -0.022000002 0.82500005 9.562023515e-39
0.28218856 -0.02232 0.83700001 9.194319996e-39
0.28605908 -0.022373334 0.83900005 8.917379979e-39
0.28946668 -0.022266667 0.83500004 7.629529237e-39
0.29124573 -0.022160001 0.83100003 6.896633325e-39
0.29212382 -0.022106668 0.82900006 6.621126836e-39
0.29299429 -0.022053333 0.82700002 6.988470222e-39
0.29399621 -0.021893334 0.82100004 7.721734676e-39
0.29640004 -0.021840001 0.81900007 8.457145919e-39
0.30544382 -0.021706667 0.81400001 1.094783203e-38
0.30699429 -0.021706667 0.81400001 1.113186035e-38
0.3127943 -0.021786667 0.81700003 1.177829194e-38
0.31512004 -0.021840001 0.81900007 1.18708407e-38
0.31668004 -0.021840001 0.81900007 1.196304194e-38
0.31901714 -0.021893334 0.82100004 1.178009401e-38
0.33240381 -0.022373334 0.83900005 1.177795563e-38
0.33960953 -0.022533333 0.84500003 1.288391643e-38
0.34485716 -0.022666667 0.85000002 1.315942853e-38
0.34729147 -0.02272 0.85200006 1.316086626e-38
0.35627431 -0.022880001 0.85800004 1.306938949e-38
0.35874283 -0.022933332 0.86000001 1.288287807e-38
0.36038095 -0.022933332 0.86000001 1.260417242e-38
0.36201903 -0.022933332 0.86000001 1.233587421e-38
0.23857144 -0.020676192 0.83500004 1.289080381e-38
0.24175239 -0.020676192 0.83500004 1.021096203e-38
0.24376 -0.020577144 0.83100003 8.830199596e-39
0.24475239 -0.02052762 0.82900006 8.82913461e-39
0.24633144 -0.02052762 0.82900006 8.369968339e-39
0.24828573 -0.020428572 0.82500005 8.553289007e-39
0.25081906 -0.020379048 0.82300001 9.289738612e-39
0.25238669 -0.020379048 0.82300001 9.381938446e-39
0.2611562 -0.020329524 0.82100004 1.012131116e-38
0.26584762 -0.020329524 0.82100004 1.011878602e-38
0.26741144 -0.020329524 0.82100004 9.936547155e-39
0.26832002 -0.020280002 0.81900007 1.011949788e-38
0.27053905 -0.020329524 0.82100004 1.039284917e-38
0.28193524 -0.020824762 0.84100002 9.7467651e-39
0.28286287 -0.020775238 0.83900005 9.653494674e-39
0.28513905 -0.020824762 0.84100002 9.469823682e-39
0.29194671 -0.020626668 0.83300006 7.172141214e-39
0.29542857 -0.020428572 0.82500005 7.540932142e-39
0.29556 -0.020329524 0.82100004 7.817160299e-39
0.29712382 -0.020329524 0.82100004 8.276702117e-39
0.29952002 -0.020280002 0.81900007 9.286888371e-39
0.30345714 -0.020230476 0.81700003 1.039323032e-38
0.30581906 -0.020180954 0.81500006 1.048614342e-38
0.30737144 -0.020180954 0.81500006 1.08556392e-38
0.30892384 -0.020180954 0.81500006 1.113150302e-38
0.31123811 -0.020230476 0.81700003 1.131553274e-38
0.31356004 -0.020280002 0.81900007 1.149991139e-38
0.3213619 -0.020379048 0.82300001 1.15010016e-38
0.32371432 -0.020428572 0.82500005 1.159356157e-38
0.33001715 -0.020725716 0.83700001 1.168611173e-38
0.34081525 -0.020998096 0.84800005 1.297646519e-38
0.3424305 -0.020998096 0.84800005 1.315870265e-38
0.34729147 -0.021097144 0.85200006 1.334274219e-38
0.35218287 -0.021196192 0.85600007 1.334346526e-38
0.35464001 -0.021245714 0.85800004 1.334346946e-38
0.35874283 -0.021295238 0.86000001 1.343423296e-38
0.36201903 -0.021295238 0.86000001 1.251377325e-38
0.36365715 -0.021295238 0.86000001 1.224333666e-38
0.23856002 -0.019474287 0.85200006 1.33575399e-38
0.23820953 -0.019314285 0.84500003 1.317459338e-38
0.24175239 -0.019085715 0.83500004 9.567412909e-39
0.24276002 -0.01904 0.83300006 9.659961666e-39
0.24376 -0.018994287 0.83100003 9.477002534e-39
0.24534287 -0.018994287 0.83100003 9.292622484e-39
0.2479105 -0.018948574 0.82900006 9.107886505e-39
0.24888761 -0.018902857 0.82700002 9.2915603e-39
0.25081906 -0.018811429 0.82300001 9.567408705e-39
0.25708953 -0.018811429 0.82300001 9.930803232e-39
0.26022476 -0.018811429 0.82300001 9.934403168e-39
0.26179239 -0.018811429 0.82300001 9.750369239e-39
0.26336002 -0.018811429 0.82300001 9.934036028e-39
0.26428384 -0.018765714 0.82100004 1.011770842e-38
0.26584762 -0.018765714 0.82100004 9.74929024e-39
0.27053905 -0.018765714 0.82100004 1.066908293e-38
0.2727657 -0.018811429 0.82300001 1.048468747e-38
0.28421146 -0.019268574 0.84300005 1.011338962e-38
0.28581718 -0.019268574 0.84300005 9.929002564e-39
0.28765714 -0.019177144 0.83900005 9.28471776e-39
0.29105717 -0.019085715 0.83500004 7.817142082e-39
0.29353335 -0.01904 0.83300006 7.081739247e-39
0.29528192 -0.018948574 0.82900006 7.173220214e-39
0.29686096 -0.018948574 0.82900006 7.358333143e-39
0.29772002 -0.018902857 0.82700002 7.63312637e-39
0.2978476 -0.018811429 0.82300001 8.001907488e-39
0.30420002 -0.018720001 0.81900007 1.011592036e-38
0.30656952 -0.018674288 0.81700003 1.011807696e-38
0.30812573 -0.018674288 0.81700003 1.057940824e-38
0.31745335 -0.018765714 0.82100004 1.12244035e-38
0.31901714 -0.018765714 0.82100004 1.131589007e-38
0.32371432 -0.018857144 0.82500005 1.150064707e-38
0.32528573 -0.018857144 0.82500005 1.168575159e-38
0.33398858 -0.019268574 0.84300005 1.196628034e-38
0.33920002 -0.019382859 0.84800005 1.269916644e-38
0.34973332 -0.01952 0.85400003 1.352641318e-38
0.35218287 -0.019565716 0.85600007 1.352640897e-38
0.35627431 -0.019611429 0.85800004 1.380191967e-38
0.35874283 -0.019657142 0.86000001 1.407707163e-38
0.36038095 -0.019657142 0.86000001 1.33416744e-38
0.23548001 -0.017620953 0.84100002 1.24377388e-38
0.2370819 -0.017620953 0.84100002 1.188027004e-38
0.2381162 -0.017579047 0.83900005 1.141492965e-38
0.23914286 -0.017537143 0.83700001 1.048897825e-38
0.24534287 -0.017411429 0.83100003 9.384104853e-39
0.2479105 -0.017369524 0.82900006 9.477741018e-39
0.25142857 -0.017285716 0.82500005 1.002910992e-38
0.25552189 -0.01724381 0.82300001 1.048755873e-38
0.26022476 -0.01724381 0.82300001 1.094638028e-38
0.26492763 -0.01724381 0.82300001 1.066907032e-38
0.26649523 -0.01724381 0.82300001 1.030137941e-38
0.26936573 -0.01732762 0.82700002 1.00255268e-38
0.26963046 -0.01724381 0.82300001 1.067054169e-38
0.2793943 -0.017662859 0.84300005 1.103749831e-38
0.2832762 -0.017704763 0.84500003 1.057651316e-38
0.2848857 -0.017704763 0.84500003 1.048324413e-38
0.28649524 -0.017704763 0.84500003 1.020738031e-38
0.28810477 -0.017704763 0.84500003 1.002334919e-38
0.29085335 -0.017579047 0.83900005 8.829483533e-39
0.29334855 -0.017537143 0.83700001 7.908260113e-39
0.29423809 -0.017495239 0.83500004 7.450874893e-39
0.29599428 -0.017411429 0.83100003 7.172142616e-39
0.29686096 -0.017369524 0.82900006 7.448729505e-39
0.29844004 -0.017369524 0.82900006 7.724957662e-39
0.29857147 -0.017285716 0.82500005 8.092662583e-39
0.30181524 -0.017201904 0.82100004 9.196475193e-39
0.30337906 -0.017201904 0.82100004 9.380504918e-39
0.30494285 -0.017201904 0.82100004 9.654939413e-39
0.30650666 -0.017201904 0.82100004 9.750007704e-39
0.3096343 -0.017201904 0.82100004 1.002623586e-38
0.31044003 -0.017160002 0.81900007 1.030210669e-38
0.31432572 -0.017201904 0.82100004 1.048792727e-38
0.31822667 -0.01724381 0.82300001 1.067303179e-38
0.31979427 -0.01724381 0.82300001 1.085635386e-38
0.3213619 -0.01724381 0.82300001 1.113150442e-38
0.32292953 -0.01724381 0.82300001 1.131589708e-38
0.32449716 -0.01724381 0.82300001 1.159355737e-38
0.33478096 -0.017704763 0.84500003 1.205524737e-38
0.3363905 -0.017704763 0.84500003 1.242294669e-38
0.34081525 -0.017767621 0.84800005 1.315798379e-38
0.3424305 -0.017767621 0.84800005 1.343456367e-38
0.35135999 -0.017893333 0.85400003 1.3436e-38
0.35381335 -0.017935239 0.85600007 1.343563987e-38
0.36201903 -0.018019047 0.86000001 1.306722729e-38
0.36365715 -0.018019047 0.86000001 1.205415576e-38
0.36614478 -0.018060952 0.86200005 1.104080538e-38
0.23604001 -0.016057143 0.84300005 1.160148591e-38
0.2381162 -0.015980953 0.83900005 9.847958467e-39
0.24276002 -0.015866669 0.83300006 8.923136513e-39
0.24534287 -0.015828572 0.83100003 9.567062585e-39
0.25046286 -0.015752383 0.82700002 1.030426048e-38
0.2577143 -0.015714286 0.82500005 1.150061905e-38
0.25928575 -0.015714286 0.82500005 1.177612834e-38
0.26085716 -0.015714286 0.82500005 1.195980213e-38
0.26306477 -0.015752383 0.82700002 1.223350795e-38
0.26464 -0.015752383 0.82700002 1.168105304e-38
0.26621523 -0.015752383 0.82700002 1.12211665e-38
0.27159622 -0.015790477 0.82900006 1.131412023e-38
0.27449334 -0.015866669 0.83300006 1.195695329e-38
0.28166667 -0.01609524 0.84500003 1.112861634e-38
0.2848857 -0.01609524 0.84500003 1.085166792e-38
0.28649524 -0.01609524 0.84500003 1.04839686e-38
0.28971431 -0.01609524 0.84500003 1.002478832e-38
0.2906343 -0.016057143 0.84300005 9.840754392e-39
0.29154664 -0.016019046 0.84100002 9.38049651e-39
0.29245144 -0.015980953 0.83900005 9.011719596e-39
0.29494286 -0.015942857 0.83700001 7.90646505e-39
0.29512003 -0.015866669 0.83300006 7.537686734e-39
0.29757717 -0.015828572 0.83100003 7.540203466e-39
0.29916 -0.015828572 0.83100003 7.907906986e-39
0.29929525 -0.015752383 0.82700002 8.091940915e-39
0.3017143 -0.015714286 0.82500005 8.644747554e-39
0.3041181 -0.015676191 0.82300001 9.104998429e-39
0.30882093 -0.015676191 0.82300001 9.474498413e-39
0.31038859 -0.015676191 0.82300001 9.565980782e-39
0.3119562 -0.015676191 0.82300001 9.658535145e-39
0.31352383 -0.015676191 0.82300001 9.751808373e-39
0.31822667 -0.015676191 0.82300001 1.021277671e-38
0.33317143 -0.01609524 0.84500003 1.159463917e-38
0.33758476 -0.016152382 0.84800005 1.260661628e-38
0.33920002 -0.016152382 0.84800005 1.288246469e-38
0.34081525 -0.016152382 0.84800005 1.325052414e-38
0.3424305 -0.016152382 0.84800005 1.352674809e-38
0.34485716 -0.016190477 0.85000002 1.389481034e-38
0.35381335 -0.016304763 0.85600007 1.33441589e-38
0.35790858 -0.016342856 0.85800004 1.371079323e-38
0.36450288 -0.016419049 0.86200005 1.297575193e-38
0.36741909 -0.016476192 0.86500007 1.251659547e-38
0.36906669 -0.016476192 0.86500007 1.178229125e-38
0.23914286 -0.014348571 0.83700001 9.566677228e-39
0.24534287 -0.014245714 0.83100003 9.566708056e-39
0.24692571 -0.014245714 0.83100003 9.660700151e-39
0.25106859 -0.014211429 0.82900006 1.039609738e-38
0.25361332 -0.014177144 0.82700002 1.085778459e-38
0.25518855 -0.014177144 0.82700002 1.122512937e-38
0.26148951 -0.014177144 0.82700002 1.232714692e-38
0.26685908 -0.014211429 0.82900006 1.140627943e-38
0.2771295 -0.014417144 0.84100002 1.168181675e-38
0.2793943 -0.014451429 0.84300005 1.140414105e-38
0.28166667 -0.014485715 0.84500003 1.112826602e-38
0.2832762 -0.014485715 0.84500003 1.103606338e-38
0.28751242 -0.014537144 0.84800005 1.066836407e-38
0.28810477 -0.014485715 0.84500003 1.039249745e-38
0.28971431 -0.014485715 0.84500003 1.039213731e-38
0.29475048 -0.014417144 0.84100002 9.101046767e-39
0.29582858 -0.014314286 0.83500004 8.090493373e-39
0.29670668 -0.014280002 0.83300006 7.631676026e-39
0.29757717 -0.014245714 0.83100003 7.72279686e-39
0.30087048 -0.014177144 0.82700002 8.458922766e-39
0.30642861 -0.014142857 0.82500005 8.830206603e-39
0.3087467 -0.014177144 0.82700002 9.014233525e-39
0.31032193 -0.014177144 0.82700002 9.290105752e-39
0.31428573 -0.014142857 0.82500005 9.658529539e-39
0.31662285 -0.014177144 0.82700002 9.936905887e-39
0.31819808 -0.014177144 0.82700002 1.021241378e-38
0.32995239 -0.014485715 0.84500003 1.122082318e-38
0.33156192 -0.014485715 0.84500003 1.159355456e-38
0.33317143 -0.014485715 0.84500003 1.205489985e-38
0.33596954 -0.014537144 0.84800005 1.260664571e-38
0.33758476 -0.014537144 0.84800005 1.315834532e-38
0.34081525 -0.014537144 0.84800005 1.315975223e-38
0.34973332 -0.014640001 0.85400003 1.306899573e-38
0.35218287 -0.014674286 0.85600007 1.31604823e-38
0.35627431 -0.014708571 0.85800004 1.343527693e-38
0.36038095 -0.014742858 0.86000001 1.352605585e-38
0.36286098 -0.014777143 0.86200005 1.334238766e-38
0.36450288 -0.014777143 0.86200005 1.297504848e-38
0.36741909 -0.014828573 0.86500007 1.251261438e-38
0.3724286 -0.014897143 0.86900002 1.168364965e-38
0.23492001 -0.012784762 0.83900005 1.049438446e-38
0.2365181 -0.012784762 0.83900005 1.002838125e-38
0.2381162 -0.012784762 0.83900005 9.567044368e-39
0.23914286 -0.012754286 0.83700001 9.382648904e-39
0.24016191 -0.01272381 0.83500004 9.198984918e-39
0.24276002 -0.012693334 0.83300006 9.290830224e-39
0.24434669 -0.012693334 0.83300006 9.384462184e-39
0.24534287 -0.012662858 0.83100003 9.568494712e-39
0.24692571 -0.012662858 0.83100003 9.752527239e-39
0.24850859 -0.012662858 0.83100003 9.93727583e-39
0.24948955 -0.012632382 0.82900006 1.021386132e-38
0.25106859 -0.012632382 0.82900006 1.058156344e-38
0.25833905 -0.012601905 0.82700002 1.195980914e-38
0.26528001 -0.012632382 0.82900006 1.241897261e-38
0.26908571 -0.012662858 0.83100003 1.140664517e-38
0.27290669 -0.012693334 0.83300006 1.131339857e-38
0.2793943 -0.012845715 0.84300005 1.131229294e-38
0.28751242 -0.012921905 0.84800005 1.085239239e-38
0.28810477 -0.012876191 0.84500003 1.06687214e-38
0.28971431 -0.012876191 0.84500003 1.076055549e-38
0.29653716 -0.012754286 0.83700001 8.641865083e-39
0.29741904 -0.01272381 0.83500004 8.089419979e-39
0.29988003 -0.012693334 0.83300006 7.90396093e-39
0.30074286 -0.012662858 0.83100003 8.179828953e-39
0.3015981 -0.012632382 0.82900006 8.550400931e-39
0.30317718 -0.012632382 0.82900006 8.54860867e-39
0.30475619 -0.012632382 0.82900006 8.551116994e-39
0.30949333 -0.012632382 0.82900006 8.735495642e-39
0.31265146 -0.012632382 0.82900006 9.198275861e-39
0.31738859 -0.012632382 0.82900006 1.002730225e-38
0.32054669 -0.012632382 0.82900006 1.094710335e-38
0.32950857 -0.012921905 0.84800005 1.131516841e-38
0.34161904 -0.012952381 0.85000002 1.315975783e-38
0.34323812 -0.012952381 0.85000002 1.279349485e-38
0.34729147 -0.012982858 0.85200006 1.270166075e-38
0.34973332 -0.013013334 0.85400003 1.288498282e-38
0.36038095 -0.013104762 0.86000001 1.352641598e-38
0.36201903 -0.013104762 0.86000001 1.325054936e-38
0.36450288 -0.013135239 0.86200005 1.288248851e-38
0.36741909 -0.013180953 0.86500007 1.260517434e-38
0.3724286 -0.013241905 0.86900002 1.232682322e-38
0.23548001 -0.011213333 0.84100002 1.076988394e-38
0.2381162 -0.011186667 0.83900005 9.384093643e-39
0.23914286 -0.01116 0.83700001 8.833072258e-39
0.24175239 -0.011133334 0.83500004 8.556139248e-39
0.24276002 -0.011106667 0.83300006 8.924200099e-39
0.24593334 -0.011106667 0.83300006 9.292262351e-39
0.24692571 -0.011080001 0.83100003 9.47665361e-39
0.25106859 -0.011053334 0.82900006 1.021422425e-38
0.25264764 -0.011053334 0.82900006 1.058085718e-38
0.25422668 -0.011053334 0.82900006 1.094785865e-38
0.25833905 -0.011026666 0.82700002 1.186762612e-38
0.25991428 -0.011026666 0.82700002 1.19580393e-38
0.26212192 -0.011053334 0.82900006 1.195948824e-38
0.26370096 -0.011053334 0.82900006 1.205452571e-38
0.27778858 -0.011240001 0.84300005 1.131193421e-38
0.28166667 -0.011266666 0.84500003 1.122151683e-38
0.28589717 -0.011306667 0.84800005 1.149630865e-38
0.2923581 -0.011306667 0.84800005 1.103749131e-38
0.29724574 -0.011186667 0.83900005 9.192879461e-39
0.30219048 -0.011133334 0.83500004 8.548968804e-39
0.30390859 -0.011080001 0.83100003 8.82590882e-39
0.30791432 -0.011053334 0.82900006 8.185920397e-39
0.30949333 -0.011053334 0.82900006 8.645811139e-39
0.31107238 -0.011053334 0.82900006 9.106071824e-39
0.31340572 -0.011080001 0.83100003 9.381945452e-39
0.31498858 -0.011080001 0.83100003 9.751790156e-39
0.31580955 -0.011053334 0.82900006 1.021024317e-38
0.32673335 -0.011266666 0.84500003 1.150350012e-38
0.32950857 -0.011306667 0.84800005 1.187156797e-38
0.33273906 -0.011306667 0.84800005 1.242364874e-38
0.33758476 -0.011306667 0.84800005 1.343491259e-38
0.34566858 -0.01136 0.85200006 1.260983646e-38
0.35381335 -0.011413334 0.85600007 1.306652524e-38
0.36286098 -0.011493334 0.86200005 1.315871106e-38
0.36992002 -0.01156 0.86700004 1.251298852e-38
0.37408379 -0.011586667 0.86900002 1.196015246e-38
0.37573904 -0.011586667 0.86900002 1.150463377e-38
0.23548001 -0.0096114287 0.84100002 1.104216043e-38
0.2365181 -0.0095885722 0.83900005 1.012343973e-38
0.2381162 -0.0095885722 0.83900005 9.200417045e-39
0.24073714 -0.0095657147 0.83700001 7.453390224e-39
0.24334286 -0.0095428573 0.83500004 8.55649798e-39
0.24692571 -0.0094971433 0.83100003 9.201137313e-39
0.24850859 -0.0094971433 0.83100003 9.47808854e-39
0.25009143 -0.0094971433 0.83100003 9.663561602e-39
0.25422668 -0.0094742868 0.82900006 1.085708254e-38
0.25580573 -0.0094742868 0.82900006 1.131734462e-38
0.26592001 -0.0094971433 0.83100003 1.076270929e-38
0.26750287 -0.0094971433 0.83100003 1.085383012e-38
0.26973337 -0.0095199998 0.83300006 1.094495096e-38
0.27618286 -0.0096342871 0.84300005 1.112826602e-38
0.2784476 -0.0096571427 0.84500003 1.122009451e-38
0.28589717 -0.0096914293 0.84800005 1.195585187e-38
0.28751242 -0.0096914293 0.84800005 1.15885197e-38
0.28810477 -0.0096571427 0.84500003 1.131301461e-38
0.2923581 -0.0096914293 0.84800005 1.131336493e-38
0.2995562 -0.0096114287 0.84100002 9.282924098e-39
0.30204001 -0.0095885722 0.83900005 8.823752222e-39
0.30291429 -0.0095657147 0.83700001 8.917385584e-39
0.30378094 -0.0095428573 0.83500004 9.101056577e-39
0.30464 -0.0095199998 0.83300006 9.101056577e-39
0.31182286 -0.0094971433 0.83100003 9.197564002e-39
0.31340572 -0.0094971433 0.83100003 9.657827489e-39
0.31574669 -0.0095199998 0.83300006 1.012022235e-38
0.31733334 -0.0095199998 0.83300006 1.067122412e-38
0.32198286 -0.0096114287 0.84100002 1.131766972e-38
0.33028573 -0.0097142868 0.85000002 1.242365715e-38
0.33190477 -0.0097142868 0.85000002 1.288319476e-38
0.33514288 -0.0097142868 0.85000002 1.270023983e-38
0.34404573 -0.0097371433 0.85200006 1.288355069e-38
0.35135999 -0.0097599998 0.85400003 1.297470236e-38
0.35381335 -0.0097828582 0.85600007 1.297433662e-38
0.35544384 -0.0097828582 0.85600007 1.306616651e-38
0.35954288 -0.0098057147 0.85800004 1.315728454e-38
0.36117715 -0.0098057147 0.85800004 1.315763907e-38
0.36450288 -0.0098514296 0.86200005 1.29743212e-38
0.36906669 -0.0098857153 0.86500007 1.269665952e-38
0.37157145 -0.0099085718 0.86700004 1.251190952e-38
0.37487429 -0.0099085718 0.86700004 1.186980514e-38
0.2365181 -0.0079904767 0.83900005 1.003087836e-38
0.24493335 -0.0079523809 0.83500004 8.738016578e-39
0.25167426 -0.0079142861 0.83100003 9.292274962e-39
0.25325716 -0.0079142861 0.83100003 9.659616947e-39
0.25580573 -0.0078952387 0.82900006 1.01184357e-38
0.26814669 -0.0079333344 0.83300006 1.066728927e-38
0.28266668 -0.0080761909 0.84800005 1.131622919e-38
0.28751242 -0.0080761909 0.84800005 1.140557458e-38
0.28912762 -0.0080761909 0.84800005 1.131338315e-38
0.29074287 -0.0080761909 0.84800005 1.140558018e-38
0.29720384 -0.0080761909 0.84800005 1.112896527e-38
0.29776192 -0.0080476198 0.84500003 1.075982962e-38
0.29937142 -0.0080476198 0.84500003 1.020809918e-38
0.30026859 -0.0080285715 0.84300005 9.748201431e-39
0.30276 -0.0080095232 0.84100002 9.472697745e-39
0.3036381 -0.0079904767 0.83900005 9.564180114e-39
0.30610287 -0.0079714283 0.83700001 9.656017011e-39
0.30855238 -0.0079523809 0.83500004 9.653868821e-39
0.31257334 -0.0079333344 0.83300006 9.656755496e-39
0.31491429 -0.0079523809 0.83500004 1.011845671e-38
0.32114285 -0.0080285715 0.84300005 1.131587606e-38
0.32627809 -0.0080761909 0.84800005 1.205560751e-38
0.32866666 -0.0080952384 0.85000002 1.214779613e-38
0.33106288 -0.0081142858 0.85200006 1.260625194e-38
0.33190477 -0.0080952384 0.85000002 1.30650777e-38
0.33352381 -0.0080952384 0.85000002 1.297396807e-38
0.3424229 -0.0081142858 0.85200006 1.334164357e-38
0.34810668 -0.0081333332 0.85400003 1.325089968e-38
0.34973332 -0.0081333332 0.85400003 1.361933608e-38
0.35135999 -0.0081333332 0.85400003 1.315838316e-38
0.35381335 -0.0081523815 0.85600007 1.26974022e-38
0.35544384 -0.0081523815 0.85600007 1.288213959e-38
0.36286098 -0.0082095247 0.86200005 1.31569244e-38
0.36906669 -0.0082380958 0.86500007 1.278993134e-38
0.37652573 -0.0082571432 0.86700004 1.159319163e-38
0.24233143 -0.0063771429 0.83700001 8.830209405e-39
0.24752003 -0.0063466672 0.83300006 8.646531407e-39
0.25483999 -0.0063314289 0.83100003 9.291191759e-39
0.25642288 -0.0063314289 0.83100003 9.015686671e-39
0.26054287 -0.0063161911 0.82900006 9.015334946e-39
0.27847618 -0.0064761904 0.85000002 1.158922735e-38
0.28266668 -0.0064609526 0.84800005 1.131551593e-38
0.28428194 -0.0064609526 0.84800005 1.12233231e-38
0.28912762 -0.0064609526 0.84800005 1.131446636e-38
0.29074287 -0.0064609526 0.84800005 1.149778842e-38
0.2923581 -0.0064609526 0.84800005 1.177256624e-38
0.29397336 -0.0064609526 0.84800005 1.177147883e-38
0.29720384 -0.0064609526 0.84800005 1.149595412e-38
0.29776192 -0.0064380956 0.84500003 1.121901131e-38
0.29937142 -0.0064380956 0.84500003 1.066692073e-38
0.30348003 -0.0064228573 0.84300005 1.011626789e-38
0.30523619 -0.0063923812 0.83900005 1.020739152e-38
0.30683431 -0.0063923812 0.83900005 1.030030602e-38
0.30929142 -0.0063771429 0.83700001 1.084773868e-38
0.3108857 -0.0063771429 0.83700001 1.130835109e-38
0.31953713 -0.0064228573 0.84300005 1.131805088e-38
0.33755431 -0.0064914292 0.85200006 1.29753974e-38
0.34160003 -0.006506667 0.85400003 1.334343863e-38
0.34322667 -0.006506667 0.85400003 1.371043169e-38
0.34485334 -0.006506667 0.85400003 1.334274079e-38
0.34810668 -0.006506667 0.85400003 1.361823186e-38
0.34973332 -0.006506667 0.85400003 1.426145448e-38
0.35218287 -0.0065219053 0.85600007 1.334239747e-38
0.35381335 -0.0065219053 0.85600007 1.24240397e-38
0.35627431 -0.0065371431 0.85800004 1.269990212e-38
0.35790858 -0.0065371431 0.85800004 1.306617211e-38
0.37487429 -0.0066057146 0.86700004 1.242259496e-38
0.37817717 -0.0066057146 0.86700004 1.177832698e-38
0.24233143 -0.0047828574 0.83700001 9.844703251e-39
0.24652381 -0.0047714286 0.83500004 8.922756761e-39
0.24910668 -0.0047599999 0.83300006 8.368876728e-39
0.25483999 -0.0047485717 0.83100003 8.83164994e-39
0.25642288 -0.0047485717 0.83100003 8.739817247e-39
0.25800571 -0.0047485717 0.83100003 8.648344687e-39
0.26054287 -0.0047371434 0.82900006 8.831306622e-39
0.26212192 -0.0047371434 0.82900006 9.290129574e-39
0.27292573 -0.0049028574 0.85800004 9.657470158e-39
0.27490667 -0.0048799999 0.85400003 1.030210669e-38
0.27816001 -0.0048799999 0.85400003 1.085490632e-38
0.28657141 -0.0048571434 0.85000002 1.07648743e-38
0.2923581 -0.0048457147 0.84800005 1.186513181e-38
0.29397336 -0.0048457147 0.84800005 1.204843286e-38
0.29558858 -0.0048457147 0.84800005 1.223209124e-38
0.29881907 -0.0048457147 0.84800005 1.122296157e-38
0.30098096 -0.0048285713 0.84500003 1.067015493e-38
0.30259046 -0.0048285713 0.84500003 1.085418605e-38
0.30419999 -0.0048285713 0.84500003 1.113041001e-38
0.31076953 -0.0048057144 0.84100002 1.140163132e-38
0.31237143 -0.0048057144 0.84100002 1.177327389e-38
0.31868574 -0.0048285713 0.84500003 1.140989758e-38
0.32781717 -0.0048685716 0.85200006 1.214779753e-38
0.33184001 -0.0048799999 0.85400003 1.251658005e-38
0.33593145 -0.0048685716 0.85200006 1.270025385e-38
0.34160003 -0.0048799999 0.85400003 1.288427797e-38
0.34485334 -0.0048799999 0.85400003 1.306759863e-38
0.34729147 -0.0048914291 0.85600007 1.288319476e-38
0.35055238 -0.0048914291 0.85600007 1.352711803e-38
0.35627431 -0.0049028574 0.85800004 1.279137888e-38
0.36286098 -0.0049257148 0.86200005 1.315979286e-38
0.36577144 -0.0049428577 0.86500007 1.315905858e-38
0.36741909 -0.0049428577 0.86500007 1.315832991e-38
0.36906669 -0.0049428577 0.86500007 1.297393024e-38
0.37157145 -0.0049542859 0.86700004 1.288175563e-38
0.37322289 -0.0049542859 0.86700004 1.278994115e-38
0.37573904 -0.0049657146 0.86900002 1.269810426e-38
0.37739429 -0.0049657146 0.86900002 1.242331383e-38
0.37904954 -0.0049657146 0.86900002 1.214849958e-38
0.38148001 -0.0049542859 0.86700004 1.040046663e-38
0.23971429 -0.0031961906 0.83900005 1.104465615e-38
0.24392572 -0.0031885714 0.83700001 1.012129575e-38
0.24652381 -0.0031809525 0.83500004 9.108940282e-39
0.24910668 -0.0031733336 0.83300006 8.27847476e-39
0.25069335 -0.0031733336 0.83300006 7.452314027e-39
0.2538667 -0.0031733336 0.83300006 7.544149523e-39
0.25483999 -0.0031657144 0.83100003 8.370313059e-39
0.25642288 -0.0031657144 0.83100003 8.462151357e-39
0.25800571 -0.0031657144 0.83100003 8.64654542e-39
0.27028573 -0.0032761905 0.86000001 8.73910819e-39
0.28237718 -0.0032457146 0.85200006 1.104000664e-38
0.28400001 -0.0032457146 0.85200006 1.113041141e-38
0.28562286 -0.0032457146 0.85200006 1.076594489e-38
0.28819048 -0.0032380952 0.85000002 1.076307223e-38
0.28980953 -0.0032380952 0.85000002 1.122262525e-38
0.2923581 -0.0032304763 0.84800005 1.204915032e-38
0.29558858 -0.0032304763 0.84800005 1.269198058e-38
0.29720384 -0.0032304763 0.84800005 1.195729101e-38
0.30366477 -0.0032304763 0.84800005 1.168286912e-38
0.30580953 -0.0032190478 0.84500003 1.18661996e-38
0.30902857 -0.0032190478 0.84500003 1.158816937e-38
0.31224763 -0.0032190478 0.84500003 1.195982315e-38
0.32781717 -0.0032457146 0.85200006 1.187301692e-38
0.33346668 -0.0032533335 0.85400003 1.23332734e-38
0.33671999 -0.0032533335 0.85400003 1.242546482e-38
0.33997333 -0.0032533335 0.85400003 1.22414393e-38
0.34160003 -0.0032533335 0.85400003 1.251551086e-38
0.36286098 -0.0032838096 0.86200005 1.325197588e-38
0.36577144 -0.0032952384 0.86500007 1.325197028e-38
0.37157145 -0.0033028573 0.86700004 1.29753988e-38
0.37322289 -0.0033028573 0.86700004 1.297541001e-38
0.37739429 -0.0033104762 0.86900002 1.279173622e-38
0.37982857 -0.0033028573 0.86700004 1.159423419e-38
0.24711429 -0.0015942857 0.83700001 9.570989023e-39
0.25129524 -0.0015904763 0.83500004 8.281341816e-39
0.2538667 -0.0015866668 0.83300006 8.187709856e-39
0.25545335 -0.0015866668 0.83300006 8.552183382e-39
0.26864764 -0.0016380952 0.86000001 8.64583356e-39
0.27028573 -0.0016380952 0.86000001 8.646551025e-39
0.27192384 -0.0016380952 0.86000001 8.922417647e-39
0.27228954 -0.0016304763 0.85600007 9.29013518e-39
0.28304002 -0.0016266668 0.85400003 1.104036397e-38
0.28466669 -0.0016266668 0.85400003 1.12222455e-38
0.28562286 -0.0016228573 0.85200006 1.085706152e-38
0.28886858 -0.0016228573 0.85200006 1.085525384e-38
0.29142857 -0.0016190476 0.85000002 1.149777862e-38
0.30043429 -0.0016152381 0.84800005 1.076273171e-38
0.30204952 -0.0016152381 0.84800005 1.094676143e-38
0.30366477 -0.0016152381 0.84800005 1.131482088e-38
0.30528 -0.0016152381 0.84800005 1.177473405e-38
