# .PCD v0.7 - Point Cloud Data file format
VERSION 0.7
FIELDS x y z rgb
SIZE 4 4 4 4
TYPE F F F F
COUNT 1 1 1 1
WIDTH 955
HEIGHT 1
VIEWPOINT 0 0 0 1 0 0 0
POINTS 955
DATA ascii
0.31625906 -0.030704763 0.80600005 1.389660961e-38
0.32012191 -0.030780952 0.80800003 1.426435096e-38
0.32325333 -0.030933335 0.81200004 1.380516788e-38
0.3256 -0.031009525 0.81400001 1.352965578e-38
0.33228004 -0.031200001 0.81900007 1.288499263e-38
0.25613335 -0.028626667 0.79100001 9.29799226e-39
0.25980192 -0.028699048 0.79300004 8.834155462e-39
0.26065335 -0.028626667 0.79100001 8.9242015e-39
0.26282287 -0.028699048 0.79300004 8.647623018e-39
0.26433334 -0.028699048 0.79300004 8.371036129e-39
0.26735431 -0.028699048 0.79300004 8.833439398e-39
0.27188572 -0.028699048 0.79300004 8.924554627e-39
0.27339619 -0.028699048 0.79300004 9.017469123e-39
0.27572 -0.028626667 0.79100001 8.925635028e-39
0.27953145 -0.028554287 0.78900003 9.388048107e-39
0.28217906 -0.028518097 0.78800005 1.113544487e-38
0.28554288 -0.028554287 0.78900003 1.224105535e-38
0.28854859 -0.028554287 0.78900003 1.242185087e-38
0.29005143 -0.028554287 0.78900003 1.251225424e-38
0.29229331 -0.028626667 0.79100001 1.242042155e-38
0.2938 -0.028626667 0.79100001 1.242040754e-38
0.29605335 -0.028699048 0.79300004 1.269805241e-38
0.30248001 -0.02888 0.79800004 1.343673148e-38
0.30705145 -0.029024763 0.80200005 1.389771383e-38
0.30934858 -0.029097142 0.80400002 1.380586572e-38
0.31394288 -0.029097142 0.80400002 1.343816921e-38
0.31625906 -0.029169526 0.80600005 1.389734529e-38
0.31779429 -0.029169526 0.80600005 1.44487198e-38
0.32012191 -0.029241905 0.80800003 1.417285738e-38
0.32480001 -0.029386668 0.81200004 1.371296524e-38
0.33228004 -0.029640002 0.81900007 1.288501505e-38
0.33384001 -0.029640002 0.81900007 1.251732134e-38
0.33696002 -0.029640002 0.81900007 1.159900141e-38
0.26348573 -0.027257143 0.79500002 8.463950625e-39
0.26584381 -0.027188573 0.79300004 8.095521232e-39
0.26886478 -0.027188573 0.79300004 8.741240966e-39
0.27037525 -0.027188573 0.79300004 8.923838564e-39
0.27257144 -0.027257143 0.79500002 8.927068557e-39
0.27408573 -0.027257143 0.79500002 8.925996563e-39
0.27560002 -0.027257143 0.79500002 8.924925971e-39
0.27711427 -0.027257143 0.79500002 8.924560232e-39
0.27792761 -0.027188573 0.79300004 8.465375745e-39
0.27943811 -0.027188573 0.79300004 8.008356264e-39
0.28024 -0.02712 0.79100001 8.929227958e-39
0.28404 -0.02705143 0.78900003 1.140809691e-38
0.28928003 -0.02712 0.79100001 1.205308937e-38
0.29078665 -0.02712 0.79100001 1.22360401e-38
0.29528573 -0.027257143 0.79500002 1.223674776e-38
0.29680002 -0.027257143 0.79500002 1.260515753e-38
0.31088001 -0.027565714 0.80400002 1.389734389e-38
0.31858286 -0.027702859 0.80800003 1.426540614e-38
0.32012191 -0.027702859 0.80800003 1.417321471e-38
0.32480001 -0.027840002 0.81200004 1.389663343e-38
0.33302477 -0.028011428 0.81700003 1.25169584e-38
0.33696002 -0.028080003 0.81900007 1.141530379e-38
0.25980192 -0.025678096 0.79300004 1.00323245e-38
0.2613124 -0.025678096 0.79300004 1.021420324e-38
0.26348573 -0.025742857 0.79500002 9.293698682e-39
0.26802856 -0.025742857 0.79500002 8.556488171e-39
0.26954287 -0.025742857 0.79500002 8.556490974e-39
0.27511999 -0.025840001 0.79800004 8.738743852e-39
0.28165716 -0.025742857 0.79500002 9.108235429e-39
0.28245905 -0.025678096 0.79300004 9.752171309e-39
0.28325334 -0.025613334 0.79100001 1.03031969e-38
0.28626668 -0.025613334 0.79100001 1.113155206e-38
0.29152194 -0.025678096 0.79300004 1.177579763e-38
0.29377142 -0.025742857 0.79500002 1.195910429e-38
0.29602858 -0.025807621 0.79700005 1.214492487e-38
0.30323809 -0.025904762 0.80000001 1.407993728e-38
0.31088001 -0.026034286 0.80400002 1.389734249e-38
0.31318858 -0.026099049 0.80600005 1.389806135e-38
0.31858286 -0.026163809 0.80800003 1.426648234e-38
0.32012191 -0.026163809 0.80800003 1.417357205e-38
0.32245716 -0.026228573 0.81000006 1.408066035e-38
0.32480001 -0.026293335 0.81200004 1.389734809e-38
0.32715046 -0.026358096 0.81400001 1.371403303e-38
0.33065718 -0.026390478 0.81500006 1.316051453e-38
0.33540002 -0.026520003 0.81900007 1.233507266e-38
0.34100002 -0.026714286 0.82500005 1.123203217e-38
0.34257144 -0.026714286 0.82500005 1.225520426e-38
0.2613124 -0.02416762 0.79300004 1.104431423e-38
0.27208 -0.024320001 0.79800004 8.187363735e-39
0.27580953 -0.024380952 0.80000001 8.555081268e-39
0.27816001 -0.024320001 0.79800004 9.01532934e-39
0.27932954 -0.024289524 0.79700005 9.016028588e-39
0.28317145 -0.024228571 0.79500002 9.750730774e-39
0.29152194 -0.02416762 0.79300004 1.140701792e-38
0.29377142 -0.024228571 0.79500002 1.168323626e-38
0.29602858 -0.024289524 0.79700005 1.205309078e-38
0.29944003 -0.024320001 0.79800004 1.242510189e-38
0.31625906 -0.024563812 0.80600005 1.417464964e-38
0.31858286 -0.024624763 0.80800003 1.426612361e-38
0.32012191 -0.024624763 0.80800003 1.417392798e-38
0.32245716 -0.024685716 0.81000006 1.417321051e-38
0.32870096 -0.024807619 0.81400001 1.352964738e-38
0.33778289 -0.025020953 0.82100004 1.22403561e-38
0.2697143 -0.022857143 0.80000001 8.741243769e-39
0.27649906 -0.022914287 0.80200005 8.186312761e-39
0.27967998 -0.0228 0.79800004 8.647974744e-39
0.28236571 -0.022771429 0.79700005 9.015327939e-39
0.28468573 -0.022714285 0.79500002 9.565976578e-39
0.29377142 -0.022714285 0.79500002 1.177614656e-38
0.29792002 -0.0228 0.79800004 1.269773992e-38
0.30552381 -0.022914287 0.80200005 1.407991626e-38
0.30705145 -0.022914287 0.80200005 1.389589354e-38
0.30934858 -0.022971429 0.80400002 1.371294843e-38
0.31088001 -0.022971429 0.80400002 1.362289958e-38
0.31779429 -0.023028573 0.80600005 1.426540614e-38
0.32012191 -0.023085715 0.80800003 1.43568787e-38
0.33220956 -0.023285715 0.81500006 1.316229838e-38
0.33540002 -0.023400001 0.81900007 1.288642896e-38
0.26666665 -0.021333333 0.80000001 9.665345455e-39
0.26819047 -0.021333333 0.80000001 9.297276197e-39
0.27038857 -0.021386668 0.80200005 8.927068557e-39
0.27344385 -0.021386668 0.80200005 8.093377246e-39
0.27718857 -0.021440001 0.80400002 7.911150992e-39
0.27802667 -0.021386668 0.80200005 8.09555066e-39
0.27885717 -0.021333333 0.80000001 8.279923702e-39
0.27967998 -0.021280002 0.79800004 8.372103918e-39
0.28119999 -0.021280002 0.79800004 8.464300949e-39
0.28236571 -0.021253334 0.79700005 8.647617413e-39
0.28620002 -0.021199999 0.79500002 9.38266572e-39
0.28995618 -0.021253334 0.79700005 1.030175496e-38
0.29147431 -0.021253334 0.79700005 1.048328057e-38
0.29866666 -0.021333333 0.80000001 1.315727473e-38
0.30781716 -0.021440001 0.80400002 1.371187783e-38
0.30934858 -0.021440001 0.80400002 1.353000611e-38
0.31472382 -0.021493334 0.80600005 1.408173515e-38
0.31625906 -0.021493334 0.80600005 1.417357765e-38
0.32245716 -0.021600002 0.81000006 1.472349621e-38
0.33025143 -0.021706667 0.81400001 1.343781889e-38
0.33220956 -0.021733334 0.81500006 1.325413808e-38
0.33540002 -0.021840001 0.81900007 1.316193405e-38
0.33778289 -0.021893334 0.82100004 1.279242986e-38
0.26953143 -0.019908572 0.80400002 9.390192094e-39
0.27106285 -0.019908572 0.80400002 9.112894746e-39
0.27259427 -0.019908572 0.80400002 8.651210342e-39
0.27787814 -0.019958096 0.80600005 7.452319632e-39
0.28108191 -0.019859049 0.80200005 8.37173958e-39
0.28119999 -0.019760001 0.79800004 8.464652675e-39
0.28692001 -0.019735239 0.79700005 9.751072691e-39
0.28880003 -0.019760001 0.79800004 1.030209408e-38
0.29177526 -0.019859049 0.80200005 1.0853477e-38
0.2948305 -0.019859049 0.80200005 1.149704574e-38
0.30094096 -0.019859049 0.80200005 1.334204714e-38
0.30246857 -0.019859049 0.80200005 1.352610489e-38
0.31088001 -0.019908572 0.80400002 1.362077522e-38
0.31318858 -0.019958096 0.80600005 1.398990806e-38
0.31779429 -0.019958096 0.80600005 1.435686749e-38
0.32012191 -0.02000762 0.80800003 1.435684367e-38
0.32480001 -0.020106668 0.81200004 1.417178259e-38
0.33778289 -0.020329524 0.82100004 1.288533455e-38
0.34091049 -0.020329524 0.82100004 1.214965846e-38
0.34247431 -0.020329524 0.82100004 1.169768085e-38
0.26953143 -0.018377144 0.80400002 9.574944889e-39
0.27702856 -0.018468572 0.80800003 7.72496607e-39
0.28248385 -0.018422859 0.80600005 8.37173958e-39
0.28637716 -0.018377144 0.80400002 9.107508155e-39
0.29097146 -0.018377144 0.80400002 1.076235756e-38
0.29250288 -0.018377144 0.80400002 1.140593331e-38
0.2948305 -0.018331429 0.80200005 1.223532404e-38
0.29941335 -0.018331429 0.80200005 1.325054375e-38
0.30475429 -0.018377144 0.80400002 1.380265535e-38
0.30628571 -0.018377144 0.80400002 1.38951957e-38
0.31088001 -0.018377144 0.80400002 1.389699777e-38
0.31625906 -0.018422859 0.80600005 1.453912878e-38
0.31779429 -0.018422859 0.80600005 1.435652277e-38
0.32245716 -0.018514289 0.81000006 1.426432434e-38
0.32870096 -0.018605713 0.81400001 1.371333098e-38
0.33025143 -0.018605713 0.81400001 1.371332257e-38
0.33220956 -0.018628573 0.81500006 1.352928444e-38
0.33778289 -0.018765714 0.82100004 1.306937968e-38
0.34017333 -0.018811429 0.82300001 1.279389281e-38
0.34174097 -0.018811429 0.82300001 1.196416438e-38
0.27881715 -0.01732762 0.82700002 9.480610877e-39
0.2794286 -0.017076191 0.81500006 8.189179818e-39
0.27994666 -0.017013334 0.81200004 7.63636337e-39
0.28234288 -0.01697143 0.81000006 8.279195027e-39
0.28401908 -0.01688762 0.80600005 8.649406871e-39
0.28944001 -0.016845714 0.80400002 1.048721121e-38
0.29250288 -0.016845714 0.80400002 1.159140637e-38
0.2940343 -0.016845714 0.80400002 1.195947423e-38
0.29556569 -0.016845714 0.80400002 1.242258796e-38
0.29862857 -0.016845714 0.80400002 1.315834532e-38
0.30015999 -0.016845714 0.80400002 1.352497545e-38
0.30169141 -0.016845714 0.80400002 1.389160697e-38
0.30475429 -0.016845714 0.80400002 1.389376217e-38
0.30628571 -0.016845714 0.80400002 1.389519149e-38
0.31318858 -0.01688762 0.80600005 1.426578029e-38
0.31472382 -0.01688762 0.80600005 1.454128397e-38
0.31625906 -0.01688762 0.80600005 1.444872961e-38
0.32480001 -0.017013334 0.81200004 1.399025558e-38
0.32634667 -0.017013334 0.81200004 1.380658459e-38
0.32870096 -0.01705524 0.81400001 1.380622726e-38
0.33220956 -0.017076191 0.81500006 1.362147306e-38
0.33540002 -0.017160002 0.81900007 1.343780768e-38
0.33778289 -0.017201904 0.82100004 1.325414369e-38
0.34017333 -0.01724381 0.82300001 1.2978633e-38
0.34174097 -0.01724381 0.82300001 1.233578172e-38
0.28217143 -0.015676191 0.82300001 8.647630025e-39
0.28098097 -0.015523811 0.81500006 8.279207639e-39
0.28304002 -0.015466668 0.81200004 8.37139346e-39
0.28458667 -0.015466668 0.81200004 8.557211241e-39
0.28626287 -0.015390476 0.80800003 9.199714995e-39
0.28708956 -0.015352381 0.80600005 9.659971475e-39
0.28944001 -0.015314286 0.80400002 1.076415543e-38
0.29169527 -0.015352381 0.80600005 1.122512937e-38
0.2932305 -0.015352381 0.80600005 1.177686682e-38
0.29556569 -0.015314286 0.80400002 1.260517995e-38
0.29709715 -0.015314286 0.80400002 1.297359113e-38
0.30015999 -0.015314286 0.80400002 1.38001204e-38
0.30169141 -0.015314286 0.80400002 1.425966502e-38
0.30475429 -0.015314286 0.80400002 1.398666966e-38
0.30934858 -0.015314286 0.80400002 1.398846893e-38
0.31088001 -0.015314286 0.80400002 1.417394199e-38
0.31858286 -0.015390476 0.80800003 1.454092804e-38
0.32245716 -0.015428572 0.81000006 1.426541735e-38
0.32634667 -0.015466668 0.81200004 1.380623286e-38
0.33302477 -0.015561905 0.81700003 1.37136743e-38
0.27791238 -0.014211429 0.82900006 1.003342592e-38
0.27949145 -0.014211429 0.82900006 9.850468193e-39
0.28039241 -0.014177144 0.82700002 9.574241437e-39
0.28285718 -0.014142857 0.82500005 8.927790225e-39
0.28373715 -0.013954286 0.81400001 8.280278231e-39
0.28862479 -0.013817144 0.80600005 1.01205965e-38
0.29169527 -0.013817144 0.80600005 1.122620417e-38
0.2932305 -0.013817144 0.80600005 1.168646205e-38
0.29476574 -0.013817144 0.80600005 1.205488584e-38
0.29556569 -0.013782857 0.80400002 1.242473335e-38
0.30015999 -0.013782857 0.80400002 1.352568871e-38
0.30704764 -0.013817144 0.80600005 1.371294142e-38
0.31011811 -0.013817144 0.80600005 1.380587413e-38
0.31165335 -0.013817144 0.80600005 1.408282816e-38
0.31472382 -0.013817144 0.80600005 1.444910096e-38
0.3209143 -0.013885715 0.81000006 1.444873522e-38
0.32325333 -0.013920001 0.81200004 1.417287e-38
0.32480001 -0.013920001 0.81200004 1.40810359e-38
0.32715046 -0.013954286 0.81400001 1.408102889e-38
0.32870096 -0.013954286 0.81400001 1.38973523e-38
0.33220956 -0.013971429 0.81500006 1.343781748e-38
0.34247431 -0.014074286 0.82100004 1.23332762e-38
0.28196764 -0.012601905 0.82700002 9.666792996e-39
0.28253338 -0.012419049 0.81500006 8.552921867e-39
0.28373715 -0.012403809 0.81400001 8.188444136e-39
0.28528762 -0.012403809 0.81400001 8.371752192e-39
0.28934097 -0.012312382 0.80800003 1.002983019e-38
0.29016003 -0.012281906 0.80600005 1.085778599e-38
0.29169527 -0.012281906 0.80600005 1.122728177e-38
0.29476574 -0.012281906 0.80600005 1.196447827e-38
0.29783621 -0.012281906 0.80600005 1.27009587e-38
0.29937145 -0.012281906 0.80600005 1.306794195e-38
0.30322286 -0.012251428 0.80400002 1.371189745e-38
0.30704764 -0.012281906 0.80600005 1.352963476e-38
0.31011811 -0.012281906 0.80600005 1.362328074e-38
0.31165335 -0.012281906 0.80600005 1.399062833e-38
0.31625906 -0.012281906 0.80600005 1.481571146e-38
0.31858286 -0.012312382 0.80800003 1.509122075e-38
0.3209143 -0.012342858 0.81000006 1.463204748e-38
0.32870096 -0.012403809 0.81400001 1.399026679e-38
0.33302477 -0.012449524 0.81700003 1.316195226e-38
0.33458099 -0.012449524 0.81700003 1.270278459e-38
0.33852002 -0.012480001 0.81900007 1.325235984e-38
0.27791238 -0.011053334 0.82900006 1.003412097e-38
0.27949145 -0.011053334 0.82900006 9.85369258e-39
0.2844286 -0.011000001 0.82500005 9.019636932e-39
0.28392002 -0.01092 0.81900007 8.466112828e-39
0.28373715 -0.010853333 0.81400001 7.91294045e-39
0.28922668 -0.010826667 0.81200004 9.108595562e-39
0.29241905 -0.010773334 0.80800003 1.095034315e-38
0.29937145 -0.010746667 0.80600005 1.279387179e-38
0.30244192 -0.010746667 0.80600005 1.343745595e-38
0.3055124 -0.010746667 0.80600005 1.371332818e-38
0.31165335 -0.010746667 0.80600005 1.408174215e-38
0.31318858 -0.010746667 0.80600005 1.417393778e-38
0.31704384 -0.010773334 0.80800003 1.444943727e-38
0.31858286 -0.010773334 0.80800003 1.454127977e-38
0.3209143 -0.010800001 0.81000006 1.40821107e-38
0.32245716 -0.010800001 0.81000006 1.371478833e-38
0.32634667 -0.010826667 0.81200004 1.481609542e-38
0.33852002 -0.01092 0.81900007 1.316196067e-38
0.34164003 -0.01092 0.81900007 1.270170839e-38
0.2810705 -0.0094742868 0.82900006 9.758653716e-39
0.28264955 -0.0094742868 0.82900006 9.758643907e-39
0.2844286 -0.0094285719 0.82500005 9.204751262e-39
0.28461334 -0.009382857 0.82100004 8.468272229e-39
0.28548002 -0.0093600005 0.81900007 7.73070719e-39
0.28563809 -0.0093142865 0.81500006 8.005845137e-39
0.28683808 -0.0093028564 0.81400001 8.280634161e-39
0.28768003 -0.0092799999 0.81200004 8.647618814e-39
0.28922668 -0.0092799999 0.81200004 9.016401334e-39
0.29077333 -0.0092799999 0.81200004 9.56778005e-39
0.29241905 -0.0092342859 0.80800003 1.067305561e-38
0.2939581 -0.0092342859 0.80800003 1.131840961e-38
0.29783621 -0.0092114294 0.80600005 1.224143089e-38
0.29937145 -0.0092114294 0.80600005 1.260948194e-38
0.30090669 -0.0092114294 0.80600005 1.288569748e-38
0.30704764 -0.0092114294 0.80600005 1.371116037e-38
0.30858287 -0.0092114294 0.80600005 1.371223657e-38
0.31011811 -0.0092114294 0.80600005 1.389555023e-38
0.31472382 -0.0092114294 0.80600005 1.417358186e-38
0.31937146 -0.0092571443 0.81000006 1.408174075e-38
0.3209143 -0.0092571443 0.81000006 1.362364087e-38
0.32325333 -0.0092799999 0.81200004 1.32552353e-38
0.32480001 -0.0092799999 0.81200004 1.426472231e-38
0.32715046 -0.0093028564 0.81400001 1.536708597e-38
0.32870096 -0.0093028564 0.81400001 1.463238239e-38
0.33025143 -0.0093028564 0.81400001 1.398989545e-38
0.33852002 -0.0093600005 0.81900007 1.307011817e-38
0.34008002 -0.0093600005 0.81900007 1.297900434e-38
0.34330857 -0.0094057145 0.82300001 1.297721628e-38
0.28264955 -0.0078952387 0.82900006 9.850489212e-39
0.28511807 -0.0078761913 0.82700002 9.206194599e-39
0.28600001 -0.0078571429 0.82500005 8.652669094e-39
0.28617716 -0.0078190472 0.82100004 8.191323804e-39
0.28704002 -0.0078000003 0.81900007 8.097680633e-39
0.29077333 -0.0077333339 0.81200004 9.200442269e-39
0.2970362 -0.0076952381 0.80800003 1.177938496e-38
0.29937145 -0.0076761907 0.80600005 1.242365715e-38
0.30090669 -0.0076761907 0.80600005 1.269986849e-38
0.30858287 -0.0076761907 0.80600005 1.380406786e-38
0.31165335 -0.0076761907 0.80600005 1.454020217e-38
0.31550476 -0.0076952381 0.80800003 1.417251266e-38
0.31937146 -0.007714286 0.81000006 1.398990386e-38
0.32325333 -0.0077333339 0.81200004 1.343853075e-38
0.32480001 -0.0077333339 0.81200004 1.408138623e-38
0.32634667 -0.0077333339 0.81200004 1.481641071e-38
0.32789335 -0.0077333339 0.81200004 1.435685768e-38
0.33025143 -0.0077523813 0.81400001 1.39895227e-38
0.34091049 -0.0078190472 0.82100004 1.334526733e-38
0.2832762 -0.0064380956 0.84500003 1.031033651e-38
0.28378287 -0.0063771429 0.83700001 1.012527263e-38
0.28333145 -0.0063314289 0.83100003 9.941954765e-39
0.28580764 -0.0063161911 0.82900006 9.298383222e-39
0.28600001 -0.0062857145 0.82500005 8.929247576e-39
0.28617716 -0.0062552383 0.82100004 8.651215947e-39
0.28774098 -0.0062552383 0.82100004 8.281348823e-39
0.28874287 -0.0062095243 0.81500006 8.189866454e-39
0.28993905 -0.0062019047 0.81400001 8.465388357e-39
0.29077333 -0.0061866669 0.81200004 8.833104488e-39
0.29468572 -0.0061714291 0.81000006 1.058338092e-38
0.29937145 -0.0061409529 0.80600005 1.223963443e-38
0.30244192 -0.0061409529 0.80600005 1.297610926e-38
0.30397716 -0.0061409529 0.80600005 1.315979006e-38
0.30704764 -0.0061409529 0.80600005 1.362004234e-38
0.30858287 -0.0061409529 0.80600005 1.389590756e-38
0.31011811 -0.0061409529 0.80600005 1.43558039e-38
0.3209143 -0.0061714291 0.81000006 1.380549578e-38
0.32325333 -0.0061866669 0.81200004 1.371403163e-38
0.32480001 -0.0061866669 0.81200004 1.399026819e-38
0.33769333 -0.0062247622 0.81700003 1.343710142e-38
0.34008002 -0.0062400005 0.81900007 1.371261772e-38
0.34247431 -0.0062552383 0.82100004 1.398775707e-38
0.2832762 -0.0048285713 0.84500003 1.021671576e-38
0.28421146 -0.0048171435 0.84300005 1.021672417e-38
0.28513905 -0.0048057144 0.84100002 1.040004624e-38
0.28401336 -0.0047599999 0.83300006 1.049188174e-38
0.28580764 -0.0047371434 0.82900006 9.482767476e-39
0.28687429 -0.0047028572 0.82300001 8.84134132e-39
0.28704002 -0.0046800002 0.81900007 8.466812076e-39
0.28860003 -0.0046800002 0.81900007 8.190583919e-39
0.28945145 -0.004668572 0.81700003 8.190220982e-39
0.28993905 -0.0046514282 0.81400001 8.282793562e-39
0.29148951 -0.0046514282 0.81400001 8.741274597e-39
0.29622862 -0.0046285721 0.81000006 1.085889161e-38
0.30397716 -0.0046057147 0.80600005 1.288392764e-38
0.30627048 -0.004617143 0.80800003 1.31590726e-38
0.31396571 -0.004617143 0.80800003 1.417249445e-38
0.31550476 -0.004617143 0.80800003 1.408029882e-38
0.3178286 -0.0046285721 0.81000006 1.398882065e-38
0.31937146 -0.0046285721 0.81000006 1.389733128e-38
0.3209143 -0.0046285721 0.81000006 1.38058433e-38
0.32480001 -0.0046399999 0.81200004 1.38984327e-38
0.32634667 -0.0046399999 0.81200004 1.408210089e-38
0.33025143 -0.0046514282 0.81400001 1.408317428e-38
0.33180189 -0.0046514282 0.81400001 1.389806836e-38
0.3337619 -0.0046571433 0.81500006 1.371332117e-38
0.33769333 -0.004668572 0.81700003 1.343782729e-38
0.34247431 -0.0046914285 0.82100004 1.343565808e-38
0.34885716 -0.004714286 0.82500005 1.196735513e-38
0.28401336 -0.0031733336 0.83300006 1.113365401e-38
0.28687429 -0.0031352381 0.82300001 9.115781421e-39
0.28930476 -0.0031276192 0.82100004 8.374984988e-39
0.29541335 -0.0030933334 0.81200004 1.012313005e-38
0.29931432 -0.0030857145 0.81000006 1.14120738e-38
0.30473143 -0.0030780954 0.80800003 1.260804701e-38
0.30702859 -0.0030857145 0.81000006 1.297538619e-38
0.31011429 -0.0030857145 0.81000006 1.35267649e-38
0.31165716 -0.0030857145 0.81000006 1.361932767e-38
0.31474286 -0.0030857145 0.81000006 1.380515386e-38
0.32245716 -0.0030857145 0.81000006 1.389878022e-38
0.32480001 -0.0030933334 0.81200004 1.38984299e-38
0.32789335 -0.0030933334 0.81200004 1.399098566e-38
0.33025143 -0.0031009524 0.81400001 1.408282536e-38
0.33180189 -0.0031009524 0.81400001 1.380624828e-38
0.34008002 -0.0031200002 0.81900007 1.316125021e-38
0.34728575 -0.0031428572 0.82500005 1.242653401e-38
0.3512781 -0.0031504761 0.82700002 1.205852221e-38
0.35285333 -0.0031504761 0.82700002 1.196600568e-38
0.2832762 -0.0016095239 0.84500003 1.003340631e-38
0.2848857 -0.0016095239 0.84500003 1.003305878e-38
0.28491428 -0.0015828572 0.83100003 1.030748767e-38
0.28757143 -0.0015714286 0.82500005 9.206550529e-39
0.29086858 -0.0015638096 0.82100004 7.914382386e-39
0.29256383 -0.0015561905 0.81700003 8.189902888e-39
0.29339999 -0.0015523811 0.81500006 8.74092147e-39
0.29931432 -0.0015428573 0.81000006 1.122841542e-38
0.30319241 -0.0015390477 0.80800003 1.214956037e-38
0.30702859 -0.0015428573 0.81000006 1.288568767e-38
0.30857146 -0.0015428573 0.81000006 1.316119136e-38
0.31165716 -0.0015428573 0.81000006 1.352856137e-38
0.31550476 -0.0015390477 0.80800003 1.38065902e-38
0.31858286 -0.0015390477 0.80800003 1.398990386e-38
0.3209143 -0.0015428573 0.81000006 1.380623707e-38
0.32245716 -0.0015428573 0.81000006 1.371547637e-38
0.32480001 -0.0015466667 0.81200004 1.380695173e-38
0.32789335 -0.0015466667 0.81200004 1.398991507e-38
0.33180189 -0.0015504762 0.81400001 1.389774186e-38
0.33335239 -0.0015504762 0.81400001 1.362185422e-38
0.33686668 -0.0015523811 0.81500006 1.334526172e-38
0.34164003 -0.0015600001 0.81900007 1.233434959e-38
0.3464438 -0.001567619 0.82300001 1.242690256e-38
0.34885716 -0.0015714286 0.82500005 1.233472654e-38
0.3512781 -0.0015752381 0.82700002 1.214783257e-38
0.35442859 -0.0015752381 0.82700002 1.169878227e-38
0.28310478 0 0.83500004 1.030750589e-38
0.28401336 0 0.83300006 1.067484227e-38
0.28826857 0 0.82700002 9.299116101e-39
0.29086858 0 0.82100004 7.547037599e-39
0.29172003 0 0.81900007 7.179342487e-39
0.29256383 0 0.81700003 7.730359668e-39
0.29339999 0 0.81500006 8.373935415e-39
0.29614094 0 0.81400001 9.479201171e-39
0.29696 0 0.81200004 1.012384611e-38
0.30005333 0 0.81200004 1.104508634e-38
0.30240002 0 0.81000006 1.169075143e-38
0.30702859 0 0.81000006 1.279386759e-38
0.30857146 0 0.81000006 1.307009014e-38
0.31011429 0 0.81000006 1.334559943e-38
0.31165716 0 0.81000006 1.343743913e-38
0.31704384 0 0.80800003 1.389769001e-38
0.32012191 0 0.80800003 1.380623427e-38
0.324 0 0.81000006 1.371582949e-38
0.32634667 0 0.81200004 1.380587834e-38
0.32789335 0 0.81200004 1.398955633e-38
0.3353143 0 0.81500006 1.343709722e-38
0.33686668 0 0.81500006 1.325379337e-38
0.3464438 0 0.82300001 1.251836671e-38
0.34885716 0 0.82500005 1.242655223e-38
0.35442859 0 0.82700002 1.141787658e-38
0.28151432 0.0015904763 0.83500004 9.663932946e-39
0.28469527 0.0015904763 0.83500004 1.067592407e-38
0.28491428 0.0015828572 0.83100003 1.030857788e-38
0.28649715 0.0015828572 0.83100003 9.94125832e-39
0.28738669 0.0015790478 0.82900006 1.00349113e-38
0.29086858 0.0015638096 0.82100004 7.914736915e-39
0.2924324 0.0015638096 0.82100004 7.547397733e-39
0.30005333 0.0015466667 0.81200004 1.08610412e-38
0.30160001 0.0015466667 0.81200004 1.122873351e-38
0.30314669 0.0015466667 0.81200004 1.159642582e-38
0.30548573 0.0015428573 0.81000006 1.223964144e-38
0.30702859 0.0015428573 0.81000006 1.251514793e-38
0.31011429 0.0015428573 0.81000006 1.316014179e-38
0.3132 0.0015428573 0.81000006 1.33463211e-38
0.32012191 0.0015390477 0.80800003 1.371403864e-38
0.32789335 0.0015466667 0.81200004 1.389736351e-38
0.32944003 0.0015466667 0.81200004 1.40810387e-38
0.33180189 0.0015504762 0.81400001 1.389737191e-38
0.34008002 0.0015600001 0.81900007 1.297865822e-38
0.34164003 0.0015600001 0.81900007 1.251980024e-38
0.3440381 0.0015638096 0.82100004 1.26105217e-38
0.34801143 0.001567619 0.82300001 1.251694439e-38
0.34957907 0.001567619 0.82300001 1.233255593e-38
0.35442859 0.0015752381 0.82700002 1.113697089e-38
0.35600382 0.0015752381 0.82700002 1.197611605e-38
0.28151432 0.0031809525 0.83500004 9.389847374e-39
0.28738669 0.0031580955 0.82900006 1.049334189e-38
0.28826857 0.0031504761 0.82700002 1.085959647e-38
0.29086858 0.0031276192 0.82100004 8.282426421e-39
0.29172003 0.0031200002 0.81900007 7.914734112e-39
0.29328004 0.0031200002 0.81900007 7.914383788e-39
0.30005333 0.0030933334 0.81200004 1.058516898e-38
0.30160001 0.0030933334 0.81200004 1.113582322e-38
0.30314669 0.0030933334 0.81200004 1.150316521e-38
0.30469334 0.0030933334 0.81200004 1.187194773e-38
0.30548573 0.0030857145 0.81000006 1.205634179e-38
0.31011429 0.0030857145 0.81000006 1.297575473e-38
0.3132 0.0030857145 0.81000006 1.316050332e-38
0.31628576 0.0030857145 0.81000006 1.34381622e-38
0.31704384 0.0030780954 0.80800003 1.343744054e-38
0.31937146 0.0030857145 0.81000006 1.352964317e-38
0.32944003 0.0030933334 0.81200004 1.389700898e-38
0.33335239 0.0031009524 0.81400001 1.380516367e-38
0.33490285 0.0031009524 0.81400001 1.371332257e-38
0.33841908 0.0031047622 0.81500006 1.343710843e-38
0.35285333 0.0031504761 0.82700002 1.168756067e-38
0.28422859 0.0047371434 0.82900006 1.012560194e-38
0.28914285 0.004714286 0.82500005 9.666794398e-39
0.29172003 0.0046800002 0.81900007 8.006922736e-39
0.29412001 0.004668572 0.81700003 8.096628258e-39
0.29650477 0.0046571433 0.81500006 9.110778785e-39
0.2992419 0.0046514282 0.81400001 1.003164347e-38
0.31011429 0.0046285721 0.81000006 1.260805401e-38
0.3132 0.0046285721 0.81000006 1.306867483e-38
0.31628576 0.0046285721 0.81000006 1.334634072e-38
0.31937146 0.0046285721 0.81000006 1.352965578e-38
0.3209143 0.0046285721 0.81000006 1.371368691e-38
0.32245716 0.0046285721 0.81000006 1.398955774e-38
0.32634667 0.0046399999 0.81200004 1.389629992e-38
0.32944003 0.0046399999 0.81200004 1.407996391e-38
0.33180189 0.0046514282 0.81400001 1.426362089e-38
0.33645332 0.0046514282 0.81400001 1.38055112e-38
0.33841908 0.0046571433 0.81500006 1.362112974e-38
0.34957907 0.0047028572 0.82300001 1.251766466e-38
0.35200003 0.004714286 0.82500005 1.205490826e-38
0.28580764 0.0063161911 0.82900006 9.851896116e-39
0.28738669 0.0063161911 0.82900006 9.851905925e-39
0.29000953 0.0062704762 0.82300001 9.206181987e-39
0.29399621 0.0062552383 0.82100004 8.187735079e-39
0.29650477 0.0062095243 0.81500006 8.926379118e-39
0.2976914 0.0062019047 0.81400001 9.386995732e-39
0.2992419 0.0062019047 0.81400001 9.939083505e-39
0.30079237 0.0062019047 0.81400001 1.039933438e-38
0.30469334 0.0061866669 0.81200004 1.141276884e-38
0.30778667 0.0061866669 0.81200004 1.214887793e-38
0.31011429 0.0061714291 0.81000006 1.233254332e-38
0.31397337 0.0061866669 0.81200004 1.297683793e-38
0.31396571 0.0061561908 0.80800003 1.306975663e-38
0.3178286 0.0061714291 0.81000006 1.334598479e-38
0.31937146 0.0061714291 0.81000006 1.352929705e-38
0.3209143 0.0061714291 0.81000006 1.380444481e-38
0.32789335 0.0061866669 0.81200004 1.408031984e-38
0.33335239 0.0062019047 0.81400001 1.509047947e-38
0.33490285 0.0062019047 0.81400001 1.453909935e-38
0.33686668 0.0062095243 0.81500006 1.398918079e-38
0.33841908 0.0062095243 0.81500006 1.380517068e-38
0.34080571 0.0062247622 0.81700003 1.362041228e-38
0.35200003 0.0062857145 0.82500005 1.242224884e-38
0.35357144 0.0062857145 0.82500005 1.214496271e-38
0.35514289 0.0062857145 0.82500005 1.177620121e-38
0.28738669 0.0078952387 0.82900006 9.8504766e-39
0.28896573 0.0078952387 0.82900006 1.003487767e-38
0.2898438 0.0078761913 0.82700002 9.944132383e-39
0.29399621 0.0078190472 0.82100004 8.005496214e-39
0.29723239 0.0077809524 0.81700003 8.742338183e-39
0.29805717 0.0077619054 0.81500006 9.202596065e-39
0.2992419 0.0077523813 0.81400001 9.662851144e-39
0.30234283 0.0077523813 0.81400001 1.076632324e-38
0.30314669 0.0077333339 0.81200004 1.10436318e-38
0.30469334 0.0077333339 0.81200004 1.141311637e-38
0.30778667 0.0077333339 0.81200004 1.196519293e-38
0.31397337 0.0077333339 0.81200004 1.270133004e-38
0.31628576 0.007714286 0.81000006 1.306832451e-38
0.31937146 0.007714286 0.81000006 1.343674409e-38
0.3209143 0.007714286 0.81000006 1.362041368e-38
0.32480001 0.0077333339 0.81200004 1.38962761e-38
0.32944003 0.0077333339 0.81200004 1.408173094e-38
0.33180189 0.0077523813 0.81400001 1.435615423e-38
0.33335239 0.0077523813 0.81400001 1.463129078e-38
0.3353143 0.0077619054 0.81500006 1.426393758e-38
0.33841908 0.0077619054 0.81500006 1.371298906e-38
0.34080571 0.0077809524 0.81700003 1.352858799e-38
0.34716573 0.0078190472 0.82100004 1.288430039e-38
0.34957907 0.0078380955 0.82300001 1.260699743e-38
0.28896573 0.0094742868 0.82900006 1.021746546e-38
0.2898438 0.0094514284 0.82700002 1.040365458e-38
0.29228574 0.0094285719 0.82500005 9.018204805e-39
0.29399621 0.009382857 0.82100004 7.822894412e-39
0.29556 0.009382857 0.82100004 8.280992893e-39
0.29640004 0.0093600005 0.81900007 8.37462065e-39
0.30544382 0.0093028564 0.81400001 1.141167303e-38
0.30623999 0.0092799999 0.81200004 1.159712507e-38
0.30933335 0.0092799999 0.81200004 1.150529518e-38
0.31088001 0.0092799999 0.81200004 1.12297929e-38
0.31474286 0.0092571443 0.81000006 1.260913722e-38
0.31628576 0.0092571443 0.81000006 1.288428918e-38
0.3209143 0.0092571443 0.81000006 1.352858659e-38
0.32245716 0.0092571443 0.81000006 1.361969762e-38
0.32944003 0.0092799999 0.81200004 1.398882486e-38
0.33335239 0.0093028564 0.81400001 1.42639642e-38
0.33841908 0.0093142865 0.81500006 1.371298206e-38
0.34080571 0.009337144 0.81700003 1.343674689e-38
0.3423619 0.009337144 0.81700003 1.325270736e-38
0.34957907 0.0094057145 0.82300001 1.260769948e-38
0.35114667 0.0094057145 0.82300001 1.233253772e-38
0.35357144 0.0094285719 0.82500005 1.21485192e-38
0.35600382 0.0094514284 0.82700002 1.186979393e-38
0.29141906 0.011026666 0.82700002 1.113760287e-38
0.29299429 0.011026666 0.82700002 9.478462687e-39
0.29314476 0.010973333 0.82300001 7.824334947e-39
0.29805717 0.010866667 0.81500006 8.925281901e-39
0.30116194 0.010866667 0.81500006 9.753970576e-39
0.30271432 0.010866667 0.81500006 1.030642129e-38
0.30544382 0.010853333 0.81400001 1.113508194e-38
0.30933335 0.010826667 0.81200004 1.159605448e-38
0.31397337 0.010826667 0.81200004 1.224106516e-38
0.31474286 0.010800001 0.81000006 1.251657725e-38
0.31706667 0.010826667 0.81200004 1.279209074e-38
0.32016003 0.010826667 0.81200004 1.334419673e-38
0.32325333 0.010826667 0.81200004 1.371153732e-38
0.32789335 0.010826667 0.81200004 1.408029041e-38
0.32944003 0.010826667 0.81200004 1.389663623e-38
0.33490285 0.010853333 0.81400001 1.398917798e-38
0.33645332 0.010853333 0.81400001 1.398954653e-38
0.34476 0.01092 0.81900007 1.325306609e-38
0.34632 0.01092 0.81900007 1.297684774e-38
0.34957907 0.010973333 0.82300001 1.279279139e-38
0.35514289 0.011000001 0.82500005 1.20541922e-38
0.36002287 0.011053334 0.82900006 1.132417735e-38
0.36160195 0.011053334 0.82900006 1.077790637e-38
0.29212382 0.012632382 0.82900006 1.159642302e-38
0.30271432 0.012419049 0.81500006 1.003019733e-38
0.30389333 0.012403809 0.81400001 1.039825958e-38
0.30544382 0.012403809 0.81400001 1.08577986e-38
0.30699429 0.012403809 0.81400001 1.122586085e-38
0.30933335 0.012373334 0.81200004 1.177901361e-38
0.31088001 0.012373334 0.81200004 1.196304194e-38
0.31397337 0.012373334 0.81200004 1.214921985e-38
0.31552002 0.012373334 0.81200004 1.24243648e-38
0.31706667 0.012373334 0.81200004 1.270060137e-38
0.32170668 0.012373334 0.81200004 1.352714326e-38
0.32480001 0.012373334 0.81200004 1.426361528e-38
0.32634667 0.012373334 0.81200004 1.463167053e-38
0.32789335 0.012373334 0.81200004 1.417284757e-38
0.32944003 0.012373334 0.81200004 1.3805514e-38
0.33180189 0.012403809 0.81400001 1.380552381e-38
0.33335239 0.012403809 0.81400001 1.389733968e-38
0.33490285 0.012403809 0.81400001 1.38976802e-38
0.33645332 0.012403809 0.81400001 1.398953251e-38
0.33841908 0.012419049 0.81500006 1.371476171e-38
0.34080571 0.012449524 0.81700003 1.352964457e-38
0.34476 0.012480001 0.81900007 1.343637275e-38
0.34957907 0.012540952 0.82300001 1.297683093e-38
0.35357144 0.012571429 0.82500005 1.260770089e-38
0.35514289 0.012571429 0.82500005 1.233077909e-38
0.35757905 0.012601905 0.82700002 1.205383066e-38
0.35915428 0.012601905 0.82700002 1.158747293e-38
0.29054478 0.014211429 0.82900006 1.040148818e-38
0.29212382 0.014211429 0.82900006 1.076990356e-38
0.29614475 0.014177144 0.82700002 8.373555663e-39
0.29772002 0.014177144 0.82700002 8.188445537e-39
0.29712382 0.014074286 0.82100004 8.005130475e-39
0.29796001 0.014040002 0.81900007 7.72998412e-39
0.29878861 0.014005714 0.81700003 8.281357231e-39
0.30034477 0.014005714 0.81700003 8.834888341e-39
0.30190095 0.014005714 0.81700003 9.202597466e-39
0.30581906 0.013971429 0.81500006 1.039792047e-38
0.30854478 0.013954286 0.81400001 1.122730979e-38
0.30933335 0.013920001 0.81200004 1.150243793e-38
0.31088001 0.013920001 0.81200004 1.177793741e-38
0.31552002 0.013920001 0.81200004 1.224139446e-38
0.32016003 0.013920001 0.81200004 1.316050052e-38
0.32170668 0.013920001 0.81200004 1.334453164e-38
0.32480001 0.013920001 0.81200004 1.389663063e-38
0.32634667 0.013920001 0.81200004 1.417357064e-38
0.32789335 0.013920001 0.81200004 1.380586853e-38
0.32944003 0.013920001 0.81200004 1.343816781e-38
0.33180189 0.013954286 0.81400001 1.36218402e-38
0.33645332 0.013954286 0.81400001 1.389804314e-38
0.33997145 0.013971429 0.81500006 1.352927883e-38
0.34476 0.014040002 0.81900007 1.325269615e-38
0.34632 0.014040002 0.81900007 1.3161232e-38
0.34957907 0.014108571 0.82300001 1.29775582e-38
0.35357144 0.014142857 0.82500005 1.26077135e-38
0.35600382 0.014177144 0.82700002 1.233042456e-38
0.29054478 0.015790477 0.82900006 1.003342873e-38
0.29212382 0.015790477 0.82900006 9.941241505e-39
0.29528192 0.015790477 0.82900006 8.835618417e-39
0.29614475 0.015752383 0.82700002 8.465032427e-39
0.29772002 0.015752383 0.82700002 8.190239199e-39
0.29868764 0.015638094 0.82100004 7.086776915e-39
0.30190095 0.015561905 0.81700003 8.924934379e-39
0.30389333 0.015504763 0.81400001 9.663931545e-39
0.30581906 0.015523811 0.81500006 1.003128614e-38
0.30854478 0.015504763 0.81400001 1.095036417e-38
0.31319621 0.015504763 0.81400001 1.177937655e-38
0.31474668 0.015504763 0.81400001 1.196482439e-38
0.31552002 0.015466668 0.81200004 1.214991349e-38
0.31861335 0.015466668 0.81200004 1.270060137e-38
0.32016003 0.015466668 0.81200004 1.306829508e-38
0.32170668 0.015466668 0.81200004 1.316084103e-38
0.32480001 0.015466668 0.81200004 1.352964177e-38
0.32789335 0.015466668 0.81200004 1.343888948e-38
0.33098668 0.015466668 0.81200004 1.353108791e-38
0.33490285 0.015504763 0.81400001 1.380692651e-38
0.34391811 0.015561905 0.81700003 1.316122079e-38
0.35114667 0.015676191 0.82300001 1.288464511e-38
0.35600382 0.015752383 0.82700002 1.233006583e-38
0.35757905 0.015752383 0.82700002 1.205491106e-38
0.36160195 0.015790477 0.82900006 1.030754793e-38
0.36580953 0.015904762 0.83500004 1.067240821e-38
0.36740002 0.015904762 0.83500004 1.115136082e-38
0.29299429 0.01732762 0.82700002 9.30092798e-39
0.29528192 0.017369524 0.82900006 8.834910762e-39
0.29857147 0.017285716 0.82500005 7.822176947e-39
0.30426666 0.017076191 0.81500006 9.386628592e-39
0.30854478 0.01705524 0.81400001 1.067449475e-38
0.31009525 0.01705524 0.81400001 1.094964951e-38
0.31474668 0.01705524 0.81400001 1.168860464e-38
0.31552002 0.017013334 0.81200004 1.20569976e-38
0.32634667 0.017013334 0.81200004 1.371224077e-38
0.32870096 0.01705524 0.81400001 1.352929565e-38
0.33490285 0.01705524 0.81400001 1.398990806e-38
0.33841908 0.017076191 0.81500006 1.38973523e-38
0.33997145 0.017076191 0.81500006 1.38962733e-38
0.3423619 0.017118096 0.81700003 1.334561765e-38
0.34632 0.017160002 0.81900007 1.307046009e-38
0.35357144 0.017285716 0.82500005 1.288393885e-38
0.36002287 0.017369524 0.82900006 1.150498269e-38
0.36247429 0.017411429 0.83100003 1.095145438e-38
0.36668572 0.017537143 0.83700001 1.104077455e-38
0.29141906 0.018902857 0.82700002 9.578558837e-39
0.29456952 0.018902857 0.82700002 8.929611913e-39
0.29686096 0.018948574 0.82900006 8.556519e-39
0.29844004 0.018948574 0.82900006 8.189887473e-39
0.29929525 0.018902857 0.82700002 8.004414411e-39
0.30181524 0.018765714 0.82100004 8.097683436e-39
0.30420002 0.018720001 0.81900007 8.741980852e-39
0.30854478 0.018605713 0.81400001 1.039862672e-38
0.31009525 0.018605713 0.81400001 1.058302359e-38
0.31164572 0.018605713 0.81400001 1.085780981e-38
0.31319621 0.018605713 0.81400001 1.113618336e-38
0.31474668 0.018605713 0.81400001 1.150423019e-38
0.31552002 0.01856 0.81200004 1.196483139e-38
0.31706667 0.01856 0.81200004 1.242365715e-38
0.31939811 0.018605713 0.81400001 1.251514232e-38
0.32094857 0.018605713 0.81400001 1.269952097e-38
0.32249904 0.018605713 0.81400001 1.288425975e-38
0.32325333 0.01856 0.81200004 1.315977745e-38
0.32634667 0.01856 0.81200004 1.371116737e-38
0.32870096 0.018605713 0.81400001 1.371117578e-38
0.32944003 0.01856 0.81200004 1.371226039e-38
0.33335239 0.018605713 0.81400001 1.435726126e-38
0.33997145 0.018628573 0.81500006 1.426432994e-38
0.3430762 0.018628573 0.81500006 1.252053452e-38
0.3454743 0.018674288 0.81700003 1.307190482e-38
0.34872952 0.018765714 0.82100004 1.362040527e-38
0.35029334 0.018765714 0.82100004 1.334382119e-38
0.36002287 0.018948574 0.82900006 1.196486502e-38
0.36421907 0.019085715 0.83500004 1.159536504e-38
0.29141906 0.020478096 0.82700002 9.66715313e-39
0.29757717 0.020577144 0.83100003 8.650157967e-39
0.29844004 0.02052762 0.82900006 8.281369842e-39
0.29929525 0.020478096 0.82700002 8.004058481e-39
0.30098286 0.020379048 0.82300001 7.821086737e-39
0.30264002 0.020280002 0.81900007 8.190237798e-39
0.30420002 0.020280002 0.81900007 8.466475764e-39
0.30501333 0.020230476 0.81700003 8.834190494e-39
0.30656952 0.020230476 0.81700003 9.295514764e-39
0.31164572 0.02015619 0.81400001 1.067449895e-38
0.31319621 0.02015619 0.81400001 1.104291573e-38
0.31474668 0.02015619 0.81400001 1.150281068e-38
0.31784761 0.02015619 0.81400001 1.223821211e-38
0.31939811 0.02015619 0.81400001 1.24229579e-38
0.32094857 0.02015619 0.81400001 1.260805962e-38
0.32249904 0.02015619 0.81400001 1.288428077e-38
0.32480001 0.020106668 0.81200004 1.352785231e-38
0.32634667 0.020106668 0.81200004 1.389556004e-38
0.32944003 0.020106668 0.81200004 1.362007457e-38
0.33098668 0.020106668 0.81200004 1.37133576e-38
0.33490285 0.02015619 0.81400001 1.380517068e-38
0.33645332 0.02015619 0.81400001 1.380515246e-38
0.33841908 0.020180954 0.81500006 1.389697114e-38
0.3430762 0.020180954 0.81500006 1.297864421e-38
0.3454743 0.020230476 0.81700003 1.325379337e-38
0.3527143 0.020379048 0.82300001 1.306581058e-38
0.35514289 0.020428572 0.82500005 1.279174743e-38
0.35757905 0.020478096 0.82700002 1.251730873e-38
0.36002287 0.02052762 0.82900006 1.214995833e-38
0.36827999 0.020725716 0.83700001 1.14052747e-38
0.37324381 0.020824762 0.84100002 1.023948967e-38
0.29582858 0.022266667 0.83500004 9.391283705e-39
0.29757717 0.022160001 0.83100003 8.744140252e-39
0.30001906 0.022106668 0.82900006 8.003706756e-39
0.30087048 0.022053333 0.82700002 7.636716497e-39
0.30494285 0.021893334 0.82100004 8.190247607e-39
0.30732003 0.021840001 0.81900007 9.110767575e-39
0.30892384 0.021733334 0.81500006 9.939082104e-39
0.31047621 0.021733334 0.81500006 1.021602492e-38
0.31164572 0.021706667 0.81400001 1.049153562e-38
0.31319621 0.021706667 0.81400001 1.104255139e-38
0.31474668 0.021706667 0.81400001 1.159392451e-38
0.32094857 0.021706667 0.81400001 1.260770369e-38
0.32249904 0.021706667 0.81400001 1.279244808e-38
0.32325333 0.021653334 0.81200004 1.30683147e-38
0.32634667 0.021653334 0.81200004 1.417106652e-38
0.33098668 0.021653334 0.81200004 1.343819724e-38
0.33490285 0.021706667 0.81400001 1.352965859e-38
0.33841908 0.021733334 0.81500006 1.37136715e-38
0.3430762 0.021733334 0.81500006 1.352858519e-38
0.3454743 0.021786667 0.81700003 1.343711263e-38
0.34788001 0.021840001 0.81900007 1.343638536e-38
0.3527143 0.021946667 0.82300001 1.315943833e-38
0.35514289 0.022000002 0.82500005 1.288429338e-38
0.37075812 0.022373334 0.83900005 1.076707153e-38
0.37324381 0.022426667 0.84100002 1.013612989e-38
0.37484571 0.022426667 0.84100002 1.245038131e-38
0.29741904 0.023857143 0.83500004 9.297651745e-39
0.29829335 0.023800001 0.83300006 8.928165773e-39
0.29844004 0.023685714 0.82900006 8.556160267e-39
0.30087048 0.023628572 0.82700002 6.625459651e-39
0.3041181 0.023514286 0.82300001 8.005846538e-39
0.30732003 0.023400001 0.81900007 9.201525472e-39
0.30892384 0.023285715 0.81500006 9.939435231e-39
0.32094857 0.023257142 0.81400001 1.242116424e-38
0.32325333 0.0232 0.81200004 1.288213538e-38
0.32634667 0.0232 0.81200004 1.361825989e-38
0.32870096 0.023257142 0.81400001 1.352786352e-38
0.32944003 0.0232 0.81200004 1.343638956e-38
0.33335239 0.023257142 0.81400001 1.343782169e-38
0.33490285 0.023257142 0.81400001 1.362077101e-38
0.33997145 0.023285715 0.81500006 1.371153311e-38
0.34152383 0.023285715 0.81500006 1.371153592e-38
0.3430762 0.023285715 0.81500006 1.361970743e-38
0.3454743 0.023342857 0.81700003 1.37111912e-38
0.3542819 0.023514286 0.82300001 1.306795877e-38
0.35915428 0.023628572 0.82700002 1.260769248e-38
0.36160195 0.023685714 0.82900006 1.23325237e-38
0.36405715 0.023742856 0.83100003 1.205556267e-38
0.36652005 0.023800001 0.83300006 1.168857941e-38
0.37058097 0.023857143 0.83500004 1.030863534e-38
0.37217146 0.023857143 0.83500004 1.142080669e-38
0.37376192 0.023857143 0.83500004 1.253325831e-38
0.29370287 0.025264764 0.82900006 9.849732511e-39
0.29900953 0.02544762 0.83500004 9.204028192e-39
0.29988003 0.025386669 0.83300006 8.741982253e-39
0.3015981 0.025264764 0.82900006 5.709615816e-39
0.30244571 0.025203809 0.82700002 6.629042771e-39
0.30402097 0.025203809 0.82700002 7.54667186e-39
0.30485713 0.025142858 0.82500005 8.099470091e-39
0.30650666 0.025020953 0.82100004 8.92493578e-39
0.30732003 0.024960002 0.81900007 9.292640701e-39
0.30812573 0.024899049 0.81700003 9.568867457e-39
0.31939811 0.024807619 0.81400001 1.214565635e-38
0.32249904 0.024807619 0.81400001 1.251514933e-38
0.32325333 0.024746668 0.81200004 1.269881331e-38
0.32634667 0.024746668 0.81200004 1.315942853e-38
0.32870096 0.024807619 0.81400001 1.325235003e-38
0.32944003 0.024746668 0.81200004 1.343602102e-38
0.33180189 0.024807619 0.81400001 1.352857398e-38
0.33335239 0.024807619 0.81400001 1.362005215e-38
0.33841908 0.024838097 0.81500006 1.380372734e-38
0.33955428 0.024807619 0.81400001 1.371189185e-38
0.34110478 0.024807619 0.81400001 1.371189325e-38
0.34703049 0.024899049 0.81700003 1.417070779e-38
0.34944001 0.024960002 0.81900007 1.380300007e-38
0.35342097 0.025020953 0.82100004 1.334381978e-38
0.35741714 0.025081905 0.82300001 1.28824759e-38
0.36318097 0.025264764 0.82900006 1.233073284e-38
0.36564001 0.025325716 0.83100003 1.196339086e-38
0.36810669 0.025386669 0.83300006 1.123121802e-38
0.36969337 0.025386669 0.83300006 1.04933545e-38
0.37286669 0.025386669 0.83300006 1.032018064e-38
0.29884383 0.02716762 0.83900005 9.666784589e-39
0.29972571 0.027102858 0.83700001 9.297654547e-39
0.30059999 0.027038096 0.83500004 9.019639734e-39
0.30074286 0.026908573 0.83100003 7.915824322e-39
0.30494285 0.026584763 0.82100004 8.373907389e-39
0.30888003 0.026520003 0.81900007 9.476311694e-39
0.30968192 0.02645524 0.81700003 9.844728474e-39
0.3127943 0.02645524 0.81700003 1.076559036e-38
0.31979051 0.026390478 0.81500006 1.196198396e-38
0.32094857 0.026358096 0.81400001 1.214529481e-38
0.32404953 0.026358096 0.81400001 1.242222222e-38
0.32480001 0.026293335 0.81200004 1.269879089e-38
0.32634667 0.026293335 0.81200004 1.297610505e-38
0.32870096 0.026358096 0.81400001 1.30683147e-38
0.33025143 0.026358096 0.81400001 1.325234022e-38
0.33180189 0.026358096 0.81400001 1.343636714e-38
0.33800378 0.026358096 0.81400001 1.389592297e-38
0.34110478 0.026358096 0.81400001 1.371189185e-38
0.3430762 0.026390478 0.81500006 1.371188904e-38
0.3454743 0.02645524 0.81700003 1.389555723e-38
0.34944001 0.026520003 0.81900007 1.37115177e-38
0.35100001 0.026520003 0.81900007 1.343565248e-38
0.35498476 0.026584763 0.82100004 1.325125561e-38
0.36230478 0.026779048 0.82700002 1.24218733e-38
0.36476001 0.026843812 0.82900006 1.205453131e-38
0.36969337 0.026973335 0.83300006 1.104577438e-38
0.37128001 0.026973335 0.83300006 1.086210059e-38
0.37625143 0.027102858 0.83700001 1.198220049e-38
0.29776192 0.02897143 0.84500003 1.00355545e-38
0.30044192 0.028765716 0.83900005 9.483127609e-39
0.30132002 0.028697142 0.83700001 9.296951095e-39
0.30219048 0.028628573 0.83500004 8.560120337e-39
0.3015981 0.028422859 0.82900006 7.912601336e-39
0.30244571 0.028354287 0.82700002 7.635654313e-39
0.30402097 0.028354287 0.82700002 7.361214212e-39
0.3056857 0.028217142 0.82300001 8.190600734e-39
0.30807051 0.028148573 0.82100004 8.833459017e-39
0.30888003 0.028080003 0.81900007 9.292279166e-39
0.31200004 0.028080003 0.81900007 1.021314245e-38
0.31435049 0.028011428 0.81700003 1.076702669e-38
0.31668574 0.027942859 0.81500006 1.122692584e-38
0.32289526 0.027942859 0.81500006 1.205525158e-38
0.3256 0.027908571 0.81400001 1.242329701e-38
0.32715046 0.027908571 0.81400001 1.279244527e-38
0.32910478 0.027942859 0.81500006 1.288429338e-38
0.33025143 0.027908571 0.81400001 1.306867483e-38
0.33800378 0.027908571 0.81400001 1.398668227e-38
0.33955428 0.027908571 0.81400001 1.380301268e-38
0.34110478 0.027908571 0.81400001 1.371117999e-38
0.34462857 0.027942859 0.81500006 1.380300147e-38
0.35342097 0.028148573 0.82100004 1.334455266e-38
0.35898477 0.028217142 0.82300001 1.279065722e-38
0.36142859 0.028285714 0.82500005 1.251050542e-38
0.36476001 0.028422859 0.82900006 1.223929391e-38
0.36722288 0.028491428 0.83100003 1.196449648e-38
0.37465715 0.028697142 0.83700001 1.104367243e-38
0.29776192 0.030580953 0.84500003 9.758973212e-39
0.30291429 0.030291429 0.83700001 8.743445208e-39
0.30378094 0.030219048 0.83500004 8.278519601e-39
0.30402097 0.029929524 0.82700002 7.635294179e-39
0.30485713 0.029857146 0.82500005 7.914738316e-39
0.30650666 0.029712383 0.82100004 8.466477166e-39
0.31044003 0.029640002 0.81900007 9.752888774e-39
0.31200004 0.029640002 0.81900007 1.002947006e-38
0.3127943 0.02956762 0.81700003 1.039789104e-38
0.31901905 0.02956762 0.81700003 1.132019486e-38
0.32715046 0.029459048 0.81400001 1.260878409e-38
0.33025143 0.029459048 0.81400001 1.288536818e-38
0.33955428 0.029459048 0.81400001 1.389700477e-38
0.34110478 0.029459048 0.81400001 1.380409729e-38
0.34944001 0.029640002 0.81900007 1.316086906e-38
0.35185716 0.029712383 0.82100004 1.270170699e-38
0.35342097 0.029712383 0.82100004 1.297651143e-38
0.35898477 0.029784761 0.82300001 1.288358432e-38
0.36142859 0.029857146 0.82500005 1.260774713e-38
0.36388001 0.029929524 0.82700002 1.233222242e-38
0.36633909 0.030001907 0.82900006 1.205562152e-38
0.37128001 0.03014667 0.83300006 1.159320144e-38
0.37465715 0.030291429 0.83700001 1.131701251e-38
0.37715051 0.030363811 0.83900005 1.123202937e-38
0.38125333 0.03043619 0.84100002 1.299318268e-38
0.29881907 0.032304764 0.84800005 9.574936481e-39
0.30291429 0.031885713 0.83700001 8.926753264e-39
0.30464 0.031733338 0.83300006 8.280303454e-39
0.3056857 0.031352382 0.82300001 8.190959467e-39
0.30725333 0.031352382 0.82300001 8.46647156e-39
0.30807051 0.031276189 0.82100004 8.833454813e-39
0.31044003 0.031200001 0.81900007 9.753964971e-39
0.31356004 0.031200001 0.81900007 1.021350259e-38
0.31512004 0.031200001 0.81900007 1.049008387e-38
0.31901905 0.03112381 0.81700003 1.113581481e-38
0.32057524 0.03112381 0.81700003 1.141312197e-38
0.32213143 0.03112381 0.81700003 1.16889928e-38
0.32289526 0.031047622 0.81500006 1.196486362e-38
0.32755241 0.031047622 0.81500006 1.242510609e-38
0.32910478 0.031047622 0.81500006 1.260914002e-38
0.33645332 0.031009525 0.81400001 1.37115233e-38
0.33955428 0.031009525 0.81400001 1.398812421e-38
0.34110478 0.031009525 0.81400001 1.389701598e-38
0.34391811 0.03112381 0.81700003 1.380409168e-38
0.3454743 0.03112381 0.81700003 1.352785371e-38
0.35342097 0.031276189 0.82100004 1.26087939e-38
0.35498476 0.031276189 0.82100004 1.315943273e-38
